ply
format ascii 1.0
element vertex 645
property float x
property float y
property float z
property uchar red
property uchar green
property uchar blue
property uchar alpha
end_header
-14.253013588512800 -7.781650638514520 -29.091336950928593 144 108 84 255
-13.924895409349176 -6.766636438766227 -28.262445221675051 130 100 72 255
-13.668810979568406 -5.828744878053655 -27.619644951887523 112 88 58 255
-13.340679411473815 -4.804255444672862 -26.790854963154146 99 82 52 255
-12.868442702706787 -3.608327395284306 -25.590072620146486 78 72 41 255
-11.495535097519721 -1.358330668447522 -22.064168101385036 32 41 6 255
-3.929434167657917 -28.403310463151811 -3.484424803543817 196 159 139 255
-5.878754343487486 -29.242951389149525 -8.519488747663985 201 161 142 255
-6.235835226947799 -28.827908618509795 -9.459415424780104 207 166 148 255
-6.882508063416083 -28.653962074628822 -11.143739534442091 209 169 150 255
-7.384470278364788 -28.370937593422582 -12.455710936849925 201 164 145 255
-8.429451352626231 -28.545422273494054 -15.163357265919416 201 164 145 255
-9.438345891345193 -28.705384299229536 -17.777745953107797 216 181 162 255
-9.868131725385197 -28.392037332631602 -18.903216456531538 213 178 159 255
-10.044547463739391 -27.869626895075882 -19.377309851686221 210 175 156 255
-10.112374015176954 -27.256764074380953 -19.572251151395761 209 174 155 255
-10.216421689102148 -26.676380569298473 -19.860208589407762 205 171 152 255
-10.537738531249758 -26.287339042730011 -20.706324242818880 209 173 154 255
-10.859096075109406 -25.903206817238271 -21.552372128300618 207 171 152 255
-11.180494583073127 -25.523979500710283 -22.398352173256825 204 168 149 255
-11.248436951032517 -24.922705091897498 -22.593124705425339 198 162 143 255
-11.316395402108583 -24.322548282477300 -22.787878770681829 194 158 139 255
-11.348152732136910 -23.690544010118245 -22.889601393399289 191 155 136 255
-11.452361868840924 -23.125570484330851 -23.177331085654146 189 154 134 255
-11.629033966796172 -22.629242441585248 -23.651046553143573 192 157 137 255
-11.769511312423802 -22.101863251487259 -24.031719689791572 193 158 138 255
-11.837564081008068 -21.508578559230600 -24.226362242965763 195 160 140 255
-11.905634883832647 -20.916384822155223 -24.420985728612209 196 161 141 255
-11.937495741427227 -20.290697430119963 -24.522598344937308 192 160 139 255
-12.114292080808866 -19.804950637751929 -24.996151468472760 190 158 137 255
-12.182422506307915 -19.216540714683603 -25.190710126011851 187 155 134 255
-12.359273168706082 -18.735370431554173 -25.664192772158657 183 151 128 255
-12.463683290032662 -18.185567226933202 -25.951679519910329 175 143 120 255
-12.459405434248168 -17.529577906260471 -25.960217247303120 168 136 113 255
-12.527618685322423 -16.945963087495329 -26.154690509936785 158 128 104 255
-12.487130592035996 -16.253992746259115 -26.070242639380012 152 122 98 255
-12.591622622256708 -15.708403068673235 -26.357650279230086 145 115 91 255
-12.623651156546543 -15.090375920013301 -26.459110709774194 136 106 78 255
-12.619451991201331 -14.435564734334122 -26.467601444476315 136 107 77 255
-12.651515491521749 -13.818250742191964 -26.569039076936861 135 103 77 255
-12.719847179098423 -13.239237910964690 -26.763413019211725 134 103 77 255
-13.005707669701863 -12.889771910822617 -27.515443261145776 136 105 77 255
-13.146600669599636 -12.391123585567854 -27.895640678056793 140 109 81 255
-13.287523724760419 -11.894560477088518 -28.275803618278644 144 113 86 255
-13.174684273168481 -11.127787409403041 -28.005382447898057 147 114 89 255
-13.206883091408002 -10.515980388224364 -28.106704086176990 153 117 91 255
-13.166583845714399 -9.825741981266347 -28.022154511059483 156 119 93 255
-13.235082629826081 -9.253989151889868 -28.216380571664985 153 116 90 255
-13.231080729541077 -8.603251331242205 -28.224742182796376 151 110 88 255
-13.263361953814353 -7.992648585771406 -28.326014907543339 144 104 82 255
-13.259399390589522 -7.341945366363461 -28.334358630237801 136 100 76 255
-12.965314213001633 -6.364792269315032 -27.599404231932510 118 90 63 255
-12.526145211802643 -5.218933885110431 -26.492866204883768 99 82 52 255
-11.760518490717175 -3.694459684337374 -24.550263721313627 78 73 43 255
-2.099011313770475 -27.493035328686943 -0.805928621822972 198 160 141 255
-3.442300216742169 -27.832467024004856 -4.254856027540910 203 162 144 255
-5.077254828110028 -28.425413021692734 -8.447130751630539 208 167 149 255
-5.691987498651088 -28.218198392724361 -10.036538000914732 206 168 149 255
-6.416120449500795 -28.109407218754470 -11.904655146306766 200 163 144 255
-7.723470904458679 -28.491321564905576 -15.259682702872084 201 164 145 255
-8.775822080448890 -28.680943230950007 -17.963890023131455 217 182 163 255
-9.245087283756703 -28.397833349196816 -19.180946615992212 216 181 162 255
-9.568599282414482 -27.998613829824421 -20.026186417559870 212 177 158 255
-9.600522636600402 -27.355763905052441 -20.127944639725769 210 175 156 255
-9.668911671136783 -26.744851314288795 -20.322615440434106 206 171 152 255
-9.846686323345793 -26.229900162123712 -20.796027559532632 207 170 151 255
-10.243239865125275 -25.908972744469708 -21.826897668295658 204 167 148 255
-10.493998002588938 -25.465434881299132 -22.486035507731373 200 163 144 255
-10.635401863633859 -24.928462002116092 -22.866392519229748 196 159 140 255
-10.630971238060013 -24.262932154973910 -22.875094791025560 192 155 136 255
-10.735947553375809 -23.696312091728217 -23.162499073690611 190 153 134 255
-10.804475714452394 -23.098112869810791 -23.356979343414309 188 153 133 255
-10.982429339286341 -22.601513322046259 -23.830126177377309 187 152 132 255
-11.050996069761368 -22.006329283103184 -24.024558774686710 187 152 132 255
-11.156053094274341 -21.446279120621753 -24.311860667284265 190 155 135 255
-11.261131041389376 -20.887859972480939 -24.599136745907117 189 154 134 255
-11.293276665204900 -20.261912067877262 -24.700625030343531 184 152 131 255
-11.398393818389266 -19.706201004782514 -24.987856256681710 182 150 129 255
-11.430572199812062 -19.081872179465861 -25.089313571056778 180 148 125 255
-11.681657987519770 -18.670397534201328 -25.747981246193859 175 143 120 255
-11.640909781504234 -17.977433523602556 -25.663659392243318 168 136 113 255
-11.746112499273224 -17.427618819236386 -25.950792871534844 162 130 105 255
-11.778363650504033 -16.807007266894942 -26.052180168624517 156 126 99 255
-11.847120188769694 -16.223373493725376 -26.246411394427696 150 120 94 255
-11.842915369091642 -15.567312966924021 -26.254917277875478 145 115 89 255
-11.911709065593868 -14.985225328817990 -26.449116308849909 141 111 83 255
-11.834546758314502 -14.255068154713811 -26.271912002781505 139 110 80 255
-11.903375472322168 -13.673964266730479 -26.466085477695771 136 106 78 255
-11.972225608830968 -13.093883401236155 -26.660239061032485 134 104 76 255
-12.333091998480484 -12.819506767888825 -27.597056159927689 135 106 76 255
-12.548003500231971 -12.397037855117659 -28.162469654134810 138 109 79 255
-12.580437321950711 -11.784604985733282 -28.263692840224934 142 113 84 255
-12.430368478424541 -10.978151388376062 -27.900777861867226 144 114 86 255
-12.134278236027129 -10.012785263440264 -27.166598298918387 148 115 88 255
-11.911193335504265 -9.121875377120688 -26.618103954750751 149 113 87 255
-12.089708680217825 -8.664393143781354 -27.090604963507417 145 108 82 255
-12.231746912871017 -8.169528595610515 -27.470253525800615 140 102 79 255
-12.337303343010603 -7.636464692395151 -27.757059991139954 129 96 71 255
-11.895172874605251 -6.497142154198983 -26.651776293960694 118 90 64 255
-11.489537585614116 -5.391989689276883 -25.639369455535757 95 79 50 255
-10.134428544565125 -3.213240720944057 -22.214303049951099 64 64 32 255
-0.807853264183024 -27.747363308324282 0.482365817080193 198 158 135 255
-2.013556342378266 -27.957481503243017 -2.591236771740910 201 159 142 255
-3.256070738052728 -28.214436539814429 -5.757447237513901 205 164 146 255
-4.021748451304646 -28.110566075135210 -7.716485487691529 207 169 150 255
-4.860889357626604 -28.077022280378557 -9.861046560113465 204 166 147 255
-5.369879750153103 -27.788539480768236 -11.169939570138382 202 165 146 255
-6.686214992606054 -28.167403633416654 -14.520992025904661 201 165 146 255
-7.745808048790764 -28.353991984092502 -17.222001162237490 218 183 164 255
-8.365128323385647 -28.189993533398010 -18.808926188277667 218 183 164 255
-8.727613012711203 -27.819665373266687 -19.745991587425038 213 178 159 255
-8.980033239938791 -27.361599669113431 -20.404535212684408 206 171 152 255
-9.012261214779059 -26.719352226060082 -20.506151528003841 200 164 146 255
-9.264733958884747 -26.267339617078363 -21.164610556554464 200 163 144 255
-9.517238731430794 -25.819157235404745 -21.823016590958218 198 161 142 255
-9.769775782729027 -25.374800799866691 -22.481369562883856 195 158 139 255
-9.985634253117396 -24.901849582332602 -23.046871094616449 192 155 136 255
-10.017957502577389 -24.268744469855477 -23.148352524925286 192 155 136 255
-10.160436446148083 -23.735082186001179 -23.528196741465649 191 154 135 255
-10.119355855660928 -23.037479217265329 -23.444069971760086 186 151 131 255
-10.188435102119115 -22.439850126576758 -23.638298773589440 183 148 128 255
-10.294250458844161 -21.877087685139273 -23.925289972814141 182 147 127 255
-10.400085771052886 -21.315961312306854 -24.212255738174662 185 150 130 255
-10.616111785961905 -20.859382274208215 -24.777517087120088 183 148 128 255
-10.611817381900934 -20.198598015430775 -24.786110657539041 178 146 125 255
-10.754441231030199 -19.677196463722566 -25.165766341506497 176 144 121 255
-10.713445958337374 -18.982377645559026 -25.081573391446938 174 142 119 255
-10.856110494601765 -18.463935127680386 -25.461181026320105 170 138 115 255
-10.888603504221564 -17.840675891438366 -25.562487250625622 165 133 108 255
-11.031313336878910 -17.325711776385958 -25.942039531809797 161 129 104 255
-11.137313151511108 -16.776689743489897 -26.228809607932476 156 125 98 255
-11.133123260274303 -16.119867088341010 -26.237316538645871 151 119 94 255
-11.202424035590383 -15.536478651278870 -26.431302632799657 146 116 90 255
-11.235003606582595 -14.917127065203587 -26.532530766515350 139 112 83 255
-11.230857147164230 -14.260997027714708 -26.541011332210843 140 113 84 255
-11.300212540981860 -13.679903556247751 -26.734949877945610 135 106 77 255
-11.259350679655796 -12.986393126057578 -26.650684220952741 137 106 78 255
-11.512480352528883 -12.596947824387641 -27.308217953825306 137 106 77 255
-11.545152209346838 -11.981093452539767 -27.409369593146806 137 106 77 255
-11.614593047871651 -11.404328069207054 -27.603226296586115 140 109 80 255
-11.463539717181732 -10.595200997732164 -27.240777280901767 142 111 83 255
-11.165471158460207 -9.627171462981352 -26.507506684616601 142 112 84 255
-11.051171534322123 -8.851894603156495 -26.237822494548453 138 105 80 255
-11.010393266446954 -8.154303636054010 -26.153560810875206 133 102 76 255
-11.079905872983517 -7.575986857947299 -26.347401196772466 121 94 69 255
-10.708311035998648 -6.515703178176707 -25.428857537283619 106 86 58 255
-9.895550349765287 -4.963714293970199 -23.398054302956240 91 80 51 255
-8.494509330598561 -2.747137494233087 -19.884355472444639 55 58 25 255
0.523850216621341 -28.722944041030303 1.869366721491474 187 166 134 255
0.639561543554578 -27.898740473742947 2.137926967008127 191 156 131 255
-0.648173451768685 -28.150816460834193 -1.117664756792891 198 155 136 255
-2.009907074038381 -28.479177541621993 -4.558480351083631 203 160 142 255
-2.854664860030681 -28.422980271530918 -6.700766068346951 209 167 150 255
-3.440940353841370 -28.175086283783713 -8.193778451529084 209 171 152 255
-4.322798679790964 -28.171476671404392 -10.428484967467909 204 167 148 255
-5.204747323687585 -28.180916875063573 -12.663019313434717 202 165 146 255
-6.049842711618240 -28.173417188260814 -14.804662297435442 203 168 149 255
-7.079752811698938 -28.329687798093190 -17.409718359909078 220 187 168 255
-7.629452943574861 -28.104335654847659 -18.809316418285533 221 186 167 255
-8.031415598409680 -27.763973656917869 -19.837971271097473 212 177 158 255
-8.285619630414004 -27.305357195094487 -20.495725141247419 202 167 148 255
-8.392043945301822 -26.725242216302732 -20.782620223053584 192 155 137 255
-8.683257252475926 -26.304823785873168 -21.532981026145649 192 154 133 255
-8.900593068481868 -25.825027319972136 -22.097893061334673 191 153 132 255
-9.117956922396218 -25.348517280742328 -22.662759378051163 191 153 132 255
-9.261429616034164 -24.810461345688054 -23.042204932991950 191 153 132 255
-9.367962298119863 -24.241919814316617 -23.328934719843971 192 154 133 255
-9.548439667521706 -23.740940059268169 -23.801000597522744 191 155 133 255
-9.544117553020698 -23.076571578777589 -23.809642750374962 186 151 131 255
-9.613737148785248 -22.479216419910060 -24.003627864901546 182 147 127 255
-9.498529766127660 -21.714146215297660 -23.734245241530118 178 143 123 255
-9.568171916471854 -21.117640032129245 -23.928211718912763 177 142 122 255
-9.748746084275155 -20.625134725862210 -24.400148782810732 176 141 121 255
-10.040268182017229 -20.239053873397864 -25.150024842217590 173 141 118 255
-10.220901324866531 -19.752765700420341 -25.621872771971169 171 139 116 255
-10.179698593856884 -19.058499927079012 -25.537766728756793 170 138 115 255
-10.175481531821205 -18.399070087959160 -25.546312125886800 167 135 110 255
-10.208255612874240 -17.775280533204494 -25.647498392715562 163 131 106 255
-10.388973328335226 -17.295700993859953 -26.119240807627961 159 127 102 255
-10.495751152709246 -16.746414306852301 -26.405666677632610 155 123 98 255
-10.417621769592117 -16.016411639580895 -26.228891987444001 149 117 93 255
-10.487447124841253 -15.432221956413514 -26.422652292547099 145 115 91 255
-10.483312916598734 -14.775070644627533 -26.431137718504800 139 111 86 255
-10.516181842025603 -14.155146134447293 -26.532242632345628 137 110 84 255
-10.475081622664959 -13.460629201662854 -26.448093422187497 135 106 79 255
-10.470985144310831 -12.803327330392719 -26.456563547790040 135 106 79 255
-10.577889573801713 -12.260206220202377 -26.742870651415217 135 106 76 255
-10.499829629296244 -11.526882074253365 -26.566098573395834 134 106 76 255
-10.347778314800294 -10.715161482853603 -26.204120729820318 136 107 78 255
-10.232728726621843 -9.940090638728279 -25.934768834185235 133 104 76 255
-9.932670856385130 -8.967506192197732 -25.202431225212479 132 102 76 255
-9.854626619949158 -8.227093007532943 -25.025723796134088 125 99 71 255
-9.776590940743006 -7.485497933403281 -24.849024497708342 114 94 65 255
-9.587541720042481 -6.622798931038318 -24.394563830007854 100 88 58 255
-8.769337073856320 -5.073169721029345 -22.366163973064033 74 71 38 255
-7.025808790677658 -2.498718748927004 -18.023337924654271 34 42 8 255
1.316743100903977 -28.645950367636331 1.843553238517273 192 156 134 255
0.280568045383006 -28.691749231373862 -0.759826143270857 194 152 132 255
-0.309526544784390 -28.412458643444054 -2.251453096796638 197 155 133 255
-1.568987293095134 -28.657274102634958 -5.410230612995690 199 161 138 255
-2.270790309468424 -28.487041625977639 -7.179430869719226 207 170 148 255
-2.898289893764570 -28.268824827446309 -8.763257105270327 207 172 150 255
-3.563042598908027 -28.089322608783277 -10.439576332438293 203 170 147 255
-4.636961549109088 -28.246458166049777 -13.134495862505247 201 167 147 255
-5.450639725441945 -28.209466395704581 -15.180950657310945 205 172 153 255
-6.487566003635038 -28.365945042852815 -17.782876404728995 221 188 172 255
-7.003851119790170 -28.110310040899535 -19.088185001682007 222 187 170 255
-7.445795030178672 -27.800718902383579 -20.208196779274203 212 176 159 255
-7.738988205566500 -27.373423090342015 -20.957744357378630 202 165 147 255
-7.957812424024226 -26.887842425073742 -21.522051241698762 188 152 134 255
-8.251069733385279 -26.468760621580955 -22.271487202088167 182 144 124 255
-8.358336977726580 -25.894690250013610 -22.557945361976209 183 145 124 255
-8.428414490516687 -25.290145335117060 -22.751798981473854 184 146 126 255
-8.498505617498182 -24.686723722195566 -22.945635177208231 186 148 127 255
-8.568610614196473 -24.084421264346091 -23.139453877166488 186 150 128 255
-8.787577034333466 -23.615039166270350 -23.703533632769904 187 151 129 255
-8.820503927123397 -22.982820413793547 -23.804736965569901 184 149 129 255
-8.927872569059076 -22.418150228656685 -24.091054904196710 182 147 127 255
-8.886391436176382 -21.720077914257331 -24.007111463046641 177 142 122 255
-8.993790099019066 -21.157606532797658 -24.293393792221991 174 139 119 255
-9.175648577676199 -20.665368241703860 -24.764755538243151 172 137 115 255
-9.506421856901682 -20.314117759635778 -25.606272999557603 169 137 114 255
-9.539443692696082 -19.689006546171086 -25.707362161865859 169 137 114 255
-9.423575670196129 -18.923993988450164 -25.438273506744537 168 136 111 255
-9.307706922565444 -18.157356304991382 -25.169201600894354 166 134 109 255
-9.452441141671827 -17.638635224660149 -25.547889268699208 163 131 106 255
-9.634429850543498 -17.157975502655958 -26.019075920219194 160 128 103 255
-9.853678371558814 -16.716181421266612 -26.582751053147405 157 124 100 255
-9.737850524386232 -15.949466753952706 -26.313661689655248 150 118 95 255
-9.770966780434719 -15.328015899458904 -26.414671756933103 145 114 92 255
-9.692385027488712 -14.596070124635588 -26.238118398980987 139 111 88 255
-9.688286419328790 -13.937538101945435 -26.246601907934007 134 106 82 255
-9.721440441093662 -13.316494771037171 -26.347591018055112 132 106 79 255
-9.642882203194517 -12.582509944535744 -26.171047785479089 131 105 77 255
-9.564329622361939 -11.847383442761156 -25.994513570148683 129 104 74 255
-9.299553662143566 -10.919366653709844 -25.355488670982396 128 103 73 255
-9.146510023035319 -10.103350681465727 -24.993996677892056 129 104 75 255
-9.030715599567714 -9.323981849880099 -24.725020314234683 121 96 69 255
-8.728670771665392 -8.347111802514007 -23.993611921032198 113 92 63 255
-8.687380779291345 -7.641826532925862 -23.909656163523579 101 89 57 255
-7.789257693320309 -6.022824705066895 -21.698601958361252 72 71 38 255
1.133270398296844 -30.026912137441258 -0.579044988175383 196 158 134 255
0.688918356654398 -29.626105390825657 -1.698905045738513 195 153 133 255
0.656241371148695 -28.922922941818385 -1.800937067373781 197 154 135 255
-0.087627312889992 -28.759192153894276 -3.660810199853103 197 156 134 255
-0.831569136372551 -28.606370898177929 -5.520540454446262 198 160 137 255
-1.538149967669042 -28.435555206481084 -7.287616383659298 206 170 147 255
-2.132492583401955 -28.187591239424279 -8.777032691157160 206 171 149 255
-2.951521850157945 -28.124995671342859 -10.821360455206275 204 172 149 255
-4.107588173908368 -28.341754244944923 -13.698039091855037 201 169 148 255
-5.450973603747855 -28.725236489048697 -17.036984354098252 205 172 153 255
-6.307729172539823 -28.734995641166620 -19.173254120720003 222 189 174 255
-6.602897287835319 -28.299454420385118 -19.922004498497728 224 188 172 255
-6.972991128982216 -27.929880006838843 -20.855669685335045 213 176 160 255
-7.193331559896848 -27.441530670097293 -21.419328540036844 200 163 147 255
-7.376248016308210 -26.925151158188683 -21.890462586751084 186 151 132 255
-7.596639045427111 -26.443126549407566 -22.454034954668515 178 141 122 255
-7.667242538451319 -25.836915393665464 -22.647670903720098 172 135 116 255
-7.700403637663541 -25.199692614488157 -22.748820392165612 177 140 121 255
-7.658660427059786 -24.498235273170408 -22.665028014385683 176 141 121 255
-7.766754948241044 -23.926994565432707 -22.951088726239760 176 141 121 255
-7.949787314841814 -23.423306769150400 -23.422042812002530 176 141 121 255
-8.057919532483510 -22.855911436613013 -23.708047849475776 177 145 124 255
-8.278460780419422 -22.390628149172628 -24.271384028289049 180 145 123 255
-8.274236588512792 -21.726054835914937 -24.279984592012596 177 142 120 255
-8.419889164043767 -21.197612703357748 -24.658361059735626 173 138 116 255
-8.603032293938426 -20.705640653129521 -25.129147343943799 169 135 110 255
-8.823671310665304 -20.250943337028431 -25.692332934096527 166 134 111 255
-8.856977133883490 -19.625299273525741 -25.793300864400550 166 134 110 255
-8.815346770091892 -18.929978925162189 -25.709396143389483 165 133 108 255
-8.736246087418465 -18.198735741360920 -25.533067052460808 163 131 106 255
-8.844535179349805 -17.644637769870556 -25.818867743286518 160 129 101 255
-8.840406272928050 -16.984391693866812 -25.827382085734939 158 127 99 255
-8.986210417944264 -16.468871050458958 -26.205560371121805 155 124 98 255
-8.907142693571842 -15.736742642785259 -26.029225532907731 151 119 94 255
-8.940531032027010 -15.113681702830704 -26.130130564279341 146 117 91 255
-8.786503722598297 -14.306140899116201 -25.768991484705964 139 113 85 255
-8.632473744341425 -13.496397220729023 -25.407875860615121 130 107 79 255
-8.553419828808345 -12.759516777742519 -25.231582896853553 129 102 72 255
-8.474370507922259 -12.021500870537878 -25.055299361246625 127 103 72 255
-8.282848518643178 -11.168115350370002 -24.601847058726491 124 104 72 255
-7.941345155925049 -10.158578077797387 -23.778867849556008 118 99 68 255
-7.637320089944964 -9.182721999980359 -23.048332110714284 104 87 57 255
-7.295783742402108 -8.163577909922239 -22.225464709015398 94 82 51 255
-6.954230687317420 -7.139484243685700 -21.402654784357281 73 75 41 255
5.416728439314312 -28.910622320456241 8.011273291958418 194 172 141 255
4.253763332648617 -28.995331940142520 5.136335840693533 195 165 137 255
0.792542440923796 -30.777164156421335 -3.375880216978089 196 159 135 255
1.249331339937171 -29.716061966341769 -2.276341471538643 194 155 134 255
0.877243644060243 -29.266460676141563 -3.209926556287513 199 157 138 255
-0.060077315324691 -29.247707011747437 -5.529551601079305 200 159 139 255
-0.620673013837489 -28.956302959326109 -6.924959414503718 197 159 136 255
-0.879858014797350 -28.441928951406183 -7.581056054316349 205 169 147 255
-1.478234871279341 -28.193929037076629 -9.068674030562931 206 171 149 255
-1.850550502428860 -27.778041387128667 -10.001816727981861 205 173 150 255
-3.391244697695001 -28.288556336305021 -13.798975832632891 203 171 150 255
-5.045154827590835 -28.911231335974591 -17.873004754390735 204 171 153 255
-5.907691993883446 -28.922559005478021 -20.006680901339536 222 189 174 255
-5.978747537064407 -28.305519610697047 -20.200224747132069 223 186 170 255
-6.275986154939631 -27.874350837877927 -20.948007782244645 208 171 155 255
-6.648650961104437 -27.509680144619054 -21.880477121884098 198 161 145 255
-6.945957486861232 -27.087814598448134 -22.628135847380747 186 151 132 255
-7.092494677479777 -26.543936022809447 -23.006273927175755 179 142 123 255
-7.050539953052336 -25.842934084669764 -22.922571251330623 172 135 116 255
-7.083995045070409 -25.205714468486121 -23.023589629047649 175 138 119 255
-7.117459257755598 -24.569079011619635 -23.124598035857957 176 141 121 255
-7.113225508032599 -23.900346962162061 -23.133244895447973 175 140 120 255
-7.297542991975007 -23.396383600645194 -23.603628787889875 174 139 119 255
-7.444173186271570 -22.861934210879753 -23.981630095798266 174 139 119 255
-7.741673277826891 -22.463615665421059 -24.728964517196260 174 142 119 255
-7.662066206079288 -21.732077331793221 -24.552864186623253 174 142 119 255
-7.846470089285859 -21.237658842449207 -25.023113082502960 170 138 115 255
-7.955463176702892 -20.677361034790152 -25.308662556869052 166 134 109 255
-8.102193103659630 -20.153256561384595 -25.686514836976329 163 132 109 255
-8.060339858317704 -19.457138692310380 -25.602717550215374 161 131 107 255
-7.980768645482229 -18.725375572621786 -25.426603503720628 159 129 103 255
-7.938923156443522 -18.027902423143729 -25.342816457260795 157 127 101 255
-8.047986429421073 -17.472457422056394 -25.628285589134890 156 126 98 255
-8.043885651522274 -16.810871990817276 -25.636800927823373 154 124 96 255
-8.152981562267371 -16.257818081881041 -25.922231339943608 150 123 96 255
-8.073441994870365 -15.524085958357048 -25.746123085823825 144 118 91 255
-7.993905161347911 -14.789242247484069 -25.570024848161552 139 114 86 255
-7.763434355372908 -13.905305976352835 -25.024753075993658 132 109 81 255
-7.570689480735098 -13.055351195927940 -24.571811329285453 123 104 74 255
-7.340200710871812 -12.165114203560577 -24.026611251014742 119 98 67 255
-7.071963417003772 -11.233778913160791 -23.389163153549532 114 96 63 255
-6.765972998938011 -10.260528929164778 -22.659477339640375 107 92 58 255
-6.233512553423282 -9.052830310827545 -21.376171278815633 96 84 50 255
-5.587785360121501 -7.721656212583909 -19.816132427046483 85 80 46 255
7.737997469528409 -29.301602426656927 11.688507217048567 175 175 132 255
6.491602009083110 -29.411059434913682 8.632030179372208 200 173 144 255
6.686054941917376 -28.512428396306078 9.083718380807994 200 168 144 255
5.591182371626914 -28.538462134239353 6.396816057216398 199 161 140 255
2.637956074961480 -29.929879209630684 -0.812924971449490 195 156 135 255
2.642628325772847 -29.194180300973102 -0.822444207694531 196 155 135 255
1.547416893290304 -29.273001169910557 -3.508661901006633 201 159 139 255
0.452103648144856 -29.367602480763082 -6.194674699532243 199 159 139 255
-0.074355829918787 -29.048621023506328 -7.496087260341085 196 158 135 255
-0.221545040617201 -28.448360636046431 -7.874504511845515 202 166 144 255
-0.748088934658043 -28.141995671815195 -9.175751913931521 206 171 149 255
-1.274683868330982 -27.843283531364321 -10.476899208684415 208 176 153 255
-2.408325668712607 -28.027492029654667 -13.254411111562348 205 173 152 255
-4.604363762831852 -29.067276735900492 -18.615426644357200 201 168 150 255
-5.358859103518128 -28.989167921921464 -20.469696382763203 219 186 171 255
-5.430464200631874 -28.372667259237929 -20.662989760835416 220 184 168 255
-5.577968237998448 -27.818883820347580 -21.040796878668004 203 166 150 255
-5.915218902535031 -27.422598055949052 -21.879881546562530 194 157 141 255
-6.214557150371178 -26.999907373321591 -22.626642754563051 188 153 134 255
-6.400079735242755 -26.486808382155886 -23.096581682709086 182 145 126 255
-6.471771551421654 -25.880867523981550 -23.289729663199950 176 140 120 255
-6.505522623325888 -25.243920447671428 -23.390613321506635 175 140 120 255
-6.539282313272452 -24.607557780655029 -23.491487230478782 175 141 121 255
-6.459183033989788 -23.873752830153421 -23.315629263935591 173 140 120 255
-6.682743611303678 -23.402457292998179 -23.877680022371464 171 138 117 255
-6.868370986474886 -22.901218125900883 -24.347452355795070 173 138 118 255
-7.091982256873521 -22.436188727716655 -24.909417177331903 172 140 117 255
-6.935993276228089 -21.636885136859533 -24.549069464986076 171 139 116 255
-7.045747777132050 -21.073605183822394 -24.834309599847501 167 136 112 255
-7.231451076068652 -20.580544479175131 -25.303965418276761 163 131 106 255
-7.379210311354797 -20.055628230835339 -25.681366979051148 158 130 106 255
-7.375112548117272 -19.393543969918483 -25.689886015555174 156 128 103 255
-7.295080029551329 -18.661254283855143 -25.513982967734478 154 127 100 255
-7.290993774870145 -17.998624719438851 -25.522502384725613 152 125 98 255
-7.286915268873102 -17.335984676069700 -25.531018452827539 151 124 96 255
-7.244868714108662 -16.637416976450666 -25.447332116105542 149 124 94 255
-7.164849366018558 -15.902106835358467 -25.271453725399823 145 120 92 255
-7.046852501099522 -15.129239297660746 -25.003393623880697 138 114 86 255
-6.928854384139754 -14.354720663621038 -24.735350769057334 133 110 81 255
-6.696907437414097 -13.467571222596305 -24.190769621747364 124 105 75 255
-6.502934154697797 -12.614400896894864 -23.738408070553447 116 100 69 255
-6.043052647226475 -11.495764494825011 -22.640829713662697 110 95 61 255
-5.659116580806298 -10.446196366921967 -21.727680170551253 104 89 54 255
-4.819288044077709 -8.934315954930227 -19.708539931002917 95 82 48 255
6.541085548875998 -30.631509816769125 6.760907596164003 204 179 148 255
6.736689369913009 -29.738722439380652 7.212141730841637 208 171 147 255
7.275831118347753 -28.600356976846840 8.493169671024674 197 165 144 255
6.555382019898843 -28.354434800867097 6.731517867016152 195 159 140 255
4.002586063800621 -29.440827546879248 0.544591638726132 199 158 138 255
2.747484229182945 -29.618007596813726 -2.507319089860317 201 158 139 255
2.103083074910359 -29.363844039761418 -4.083972973703027 204 160 141 255
1.153201340728813 -29.345782092766569 -6.397990717244198 201 161 141 255
0.737742772775121 -28.940633522376572 -7.421283152954032 197 160 137 255
0.398606457933852 -28.483742130298580 -8.260139662092712 201 165 143 255
-0.169659092115836 -28.206776824210039 -9.651981878609206 207 172 150 255
-0.470687607802290 -27.731981288658019 -10.398516118871044 206 174 151 255
-1.535467523247249 -27.855633981224486 -12.988354914879267 208 176 155 255
-3.402288099532853 -28.623908861397410 -17.513453892128922 201 168 150 255
-4.352730835834308 -28.692913949761021 -19.826341478438621 215 182 167 255
-4.654012218070946 -28.256784742011078 -20.572372156270973 213 177 161 255
-4.993517050401891 -27.855826205309384 -21.410499017682667 197 160 144 255
-5.218472552010127 -27.366635098481737 -21.972108718878729 188 151 135 255
-5.596236986396391 -27.006033101553072 -22.902263229069774 185 150 131 255
-5.744852092242056 -26.461333716174764 -23.279483152096844 183 148 128 255
-5.855285484771073 -25.886984430466285 -23.564532481691458 178 143 123 255
-5.889331092692032 -25.250039471335270 -23.665284797645853 177 142 122 255
-5.885181932269802 -24.581277306152799 -23.673894246896509 174 142 121 255
-5.881037732889737 -23.912555974286050 -23.682501071508739 173 141 120 255
-6.067929837465982 -23.408579200874897 -24.151737186808759 171 139 118 255
-6.178428175648548 -22.840910409501276 -24.436690036797529 172 137 117 255
-6.365361168543117 -22.341851075477450 -24.905858218710364 169 137 114 255
-6.170204239986191 -21.508002991049892 -24.453829104682512 167 136 113 255
-6.395378377208317 -21.045705253879490 -25.015069500785813 162 132 108 255
-6.391291241769650 -20.380915615796042 -25.023611143424233 157 129 102 255
-6.578291412791302 -19.888937906012458 -25.492677795944672 153 126 102 255
-6.383136029369595 -19.051360509767861 -25.040685687045226 151 125 100 255
-6.302629326991791 -18.316385205903757 -24.865021202304632 150 124 97 255
-6.336786375691759 -17.686435118925431 -24.965653130899454 150 124 97 255
-6.447399394476861 -17.128293661410069 -25.250458552161177 148 123 93 255
-6.405131763247653 -16.428117760955061 -25.166887038832556 144 119 89 255
-6.171737898850864 -15.546485090219662 -24.622895249151298 137 113 85 255
-5.900104342510730 -14.625139140239781 -23.986860431868280 131 108 79 255
-5.628455802922545 -13.699983539016230 -23.350870801040628 125 104 75 255
-5.356792547856898 -12.771012294188097 -22.714926297848791 117 99 69 255
-5.199812671066070 -11.949995217572194 -22.355239852678409 110 95 64 255
-4.660486053531869 -10.751483829040325 -21.074902262929385 104 93 58 255
-3.700528509547098 -9.129575901091243 -18.781952893682586 96 87 51 255
8.118819726508946 -30.795459933674010 8.577479750680112 185 177 138 255
7.124782697962857 -30.717817722365240 6.173052882461917 210 176 151 255
6.783737874540407 -30.200021226005177 5.334431696640962 200 168 147 255
7.595206845576442 -28.877311805575573 7.258634429438672 198 163 141 255
6.485752759615707 -28.906719258205896 4.578267476918001 197 159 138 255
3.954603675996111 -29.970817458598276 -1.509041638669402 201 159 140 255
2.998582866627189 -29.930589876471458 -3.820546271663744 202 159 140 255
2.657274516115237 -29.454732326219940 -4.658626063973031 203 160 141 255
2.008521719801664 -29.210631576839475 -6.233238027752037 203 162 142 255
1.705563924455291 -28.718249137256038 -6.979089844839677 201 164 141 255
1.325717313911142 -28.288064290524872 -7.909019311159540 200 164 142 255
0.907403263547280 -27.892535043923715 -8.930941382606790 204 169 147 255
0.681216044143014 -27.355890996626641 -9.492481544600025 207 175 152 255
-0.198387447872548 -27.327466916770632 -11.618950341296909 205 173 152 255
-2.231168021878247 -28.210639745249026 -16.506869016302431 202 169 151 255
-3.725993037847729 -28.699160995952980 -20.105713788002276 214 180 165 255
-4.259953427604700 -28.446073449793744 -21.403115991585338 209 173 157 255
-4.563314305721946 -28.015935837451096 -22.148158951485328 192 155 139 255
-4.559159350418298 -27.341784271629848 -22.156825457818428 182 145 129 255
-4.824122377849591 -26.886931668792869 -22.809744311025213 178 143 124 255
-4.896879647030261 -26.277966871774751 -23.002447816284786 177 142 122 255
-5.123440437371400 -25.797573279301304 -23.563252867297962 176 141 121 255
-5.003976321323790 -25.031302259237663 -23.295780275670751 172 139 118 255
-4.961409661966371 -24.328255891625005 -23.212371099395540 171 139 118 255
-4.957297380458215 -23.657380212346084 -23.220985468277490 171 139 118 255
-5.107009150597008 -23.118297887653526 -23.597659661353816 171 138 117 255
-5.218282470152857 -22.548198102198299 -23.882291551735960 171 136 116 255
-5.329570689022674 -21.979745630829584 -24.166900148918955 167 135 112 255
-5.363954381656868 -21.345438844234025 -24.267475062086021 163 133 109 255
-5.590653882559536 -20.881782756073889 -24.828049093612321 158 128 104 255
-5.625063221198772 -20.249938190864825 -24.928587685412850 153 126 99 255
-5.697946235321297 -19.653201080778018 -25.121111534999756 148 124 98 255
-5.463110823903463 -18.778926335603060 -24.577688098918998 148 124 97 255
-5.382133771496214 -18.041804351681151 -24.402255020623784 147 123 95 255
-5.493504505953126 -17.480434917641560 -24.686755235817287 146 122 94 255
-5.527948913688874 -16.849399984102803 -24.787270008458563 142 119 88 255
-5.254620123753710 -15.931633961401488 -24.151954838854323 134 113 82 255
-4.788902826430530 -14.829186224435418 -23.056814782866581 126 108 78 255
-4.438581917405898 -13.829576243178238 -22.237666598535441 119 101 71 255
-4.165194504044933 -12.898510101752493 -21.602511997613874 113 96 66 255
-3.891791825043654 -11.963628281399124 -20.967402769979088 106 92 61 255
-3.502931215310952 -10.913156207961165 -20.056458005744616 97 86 54 255
9.132866858162657 -30.593061963126814 8.999264893556443 199 179 146 255
8.480282929780685 -30.275110930618951 7.425614624828398 204 175 151 255
8.136966371221533 -29.752692383710681 6.587959590683766 202 168 148 255
6.556267927665871 -30.099078887700443 2.806977732183498 198 160 140 255
5.052770278493554 -30.413231520521052 -0.789762716730621 199 161 140 255
4.245211800283101 -30.252958508854050 -2.730698222560449 202 160 141 255
3.514926749792508 -30.048539873637239 -4.487545100984221 202 159 140 255
3.171315689865608 -29.573741881989221 -5.324587504624787 200 158 138 255
2.788997632990828 -29.132257920862827 -6.253529265085120 202 161 141 255
2.600030393173597 -28.553196641025650 -6.722599083777965 201 165 143 255
2.140292955666368 -28.179139954851451 -7.835329078105076 202 166 144 255
1.564472309840525 -27.899131151170138 -9.223833564243620 205 169 147 255
1.182010337879632 -27.480181641189631 -10.152483392074288 208 172 150 255
0.490042804431624 -27.304297017817476 -11.816632131928799 206 170 148 255
-1.555976032233602 -28.187069295134350 -16.698652483068940 204 168 148 255
-3.099240612259550 -28.705462410362173 -20.385092069857876 212 175 157 255
-3.520667421188364 -28.360820384043478 -21.405111953191465 208 171 153 255
-3.671300973933867 -27.806746136867289 -21.781526693946034 191 154 136 255
-3.744566817545731 -27.192802035831932 -21.974053776061595 177 140 122 255
-3.972617055498361 -26.705267857176764 -22.534266919900602 172 135 117 255
-4.084604580128556 -26.126268795820067 -22.818670326406846 171 138 116 255
-4.235302435035948 -25.580799799947485 -23.194969419970192 168 136 113 255
-4.192524323241003 -24.876904605818453 -23.111663100768482 167 135 112 255
-4.149746800526927 -24.172515173599152 -23.028361514434920 167 135 112 255
-4.106970025599296 -23.467627492822615 -22.945064630745321 167 135 112 255
-4.180304557491723 -22.861047138544535 -23.137486658601233 164 133 110 255
-4.176239752668423 -22.189166394495572 -23.146090018366749 163 134 110 255
-4.404419808914497 -21.718171630310749 -23.706078109593165 163 133 109 255
-4.400373897330368 -21.047962658054743 -23.714656148233473 157 129 105 255
-4.589882693890431 -20.547852439597577 -24.182686511800256 153 127 100 255
-4.585854624346567 -19.879027017410394 -24.191242611202341 149 123 96 255
-4.659258102288561 -19.279322607960836 -24.383564400330954 145 125 95 255
-4.345524761780723 -18.332450612103628 -23.657064207159181 144 122 93 255
-4.225353273851837 -17.556737336399721 -23.390002439902190 143 120 89 255
-4.260050003639094 -16.920859771564238 -23.490453659903579 137 117 85 255
-4.333475388250335 -16.321146502088467 -23.682765771342503 132 111 80 255
-3.864814698247699 -15.219835855107320 -22.588926554522828 122 104 72 255
-3.396121417737163 -14.112029226083195 -21.495167526581014 115 98 70 255
-2.772497672567539 -12.851944672099137 -20.034049024358723 107 95 63 255
-2.381185806262948 -11.803476625935645 -19.124176914377330 102 89 57 255
-1.796209836297777 -10.564655172861720 -17.755105978236486 94 85 54 255
5.575179977106615 -1.319285712679473 -0.331305168001961 37 33 6 255
10.924455702597072 -30.642527299320989 11.266800612284470 190 183 144 255
9.683981483882320 -30.704930018389121 8.316701811059630 205 178 149 255
9.688618219109529 -29.938356564306574 8.306886345065578 201 175 150 255
8.759302735440414 -29.813215966122968 6.092110561354986 201 169 148 255
6.623503114130514 -30.537923864361346 1.029534237179149 198 160 139 255
5.343716728381438 -30.692732517703107 -2.011596829817961 200 162 141 255
4.647614564065776 -30.452513139979587 -3.674552379294511 203 160 141 255
3.990373466914463 -30.194333653870345 -5.245522075395371 198 155 136 255
3.800149267201562 -29.608571953541187 -5.714099194218988 193 150 131 255
3.687756111376132 -28.968928551200932 -5.998934710185097 196 156 135 255
3.380721044156090 -28.474075526100464 -6.742993618410395 197 161 139 255
2.723308557212590 -28.243599392090474 -8.313606887398549 205 169 147 255
2.104768000963134 -27.993248648320431 -9.792258497424285 208 172 150 255
1.486173182876485 -27.751632426807703 -11.270797630201372 206 170 148 255
0.750726159400102 -27.607829671344362 -13.024730331387019 206 170 148 255
-1.308549382997498 -28.493170939066516 -17.900814121031942 202 165 147 255
-2.277795557873219 -28.560644777020897 -20.205333539233806 209 172 154 255
-2.546250642276746 -28.092607800134061 -20.856828695425634 206 169 151 255
-2.620035506547381 -27.474546047207681 -21.049165987720102 191 154 136 255
-2.771711140000434 -26.919718977878389 -21.425123718621649 179 142 124 255
-3.079172164210917 -26.492372003869761 -22.168310393181429 172 135 117 255
-3.308774187236068 -26.006232494182754 -22.727817566117210 171 136 114 255
-3.538398822477362 -25.523385771408570 -23.287281375377319 168 136 113 255
-3.378573785303843 -24.722583071137123 -22.928659148048212 168 136 113 255
-3.335585777915142 -24.016850089044198 -22.845464987723062 167 135 112 255
-3.175746653230775 -23.212626574486208 -22.486883617307114 165 134 111 255
-3.249610833197835 -22.603886076414256 -22.679091331511017 162 132 108 255
-3.245577880233711 -21.929850550872132 -22.687702269365985 159 131 107 255
-3.475280796613617 -21.456686061548623 -23.247033313207510 157 129 105 255
-3.432308623113386 -20.750579363894005 -23.163835870563787 152 126 99 255
-3.467254524398967 -20.111979506386490 -23.264203511288372 150 124 97 255
-3.463247843877340 -19.439651360366796 -23.272785478043176 146 120 93 255
-3.537169155026433 -18.836439384917369 -23.464911840338118 142 119 91 255
-3.221467921087083 -17.886085509317923 -22.739324239398940 138 117 87 255
-3.022640682743940 -17.036692943274545 -22.289088674707699 134 114 82 255
-3.018635146444581 -16.361409148459288 -22.297700005537905 129 111 79 255
-2.858762022409081 -15.543587484695465 -21.939271237332463 122 107 73 255
-2.387123272121741 -14.436377712956471 -20.846819435051884 114 99 65 255
-1.837508894929670 -13.250328758757306 -19.570942751126069 106 92 60 255
-1.326828378165047 -12.093140171495435 -18.386909290770319 102 92 58 255
-0.231494230234574 -10.378234622135693 -15.826776910217148 92 85 52 255
6.368244532199796 -1.953316685637091 -0.350008506456106 44 29 10 255
6.840349347336314 -0.759478172501048 0.741359897100722 43 32 12 255
10.933407677346878 -31.116136516768734 9.296706746241995 196 182 146 255
10.546403250739374 -30.607422593365939 8.369174909481472 205 178 151 255
10.276852325417408 -30.024902946914992 7.717011207510751 200 172 150 255
9.968114394548806 -29.473013764247199 6.973135039763037 196 164 144 255
7.270263676014721 -30.571913322314302 0.632021179036599 198 162 140 255
6.021366781369224 -30.699648725750649 -2.313661962501527 200 162 141 255
4.772365548706958 -30.844804165007716 -5.259122511102760 202 160 140 255
4.463344467253847 -30.340163083165862 -6.002394873757908 194 151 132 255
4.350155363540210 -29.699599126304733 -6.286884815273964 179 137 118 255
4.589515996151434 -28.805689911295730 -5.745677436364787 152 112 92 255
4.358794158729594 -28.251972932940816 -6.305368371783771 183 147 125 255
3.422871832839505 -28.221463361493335 -8.516241964886319 209 173 151 255
2.565226963128026 -28.145713098144597 -10.543485652135672 206 170 148 255
1.825049006106852 -27.993673743996979 -12.295392284816160 205 169 147 255
0.967263533622827 -27.941060961966841 -14.322339421123559 207 171 149 255
-0.086510180070874 -28.050224776080199 -16.807737990788610 202 165 145 255
-0.905264714359348 -27.992656834078360 -18.742643564332440 207 170 151 255
-1.253853383894864 -27.580477469198826 -19.576833747666768 204 167 148 255
-1.524097470623886 -27.111683431237779 -20.227538916598235 188 151 132 255
-1.833555966159295 -26.677777195250258 -20.969901302303782 180 143 124 255
-2.182233779186944 -26.279564484094578 -21.803910572363549 174 137 118 255
-2.491750370453289 -25.854686632292825 -22.546155801241042 174 139 117 255
-2.722906695086124 -25.370477502688288 -23.104950466555891 172 137 115 255
-2.718909535071091 -24.696825761180790 -23.113541566773904 168 136 113 255
-2.714915326034344 -24.023220013978332 -23.122130886389868 167 136 113 255
-2.671725058734225 -23.316994558582223 -23.039031882743956 164 134 110 255
-2.706936217957988 -22.676130123240242 -23.139304145584447 160 130 106 255
-2.624546912303430 -21.936234933231489 -22.964528760518448 155 127 103 255
-2.659766372918156 -21.295702951307888 -23.064793961850910 152 124 100 255
-2.498965014717513 -20.487030607082289 -22.706686576578306 148 122 95 255
-2.455775853513600 -19.778252127941258 -22.623612884471811 144 120 92 255
-2.530213338158916 -19.171791047407268 -22.815541947531955 141 118 88 255
-2.526240498575291 -18.497319144867276 -22.824130494096437 137 114 85 255
-2.208576719484185 -17.544292222398127 -22.099444925539444 131 112 81 255
-1.773251313262719 -16.481679825437254 -21.099845660579149 124 108 75 255
-1.651615573682719 -15.696005085432276 -20.833537425760881 121 105 72 255
-1.412324849355585 -14.801813585394953 -20.292301730949333 115 99 65 255
-1.055365045942466 -13.796671742759415 -19.476169457652446 107 92 57 255
-0.541502324484071 -12.641976631122333 -18.293529602804966 96 92 54 255
0.717602398256275 -10.787901383865048 -15.369846681735282 84 90 50 255
7.594350712258077 -2.179214840724455 0.638520815580648 35 21 5 255
7.480993674696634 -1.547709602202303 0.354197309591569 39 20 6 255
7.367621440455537 -0.917763069840291 0.069896333779155 47 31 16 255
12.824990509860953 -30.346311144369395 11.730366188060515 201 181 148 255
11.686699755997793 -30.326776112028341 9.062361580162161 203 176 150 255
11.612419182117051 -29.609033480726595 8.869237778505834 199 167 146 255
10.276921312236851 -29.747413090466551 5.743286146428403 196 161 142 255
7.088836730593385 -31.172679431073917 -1.689881129256150 198 161 141 255
5.831877671080974 -31.306282521874920 -4.631910390252472 200 162 141 255
5.008409396701325 -31.154502618660601 -6.565666557518597 200 157 138 255
5.012676401993446 -30.430432267760338 -6.574887576495513 187 144 125 255
4.977521561054459 -29.734535328699920 -6.675741190544670 155 113 94 255
5.100051914087089 -28.925927508771636 -6.410063621640802 107 67 46 255
4.670654902641530 -28.516320340322437 -7.427186569669857 207 171 149 255
3.768114710701141 -28.459302770526833 -9.543717886360383 209 173 151 255
3.102062828794274 -28.239912375770615 -11.110367171226244 206 170 148 255
2.278240336581632 -28.147474191573579 -13.043365611261493 204 168 146 255
2.006374182268061 -27.650814650224419 -13.693629220675746 206 170 148 255
0.827549727060415 -27.847087936542763 -16.450874174474535 203 167 145 255
0.200697381853189 -27.636428757556317 -17.925418732293679 206 170 148 255
-0.307902344049680 -27.342985770426523 -19.125042193747277 201 165 144 255
-0.777108609862410 -27.025863417912063 -20.232974980371182 188 152 131 255
-1.088601891210246 -26.591128268650976 -20.974438520767904 181 145 124 255
-1.479002403703177 -26.223393872123239 -21.899031237499941 177 141 120 255
-1.672229601409782 -25.703218864337629 -22.365606530742753 177 141 119 255
-1.786588890095771 -25.122098422134101 -22.648973911444727 174 139 117 255
-1.822070855059181 -24.478408998412462 -22.749153987227231 168 136 113 255
-1.975897063886535 -23.932473214693161 -23.124063000271406 166 134 111 255
-2.090290733586770 -23.356079408507298 -23.407367277459429 162 132 108 255
-2.086348499207347 -22.682555893019014 -23.415932592651700 156 128 104 255
-2.003507172676038 -21.942668551806278 -23.241358664938446 152 125 98 255
-1.881209894755145 -21.168262663463963 -22.975231481664110 150 123 96 255
-1.719452038727653 -20.358524398625619 -22.617561331467243 145 119 92 255
-1.636595966474033 -19.614664303949141 -22.443034132863346 141 118 87 255
-1.632651228270461 -18.938296520071091 -22.451629312860121 135 114 83 255
-1.391956911281184 -18.054653186053116 -21.910912804060104 128 109 79 255
-1.072326341937199 -17.098143317010440 -21.187139346658796 122 107 75 255
-0.594826329714024 -15.996968611004959 -20.097239829745121 117 103 69 255
-0.275146301442476 -15.030743131894837 -19.373586624531413 111 97 64 255
0.241880525795466 -13.882057120429081 -18.192296771471490 103 93 57 255
0.640544328883166 -12.834031469932341 -17.285698102653953 91 86 48 255
8.871233949526044 -1.627692884325768 1.706046917324869 38 27 9 255
8.322881520144307 -1.404809965928806 0.415366799173825 43 25 11 255
7.892913409993042 -1.076066613964187 -0.600684189055727 44 28 13 255
7.620822666522301 -0.600972162996555 -1.250629694557375 30 25 6 255
13.026275901349592 -30.690482025633884 10.220680143673889 205 184 152 255
12.356584382290919 -30.360320596044218 8.654533997822824 205 176 152 255
12.757668227660545 -29.325526894470926 9.560187415771935 202 168 148 255
11.810277807964638 -29.193706664574407 7.353402954899110 198 160 143 255
7.531077974962912 -31.341650677826905 -2.542312809082659 199 163 142 255
6.305747643117414 -31.449538781844353 -5.389210009785415 201 163 142 255
6.071984989803795 -30.886182916047574 -5.947642601172618 200 158 139 255
5.877870860852113 -30.298384912193470 -6.414505949656785 187 144 125 255
5.604400551037216 -29.769527230256344 -7.064379777934107 120 78 58 255
5.172221845815500 -29.357900175266622 -8.080282904258098 209 168 148 255
4.740007516807538 -28.952318612151998 -9.096109042627347 208 172 150 255
3.990361526253295 -28.783789591602797 -10.843960955406089 207 171 149 255
3.597739253227914 -28.363301570200989 -11.768096292117747 206 170 148 255
2.927340845290942 -28.154223177574153 -13.332703419195099 201 165 143 255
2.534642169443373 -27.746606721942015 -14.256674591756394 204 168 146 255
2.022868368139925 -27.434345002470977 -15.455073079817822 203 167 145 255
0.717405416671795 -27.733723769002665 -18.483294826408070 203 167 145 255
