ply
format ascii 1.0
element vertex 650
property float x
property float y
property float z
property uchar red
property uchar green
property uchar blue
property uchar alpha
end_header
-33.063205370694405 -9.935092906667961 6.347439490187071 138 97 69 255
-33.013784939169284 -9.097271757603437 5.927565557593795 135 92 63 255
-33.064272379259087 -8.560728983592043 6.312651627211295 121 77 48 255
-33.089838464481289 -7.949722521225965 6.496506990006878 129 84 58 255
-33.190343060406065 -7.570569463101450 7.284228880851202 174 128 103 255
-33.328336214275950 -7.311843200205274 8.373992930872902 192 146 121 255
-33.541260661500431 -7.293081059885182 10.067829009566594 199 151 123 255
-33.679335073709439 -7.047479651671452 11.157905173460591 198 148 121 255
-33.817451309294626 -6.807619658884079 12.248116490462934 195 141 117 255
-33.905687008361483 -6.414101491362587 12.935755770430319 193 136 116 255
-33.981487687099843 -5.984023648859448 13.522790956259144 189 130 111 255
-34.044854985749907 -5.516565239329395 14.009201049088205 181 123 104 255
-34.220585381309263 -5.417529887549037 15.401939744056250 174 116 94 255
-34.383877349827515 -5.284901336252801 16.694149674836467 166 108 86 255
-34.422425034165329 -4.747008274793728 16.979407991504758 159 103 79 255
-34.398633349632860 -4.003079960328151 16.761097741074451 151 97 71 255
-34.374898523715146 -3.257776620906000 16.542740422053924 142 92 65 255
-34.438561138045571 -2.805238059962619 17.029460703184526 131 87 58 255
-34.539704643850598 -2.481994532187187 17.818447787879137 119 77 47 255
-34.478709169743482 -1.609434671397992 17.297826502289610 103 68 38 255
-34.417777987536113 -0.733825298630578 16.777114415323581 86 61 31 255
-28.971621033386000 -15.916133763944757 -32.545953996554147 175 153 112 255
-29.337722536538742 -16.045729999224903 -29.550620147305267 191 145 119 255
-29.593895696355595 -15.913133884099494 -27.459479328165912 192 141 120 255
-32.989918457552179 -23.108556419206863 0.447225093193481 221 185 163 255
-33.160689755150926 -22.851367140654801 1.837077699488589 219 185 162 255
-33.282616735159344 -22.473667970223815 2.824963878502956 215 183 160 255
-33.331261008248624 -21.907660603617188 3.209714334459420 211 179 156 255
-33.343278399332362 -21.246127922999079 3.292859273604392 210 178 155 255
-33.343106961259366 -20.552271740633017 3.275452503835993 206 171 149 255
-33.416280587869608 -20.056889194075112 3.861423322141832 201 162 143 255
-33.550581794282280 -19.731473623694853 4.950322279129637 193 155 136 255
-33.636039646924303 -19.277422679549872 5.637050311688597 184 147 128 255
-33.660435229500024 -18.657595599400182 5.820941212406012 172 136 116 255
-33.587111660541623 -17.765437515960002 5.200118761502551 166 131 111 255
-33.526042022999604 -16.904395376172076 4.679803349141196 158 124 103 255
-33.489446436556520 -16.109978698290291 4.360619906590898 151 119 96 255
-33.526201965740000 -15.523707431709781 4.645055883129203 145 110 88 255
-33.538556610346433 -14.868460464047814 4.728284718297175 140 106 81 255
-33.550949379052284 -14.213644587082186 4.811516011213598 136 102 75 255
-33.526724533188826 -13.451891756179023 4.592852846542883 134 98 72 255
-33.526977556799856 -12.761049486402683 4.575428545347677 135 97 67 255
-33.576146008847225 -12.215386467872634 4.960575259929783 134 95 64 255
-33.625355162720524 -11.671747746577225 5.345763920928505 135 94 62 255
-33.699042422608549 -11.203862625575638 5.932313153768746 137 93 64 255
-33.723898312928128 -10.590515752638453 6.116265790577557 137 96 68 255
-33.724361625514319 -9.903272838268904 6.098885756190555 138 98 70 255
-33.651563098475748 -8.989785416431431 5.477411643031758 130 90 59 255
-33.700989066796126 -8.452375683794230 5.862709248841554 111 70 40 255
-33.799329521854744 -8.069829952278127 6.650821564758132 163 119 90 255
-33.971016289592555 -7.922372757312687 8.043231741084952 186 141 112 255
-34.118310260324776 -7.704774094283906 9.234403689319635 196 149 123 255
-34.302295965403573 -7.610569512602567 10.727867555922757 198 148 121 255
-34.388592361330439 -7.209846355023629 11.415751990499302 198 144 118 255
-34.474934562209725 -6.812696230217753 12.103716186967887 196 138 116 255
-34.524676460383574 -6.299573022052854 12.489554940200549 191 133 111 255
-34.647758317228188 -6.029087920782871 13.479882756690330 188 127 108 255
-34.746455587132310 -5.683005156317847 14.268833364443765 178 119 101 255
-34.881842757865599 -5.462992709673784 15.360143577707504 170 113 92 255
-34.980632870284538 -5.125895397076775 16.149299682879530 162 105 82 255
-34.993976546470563 -4.504447100226201 16.233160852129117 155 100 76 255
-34.982949130234744 -3.800311452568195 16.115463602224395 145 94 67 255
-34.923129669618888 -2.928352692637787 15.594598917873782 135 88 60 255
-34.936644641385485 -2.305492277160141 15.678386930421539 121 80 52 255
-34.999062630644460 -1.852034115267017 16.165357684996877 109 72 42 255
-34.988269871440316 -1.145595580603711 16.047550955193003 95 63 34 255
-29.845037689151773 -16.954809848120831 -31.892487509453474 174 149 115 255
-29.964061141666051 -16.470618151164999 -30.906640439087084 189 146 122 255
-30.166785502994621 -16.206418668541872 -29.216732795012092 190 142 120 255
-30.357590477492536 -15.920453335189407 -27.627170655442683 191 144 124 255
-30.632101349581603 -15.861481355016167 -25.333373020976126 183 136 116 255
-33.739262561329681 -22.572235431351288 0.781112504046462 224 189 167 255
-33.954138234509159 -22.448101636765472 2.574288884087764 217 183 160 255
-34.061464388263566 -22.043162846112679 3.462281374723204 213 181 158 255
-34.061238872308650 -21.350130430220361 3.444907202922593 213 178 156 255
-34.061044279516871 -20.657051886896767 3.427525073889683 208 172 150 255
-34.096743022366965 -20.063176395101877 3.712002172941709 202 161 143 255
-34.252013743064850 -19.804410404538189 5.002804073200423 192 154 135 255
-34.323641299243690 -19.317223447769720 5.589320796515665 183 146 127 255
-34.311625522764302 -18.595942849788045 5.471409761351367 172 136 116 255
-34.239874761684113 -17.703223704801999 4.850227470076391 165 133 112 255
-34.227929709049064 -16.979354822889221 4.732235815544470 160 128 106 255
-34.239929359129150 -16.324265413767336 4.815546646819655 152 120 97 255
-34.275874436701685 -15.739568776181144 5.100200365029764 147 112 90 255
-34.252088365497755 -14.980167077642236 4.881499859489793 140 106 81 255
-34.252249522862598 -14.290604483497830 4.864127925053481 135 101 74 255
-34.192682287071925 -13.422001367198959 4.343292161940553 131 95 69 255
-34.192925358444832 -12.730847027513406 4.325862202598728 131 92 63 255
-34.217117630684925 -12.112211550767015 4.509827753457614 131 90 60 255
-34.313072832165247 -11.714091236005757 5.298072830226090 128 87 57 255
-34.373209876039510 -11.209552792614758 5.784260756767765 126 86 57 255
-34.433389992238055 -10.707565022486293 6.270503342427503 125 86 59 255
-34.433849285217541 -10.021087469557727 6.253143433821549 123 87 59 255
-34.410449517696719 -9.259086909406051 6.034292672233050 112 75 46 255
-34.470765344474032 -8.761462712830493 6.520615131967645 123 84 55 255
-34.578936069613491 -8.419235057736500 7.409998609235487 174 131 103 255
-34.699103266826000 -8.120177986502924 8.400248789224747 187 142 113 255
-34.795411345679042 -7.748817257661855 9.189089067625503 194 146 118 255
-34.939570978614782 -7.537708036542853 10.381113158923483 194 143 116 255
-35.047921047728131 -7.214981100232805 11.270947486477723 196 140 115 255
-35.108514010760004 -6.738617879831622 11.757743554986064 193 135 113 255
-35.216957855412204 -6.424113197081326 12.647763987054361 190 129 110 255
-35.361298608992222 -6.234599437467637 13.840291202673001 187 126 108 255
-35.469835220711730 -5.930190239354658 14.730545056425740 174 115 97 255
-35.518673247492202 -5.427119629684853 15.116835234144645 165 108 88 255
-35.555614779511032 -4.885028135090849 15.402341061013431 157 101 81 255
-35.568713620632295 -4.261890783760336 15.486213584847548 149 96 72 255
-35.557973487368393 -3.556068266323010 15.368410774293920 136 88 62 255
-35.511451108773564 -2.724174062574647 14.948048803038915 122 78 51 255
-35.488886086049071 -1.973838338213795 14.729307817176419 114 74 47 255
-35.502222462383045 -1.348972927545631 14.813084680351949 101 67 39 255
-35.491728175174131 -0.639206621212097 14.695128675901003 82 56 26 255
-30.364247192384781 -17.887892890738911 -34.236366015348949 177 150 115 255
-30.796071698797135 -18.198142254301629 -30.534008726373486 187 146 124 255
-30.865632683684893 -17.594782011810750 -29.949958478370604 193 148 125 255
-30.911848392492068 -16.933889773130048 -29.567059705780309 194 146 125 255
-30.993156570629523 -16.367115491784432 -28.882253504656717 192 144 124 255
-31.144622830243463 -15.989654376908675 -27.593599459197264 190 142 122 255
-31.331186910386492 -15.712773119688748 -26.002876700847878 185 137 116 255
-34.088814067110206 -21.658502543035397 -2.288831976542497 233 196 174 255
-34.591094958676969 -22.326555799925970 2.021543661727151 219 184 162 255
-34.789516920510877 -22.178669864015887 3.715321334293662 217 181 159 255
-34.800956961172460 -21.519227731487860 3.798645745702288 211 175 153 255
-34.859183430673298 -20.991529298887144 4.284671382073611 206 168 147 255
-34.882377266139528 -20.367228517628476 4.468713976060826 202 161 143 255
-34.952359790210799 -19.877358044135221 5.055524843116928 191 152 134 255
-34.975622075518530 -19.256172046361073 5.239630700209204 180 143 124 255
-34.940475565784290 -18.466533876623799 4.920248859658273 171 135 115 255
-34.881987300069198 -17.606874816548114 4.399400782713030 165 133 112 255
-34.893668962742638 -16.951024864262038 4.482762392910217 161 129 107 255
-34.905388516435053 -16.295624480344003 4.566126976644512 154 122 99 255
-34.940524409050163 -15.710611253365983 4.850950610377822 149 114 92 255
-34.905567218022689 -14.915661676990496 4.531393618063078 142 108 83 255
-34.905717016734357 -14.225517587332092 4.514009560924762 135 101 74 255
-34.847465234001078 -13.356343525075559 3.992870280656916 131 95 69 255
-34.871076499943634 -12.736710887553699 4.176938478359659 128 90 61 255
-34.894730777972299 -12.118026782427819 4.361021068497394 124 85 56 255
-35.000246952808084 -11.756436665743848 5.250501271175608 117 78 49 255
-35.082429486525598 -11.325838846271466 5.938538926515776 114 77 50 255
-35.164655778272191 -10.898872757266787 6.626658269439702 112 77 50 255
-35.153423911630604 -10.176295755833706 6.508542321970140 113 79 54 255
-35.153927697884129 -9.490683666792478 6.491194391753254 98 63 35 255
-35.201229663798486 -8.956677411890169 6.877044463561901 144 106 79 255
-35.318702220504697 -8.653950272257859 7.867794708952601 173 130 103 255
-35.412846276008992 -8.279471296399819 8.657032286032205 187 140 114 255
-35.448603992293229 -7.715335099250510 8.942244106454268 194 144 119 255
-35.577902483348993 -7.464848455010141 10.034126571642304 196 142 118 255
-35.637130840499765 -6.984307489703028 10.521117573754708 196 139 119 255
-35.743152066132822 -6.664538181605408 11.411538186220042 193 134 116 255
-35.872591856044949 -6.429102967839071 12.503768003821392 189 130 112 255
-36.037133187337261 -6.319737196596620 13.898706558020137 184 125 108 255
-36.119927581069462 -5.935026617650990 14.587763379787901 170 113 94 255
-36.132668172621550 -5.309921315707129 14.671665177162254 159 104 83 255
-36.122098105339916 -4.603238248406939 14.553803347359832 151 96 75 255
-36.076538021975566 -3.772138055195626 14.133249806883470 141 90 67 255
-36.066089338835866 -3.062995519311201 14.015299460156314 126 80 54 255
-36.090748607232698 -2.478247423312027 14.200014329181101 112 71 43 255
-36.127148822521235 -1.936300696863455 14.485642787927191 106 66 40 255
-36.116884206877458 -1.226522148935089 14.367635989314749 92 67 36 255
-31.476498436097771 -18.753216589033215 -31.488972011272892 195 151 126 255
-31.670043139668373 -18.474303562733965 -29.797416413100279 196 149 129 255
-31.783668328250656 -17.993777981411057 -28.810290525671576 197 149 127 255
-31.794526032571028 -17.245205271057870 -28.729078964849805 195 147 127 255
-31.839680183323409 -16.589123591799833 -28.345825896843166 191 143 123 255
-31.907710765279930 -15.997032903164026 -27.761155904367968 186 138 118 255
-32.032887696437278 -15.564120798924193 -26.672953853634453 181 133 111 255
-32.192368359129190 -15.231504841718845 -25.282515666266079 177 132 110 255
-35.138757753194270 -21.949047695861992 0.662644587412842 223 185 165 255
-35.401186089639360 -21.991473845205491 2.961647486334527 217 179 160 255
-35.469454691004486 -21.493080084951217 3.548620821174609 206 164 148 255
-35.549180704185076 -21.030686416685441 4.236399079355749 204 161 144 255
-35.594670965734863 -20.472776351360466 4.622046426752036 199 158 140 255
-35.628772663158877 -19.883615574689998 4.906993122375695 190 152 133 255
-35.605791837382455 -19.127909249062384 4.688208514352880 179 143 123 255
-35.582847059678166 -18.371051524854607 4.469387034572890 171 136 116 255
-35.571363023838195 -17.647195574471581 4.351294364468174 165 133 112 255
-35.605611876585229 -17.060433659329703 4.636269022944134 161 129 108 255
-35.617052312929331 -16.405801151542278 4.719714267653671 155 122 102 255
-35.628532604052793 -15.751610861256395 4.803161869416101 149 116 94 255
-35.560088162306613 -14.851177438215714 4.181058836116392 141 109 84 255
-35.560227607865869 -14.160450565185513 4.163662402868511 136 105 76 255
-35.526139283686263 -13.362264499926184 3.843833046708312 131 98 66 255
-35.560635748563001 -12.778633146342955 4.128831981525707 126 90 59 255
-35.595176294527157 -12.196490013804564 4.413858642271407 119 81 52 255
-35.675454496555091 -11.762192018907044 5.102221880439060 110 72 43 255
-35.732931131279884 -11.257808731932528 5.588998518820404 109 73 46 255
-35.813299305329721 -10.830238289097181 6.277511118833161 114 80 53 255
-35.848022346850811 -10.256683047583905 6.562713574268884 110 78 52 255
-35.871370748235549 -9.646908263326409 6.747087394217147 87 52 25 255
-35.974724325900468 -9.303643153663970 7.637503693627764 152 114 88 255
-36.032436298472547 -8.812208139152503 8.124554136622947 176 133 107 255
-36.090197396069492 -8.323287813783580 8.611657003543854 188 141 115 255
-36.090900701701543 -7.643095148384731 8.594401466411995 195 145 120 255
-36.183027217221486 -7.274908825058830 9.384240744573418 194 142 120 255
-36.309465715388001 -7.028735595207579 10.476860338152846 195 140 119 255
-36.424531366073239 -6.748732651949268 11.468710985630196 193 134 116 255
-36.562486072813115 -6.553601774010062 12.662500760011397 189 130 114 255
-36.620549700610809 -6.083959471108741 13.150021799550871 181 123 109 255
-36.678666739070607 -5.616782387570552 13.637593077212273 167 110 94 255
-36.702581024662003 -5.030098910007766 13.822423050286233 155 101 80 255
-36.737971269272862 -4.485162067834295 14.108198345300679 142 91 68 255
-36.762000902356618 -3.900382285376779 14.293050824088795 132 83 60 255
-36.751837296386213 -3.191995550203302 14.175056813534781 121 76 49 255
-36.730320041315132 -2.441029039191108 13.956069648635662 107 69 41 255
-36.708868315920924 -1.688670447000035 13.737033080258016 96 62 35 255
-36.698899111020793 -0.977195539791495 13.618918695771754 72 54 23 255
-32.172380357363458 -19.342050625903838 -32.344065489243405 201 150 128 255
-32.272098871803536 -18.820015495129368 -31.457344643429110 204 155 133 255
-32.427631211109187 -18.452048076165184 -30.066927317971022 199 152 132 255
-32.482787291288659 -17.820647046560822 -29.582833968198543 198 150 128 255
-32.582602141972934 -17.313462398728248 -28.695760938376566 192 144 124 255
-32.615507742843391 -16.627229401087916 -28.412991839935103 186 138 119 255
-32.693074534404531 -16.066280543100831 -27.727216748614410 183 135 115 255
-32.737203141982690 -15.415523447895183 -27.343604378726582 179 131 110 255
-32.825996372891908 -14.892736423901141 -26.556919242676997 177 131 108 255
-33.104508248030065 -14.913622432642043 -24.057156570920085 172 127 106 255
-35.893269049618411 -21.449380965478483 1.098736083843221 188 149 132 255
-36.049188707273373 -21.206655457569539 2.492217015055417 154 112 96 255
-36.182828684041112 -20.905820312168359 3.684297709113139 195 152 135 255
-36.238397001737830 -20.379863207354916 4.170951439545149 200 159 141 255
-36.282843167513633 -19.823196692940655 4.556859564523677 192 154 135 255
-36.282692231970813 -19.134153137338785 4.539569283644710 183 148 128 255
-36.293737117649385 -18.478924162724567 4.623086482322321 171 139 118 255
-36.293661708244088 -17.789998733246634 4.605782569137546 165 133 112 255
-36.293625438169236 -17.100987788767711 4.588467902387663 161 128 108 255
-36.271312086132170 -16.342490173869649 4.369466393644984 155 123 102 255
-36.271356965299027 -15.652748234792568 4.352115510509179 148 116 95 255
-36.215651207718381 -14.786713331901893 3.830495485709321 141 111 85 255
-36.204622854798025 -14.059894772146322 3.712228163519683 136 105 76 255
-36.204797076117330 -13.368193741110744 3.694799594254903 131 99 65 255
-36.260807943505995 -12.856605838152660 4.181717304033839 124 89 57 255
-36.305705543299084 -12.311268143204330 4.567811016202825 116 80 49 255
-36.361807149226735 -11.804540398316163 5.054830970594708 112 75 46 255
-36.417955139436103 -11.300367889302237 5.541904970780479 116 79 52 255
-36.440676815320799 -10.687355132731852 5.726335150621651 114 80 53 255
-36.452289732299683 -10.037860743369663 5.809871659689065 101 67 40 255
-36.463952786288203 -9.388736169668903 5.893406445292726 99 62 36 255
-36.587238938752492 -9.119387661562442 6.986136330425353 154 114 88 255
-36.677101422072198 -8.741171832822076 7.776221133097494 175 131 106 255
-36.778169706035612 -8.405577465259427 8.667332638179232 190 142 119 255
-36.812348514680394 -7.842133678811535 8.952908942112089 196 146 121 255
-36.880048775329897 -7.397180353759325 9.541350772273660 196 141 121 255
-36.958956790251960 -6.994557531458042 10.230811560321428 192 135 116 255
-37.071382997518185 -6.714205936136295 11.223233644546127 190 131 115 255
-37.172704328819755 -6.399206598553079 12.114807310864421 185 126 110 255
-37.229458296209685 -5.928410255592624 12.602587225805991 178 120 105 255
-37.241650329816565 -5.298553128300881 12.686490140032731 165 109 93 255
-37.242747842683542 -4.628327234083912 12.669398525997849 148 98 75 255
-37.321979870641599 -4.244304261098961 13.359255714145092 135 87 64 255
-37.378961529942401 -3.781416296743089 13.847184404882114 125 79 55 255
-37.391391822677761 -3.155088611239549 13.931123679799185 117 75 51 255
-37.348126201463373 -2.320308972010494 13.509973264666883 103 69 42 255
-37.249174243619379 -1.272985823102857 12.583628187111401 87 60 35 255
-37.239504119598934 -0.558723279750780 12.465377973849343 51 41 10 255
-32.818353680688716 -20.581131454213093 -33.683932011072727 185 157 123 255
-32.926480978142706 -20.079945766222536 -32.696116999699314 203 155 134 255
-33.023748779563590 -19.554876838695293 -31.808933711906946 201 152 132 255
-33.121048092156101 -19.034678129971041 -30.921634907204634 203 156 136 255
-33.207488420760548 -18.489506499354903 -30.134995334685925 201 153 133 255
-33.272178353189339 -17.888439786196116 -29.549816669841391 197 149 128 255
-33.347792441882092 -17.320985832252035 -28.863775882127527 190 142 122 255
-33.423440233524204 -16.757301324032397 -28.177647734180425 184 135 118 255
-33.455554134125968 -16.073713654145834 -27.894638097213885 181 133 113 255
-33.520378686060283 -15.485285627149750 -27.309171271260823 178 130 110 255
-33.552561645775000 -14.805701664834231 -27.026076156400791 174 126 104 255
-33.726384195712839 -14.540144668791825 -25.432267848738945 175 127 106 255
-36.448802187774653 -21.068723751052829 -0.261972221777341 193 150 133 255
-36.688131816095407 -21.082973957397400 1.938981452341523 145 104 86 255
-36.818570137663784 -20.780993818060423 3.131737147431522 137 96 78 255
-36.872794021085490 -20.253908404184600 3.618658044166352 186 148 129 255
-36.916162026666910 -19.696115155604971 4.004774842687823 192 155 136 255
-36.905101227692647 -18.972338797800631 3.886591137738719 181 149 128 255
-36.937652392083606 -18.383488298713701 4.171886472240487 173 142 121 255
-36.959349688735806 -17.762022571657980 4.356329312297873 166 135 114 255
-36.970193882827544 -17.107125429365340 4.439898969690091 162 130 109 255
-36.948398888714912 -16.348590576505046 4.220782579323611 156 124 102 255
-36.937539592819576 -15.623840640596384 4.102530102946389 149 117 94 255
-36.915830122623959 -14.863208716230602 3.883342189586301 140 110 82 255
-36.915951804597242 -14.172393047997403 3.865947428700963 135 104 74 255
-36.916118707199132 -13.481456608217869 3.848539691064161 130 98 64 255
-36.938118293763374 -12.862483710858584 4.032978754779435 123 87 55 255
-36.949271556679385 -12.208140756826936 4.116494405698802 121 84 53 255
-36.993151797220094 -11.663955287690385 4.502840722196311 128 89 60 255
-37.047972965158451 -11.158640080244822 4.990177655447440 132 94 67 255
-37.059271800575161 -10.507362882502605 5.073738383764749 120 84 57 255
-37.048836242884462 -9.781666035778471 4.955368954696041 104 68 42 255
-37.038453119404565 -9.055255193213014 4.836970048749038 123 86 59 255
-37.169720971198998 -8.821332274193040 6.031254444407097 157 116 90 255
-37.311929019171735 -8.631928829927730 7.326671646187748 180 134 110 255
-37.443293521913134 -8.410890200354814 8.521258723990002 192 144 121 255
-37.509358921135316 -7.963639433220436 9.110002168597305 196 145 122 255
-37.586368079670848 -7.558452492735782 9.799815897862061 196 141 121 255
-37.641648596622332 -7.078254002334830 10.287683324274695 190 133 116 255
-37.675203158721686 -6.521410069178458 10.573562779027071 183 126 109 255
-37.785044250575780 -6.244813081105704 11.566647518945047 177 120 103 255
-37.807821098231855 -5.652537602682088 11.751586933325541 169 113 96 255
-37.841546328474521 -5.101475300901484 12.037574229617917 159 104 87 255
-37.831776177249679 -4.389178253877006 11.919395419488666 140 93 70 255
-37.898287270492489 -3.962525817455202 12.508558760733450 131 85 61 255
-37.953968722409044 -3.497661501163336 12.996723574909339 120 75 51 255
-37.966161274140319 -2.869363242890756 13.080665567255551 112 71 47 255
-37.891325909658974 -1.907405255188095 12.356002176493291 98 63 37 255
-37.794793729643004 -0.857309060493108 11.429055465487494 78 56 30 255
-33.512530879966604 -21.152621800651374 -34.641505201739335 189 153 124 255
-33.639190307394081 -20.704014756458633 -33.451605223202762 202 157 133 255
-33.734006620640848 -20.174828659811126 -32.563986560441265 205 156 137 255
-33.807603623764393 -19.591925971003278 -31.877890778554956 200 153 133 255
-33.891857843153069 -19.042378984959441 -31.090880657798948 202 156 135 255
-33.986770853841108 -18.526991621299317 -30.202936332802551 202 151 134 255
-34.028586656947880 -17.865938415808770 -29.819074420082302 196 148 128 255
-34.123567385557351 -17.358913985057299 -28.930934725724285 189 140 123 255
-34.207957028790659 -16.826092744045965 -28.143533866644248 180 131 114 255
-34.281755714587518 -16.266659833661507 -27.456892357593688 176 127 110 255
-34.334336539835242 -15.648616383492509 -26.971897088331275 173 125 105 255
-34.386953765663321 -15.033245406706413 -26.486842631153536 168 120 98 255
-34.503372921300333 -14.610881966152803 -25.396450239398519 164 116 94 255
-34.619832086182832 -14.194416814373852 -24.305918351751131 151 103 84 255
-37.276027674890599 -20.796667615012439 0.880786484254031 122 79 62 255
-37.456404830292328 -20.656205957033848 2.578717421344550 105 64 46 255
-37.541169600240380 -20.227209052227977 3.368646100195747 137 99 80 255
-37.551576231516073 -19.569069894929513 3.452230434110731 192 157 137 255
-37.508880334000118 -18.743339489425807 3.031182291959226 182 150 129 255
-37.529993325142563 -18.118669205671239 3.215673007261785 175 144 123 255
-37.561775391725249 -17.529149902693803 3.501120590196820 167 136 115 255
-37.572342401467409 -16.872317995372569 3.584702535705958 162 130 108 255
-37.604208651209113 -16.285316892800594 3.870194924367183 156 124 101 255
-37.604233212341896 -15.594947543512916 3.852832733624268 149 117 94 255
-37.646815535149521 -15.045401460410304 4.239329585459529 141 111 83 255
-37.583159999843303 -14.142872875796570 3.616121179877780 134 103 73 255
-37.562064500823865 -13.380072617858829 3.396743788652543 130 98 65 255
-37.530388673112398 -12.580018766382580 3.076337159044215 124 86 53 255
-37.562530289285171 -11.996089155387153 3.361846238000908 129 89 59 255
-37.626604616203906 -11.523390375327594 3.950387563568995 143 102 74 255
-37.701355682488028 -11.090640197624836 4.640004690590445 144 103 75 255
-37.733645548120748 -10.513017900542224 4.925639755510019 120 80 54 255
-37.734104439782058 -9.824665833023559 4.908232807364300 124 84 58 255
-37.692107784311432 -8.985474524481191 4.486692533088956 142 100 75 255
-37.788318710766816 -8.637117744921440 5.378550918459268 172 128 103 255
-37.948341548085310 -8.522692254095119 6.876773921232115 187 140 116 255
-38.087159863288463 -8.339237573509550 8.173085813625562 196 146 123 255
-38.172896776901446 -7.968874161522947 8.964274918885792 195 144 121 255
-38.258686697961998 -7.602634977009870 9.755556060544365 189 133 115 255
-38.280776692262918 -7.004762413920758 9.940505740938391 183 127 110 255
-38.334800663342264 -6.526435807767342 10.428696442827913 178 121 104 255
-38.367631937828499 -5.970916825574832 10.714768201633120 173 117 100 255
-38.400522522601065 -5.416781192192701 11.000861702059211 160 106 88 255
-38.422849294255748 -4.823643510297444 11.185878375196296 150 98 79 255
-38.434614496965864 -4.190680746963508 11.269797035602039 136 91 68 255
-38.499558761227668 -3.762593044381575 11.859268712638254 124 80 55 255
-38.490205119375346 -3.049139023748452 11.740969257604604 117 73 48 255
-38.544651342293335 -2.583638037310720 12.229389593032835 107 69 43 255
-38.503567157457908 -1.744929528326125 11.807660877723578 90 59 34 255
-38.409452638921074 -0.693691018434762 10.880153997191030 56 39 11 255
-34.117768840875250 -21.474663312904781 -36.507564857773275 196 157 129 255
-34.324052005076652 -21.246014271927933 -34.510290520438900 200 156 133 255
-34.374977400259539 -20.596883750202394 -34.025712924412119 204 158 137 255
-34.529532234497324 -20.240705840299839 -32.532365918654079 202 155 135 255
-34.611601282909213 -19.687588316717267 -31.744965221726147 198 152 130 255
-34.714424323355360 -19.197925162104809 -30.755694537232330 200 153 133 255
-34.734395806277163 -18.475004795777366 -30.573423031703385 197 149 132 255
-34.785481966998631 -17.843472193639897 -30.088438340349228 191 143 123 255
-34.846963386398983 -17.245005737588826 -29.502489006457040 185 136 119 255
-34.918841643804797 -16.680409176188121 -28.815555169900449 174 125 108 255
-35.021841680824565 -16.212309309059307 -27.825781263430088 168 119 102 255
-35.114518464883957 -15.718403163033926 -26.936805305199584 162 114 94 255
-35.227958462272696 -15.292229077978348 -25.845853839635311 153 107 84 255
-35.341438899738137 -14.871958293549653 -24.754762846879487 153 106 84 255
-35.527497577241206 -14.681520258909174 -22.956918891951773 146 97 78 255
-37.257265291098214 -18.591131132653274 -6.134990550650400 189 141 123 255
-37.961615400042447 -20.105052107776302 0.712692503673395 146 100 81 255
-38.178959679845221 -20.101320672759229 2.815608512463143 122 82 64 255
-38.199448706417144 -19.475399967194932 3.000204950380066 144 107 88 255
-38.126709487258125 -18.547999047830857 2.275949595122199 179 145 125 255
-38.095462843138208 -17.752262527184016 1.955557165763253 171 140 119 255
-38.084984180141880 -17.023123387674190 1.837110668341154 166 134 113 255
-38.147091184954860 -16.534295212146930 2.425678936378631 161 128 105 255
-38.157425794832363 -15.875161476380498 2.509254097025348 155 123 98 255
-38.209258293430452 -15.356306455324585 2.996907590730132 148 116 91 255
-38.271499618988130 -14.875274146153615 3.585642330702456 138 108 80 255
-38.240518325923176 -14.077862963515514 3.265149468687241 134 103 73 255
-38.188858798664143 -13.207165782295789 2.742522785946733 126 94 61 255
-38.168338070023552 -12.441758850691585 2.522953513528194 128 91 57 255
-38.199682523025530 -11.856690237455652 2.808609188840933 143 103 71 255
-38.282891544807171 -11.456008328016750 3.599591728328562 150 106 77 255
-38.366150380241081 -11.059501237108222 4.390668278199939 148 104 77 255
-38.428734506710960 -10.592916928545634 4.979690905394932 140 98 73 255
-38.481007946171538 -10.092019087596299 5.467698938582828 145 103 78 255
-38.502247669401441 -9.480660666679654 5.652496473351164 164 120 94 255
-38.585713895682247 -9.097812398021560 6.443870835299009 185 139 115 255
-38.648509593578254 -8.642695353508401 7.033135256945656 191 144 121 255
-38.711359766758434 -8.190631071504484 7.622464454295056 196 146 123 255
-38.774265088395396 -7.741612669097435 8.211858106324996 194 142 121 255
-38.909751891945234 -7.568763921934462 9.509168978529402 189 133 116 255
-38.972767123829996 -7.127714474693747 10.098738820088300 179 123 106 255
-39.015119125246322 -6.610568476978628 10.486100881839576 172 116 99 255
-38.974652635189031 -5.776696457545583 10.064357980592064 166 111 94 255
-38.996408569400884 -5.181029954718767 10.249436557308883 155 103 84 255
-39.059662685674809 -4.747695669188090 10.839147856606871 144 96 74 255
-39.091901646051980 -4.195415692772912 11.125431250726564 133 90 67 255
-39.103488446089358 -3.562655700242104 11.209394225522942 120 80 55 255
-39.042640295099261 -2.641822906399213 10.585108509015214 111 74 48 255
-39.044008384503897 -1.966210555759503 10.567821994274112 100 67 42 255
-38.972952908340659 -0.998153201069456 9.842174362561337 75 52 24 255
-34.792638708157121 -21.973737459910339 -37.769969754375438 193 159 126 255
-35.033922949791808 -21.849456050576549 -35.368091807026985 201 155 135 255
-35.144024149844107 -21.367905500483971 -34.277798644228255 205 159 143 255
-35.254158581931250 -20.892317406754557 -33.187362882513526 205 158 142 255
-35.374421767608297 -20.451707032750207 -31.995855835655220 203 154 139 255
-35.424055028835596 -19.812556294627342 -31.510743297947556 201 152 137 255
-35.463625130731927 -19.146554837320039 -31.126512140848035 201 149 135 255
-35.483036609209350 -18.423058208605312 -30.944132023163604 195 143 129 255
-35.522672250837999 -17.760840759276135 -30.559820138076702 187 138 123 255
-35.572438469339367 -17.131146288385949 -30.074499084058402 178 131 115 255
-35.581855301019360 -16.381582807146458 -29.992995699966855 168 121 105 255
-35.682176118153741 -15.910723434489583 -29.002702225109317 157 110 94 255
-35.792633604211474 -15.476416923352161 -27.911299603923680 147 98 83 255
-36.014198648119311 -15.393952332503318 -25.708872456726851 135 87 67 255
-36.286295176644408 -15.481917777047030 -23.001176295827747 183 133 113 255
-36.790677611678994 -16.320142551651784 -17.970055473230275 184 131 113 255
-37.052775694675468 -16.411114140161132 -15.362504277590176 144 93 74 255
-38.021413524289358 -18.078101007179342 -5.701353418464464 179 130 113 255
-38.455321011160521 -18.785031673147742 -1.374970512757557 187 146 126 255
-38.727710650636688 -18.981708096746502 1.335394353229844 162 122 103 255
-38.707303060407952 -18.218271267834581 1.115849741699378 167 131 111 255
-38.707133373752271 -17.521432114364401 1.098367591125111 157 123 103 255
-38.686810425814116 -16.756213880068401 0.878759586660692 158 124 104 255
-38.737218707874575 -16.230748253938913 1.366559952282728 154 120 97 255
-38.747279520995050 -15.569135462487552 1.450132972204358 148 116 91 255
-38.787681046323797 -15.012832639192411 1.836939333512078 142 111 85 255
-38.838227752502867 -14.493808559685576 2.324871219689555 135 105 77 255
-38.838331575146725 -13.799877956005048 2.307402071074875 129 98 69 255
-38.838484547690456 -13.105822950370367 2.289918990703256 127 94 62 255
-38.868981720832963 -12.519752825601472 2.575735735716876 138 100 66 255
-38.950019068767268 -12.116712041524138 3.367136347234009 155 113 82 255
-39.010911286466893 -11.644692607598955 3.956394243542150 160 115 86 255
-39.071855073122386 -11.175765695532291 4.545718554024290 158 112 86 255
-39.112656196180005 -10.635683358603458 4.932844880100106 156 110 85 255
-39.203997480193607 -10.284554480546873 5.825704015828705 160 116 91 255
-39.275197098665672 -9.862798293596938 6.516378225287013 175 130 104 255
-39.306063205281703 -9.292918605672313 6.802520920199328 188 142 117 255
-39.306696039950069 -8.609862428102232 6.785208881536079 193 143 120 255
-39.327580620598667 -8.003556633491840 6.970211513386687 194 144 122 255
-39.449484526168860 -7.785583114446482 8.166955280079549 190 138 117 255
-39.571441967567054 -7.573900324768388 9.363845435723761 181 125 109 255
-39.632881012003566 -7.132776131454435 9.953759875512816 168 112 97 255
-39.623713598252550 -6.417763315348424 9.835380293663007 162 106 89 255
-39.624705485857177 -5.741799555041510 9.818167640682077 156 103 85 255
-39.635856616554769 -5.105690044872475 9.902142173020025 146 98 76 255
-39.677354213190881 -4.590987337033965 10.289753477501449 139 93 70 255
-39.658355904277741 -3.834321580924211 10.070069311482882 126 83 60 255
-39.679798939961785 -3.239961705572355 10.255249519868045 110 73 47 255
-39.600387466367735 -2.234517229613616 9.428080340325238 102 70 42 255
-39.621972083257333 -1.639035033265230 9.613201209713907 88 63 36 255
-39.552807062470023 -0.668740608457682 8.887081775317228 58 44 13 255
-35.737722460408520 -22.428892838084309 -36.327580389721788 205 160 135 255
-35.844841299906754 -21.942127885565412 -35.236762741500115 206 159 140 255
-35.971651336784902 -21.518286014381857 -33.943854839514302 207 160 144 255
-36.078838402282834 -21.043988918139235 -32.852738730454575 206 159 143 255
-36.195889957913565 -20.604665919994233 -31.660493336923935 204 155 140 255
-36.263828705405309 -20.025395676213051 -30.973062433136477 198 149 134 255
-36.302311278955109 -19.361240799339356 -30.588545790155024 195 143 129 255
-36.291675265168394 -18.550113606230312 -30.709018986030799 189 137 123 255
-36.310562936837378 -17.828737430552110 -30.526470414187486 184 135 120 255
-36.319654069456284 -17.078067970411922 -30.444923240706373 171 124 108 255
-36.309117818970563 -16.266653748430144 -30.565425582828595 156 109 93 255
-36.377267818108130 -15.701933420479406 -29.877675312382792 140 93 77 255
-36.474952423477291 -15.234495853161619 -28.886716316911134 130 81 66 255
-36.818474332870458 -15.558574226560907 -25.369437478998748 114 65 47 255
-37.506168787663754 -17.011557545536320 -18.314788429396003 201 150 131 255
-37.879297599798889 -17.478738938594248 -14.493164777210836 183 130 112 255
-37.996837274145662 -17.127742015221685 -13.298806048442600 152 101 82 255
-38.075090628791614 -16.653069814078535 -12.508594367521084 120 69 50 255
-38.212382966059494 -16.379430482089973 -11.111795993809551 119 69 50 255
-38.457880926167824 -16.477002644094867 -8.602848214370567 121 74 54 255
-38.703426912420703 -16.588003028688348 -6.093573388892651 135 88 68 255
-38.998185526528609 -16.880452643458170 -3.078462601663830 174 131 110 255
-39.037334233859042 -16.308269610905285 -2.691780095274908 167 125 106 255
-39.037195934879094 -15.601580052412828 -2.709516797599690 160 119 99 255
-39.164933817582195 -15.342195219941161 -1.412678188793450 150 110 88 255
-39.155055426112000 -14.604139339753644 -1.531480816437806 140 103 77 255
-39.233722906983573 -14.180036340601248 -0.740088792599920 140 105 78 255
-39.253440399487317 -13.548789540445838 -0.555456661113169 136 102 74 255
-39.381371263222775 -13.308958887049499 0.741831144343848 129 95 67 255
-39.450353532804542 -12.861431841059456 1.432344858095576 137 100 71 255
-39.558718177781031 -12.561702267681369 2.527590968380764 147 106 78 255
-39.617969278887443 -12.086246316065470 3.117123216288860 155 114 86 255
-39.696937984333744 -11.687043251209801 3.909075041991400 163 119 92 255
-39.736628805146083 -11.144622268698058 4.296386638030242 166 120 94 255
-39.815703486060684 -10.752678064694948 5.088497665501620 168 122 96 255
-39.875167377086470 -10.290116647987091 5.678307323475281 174 128 102 255
-39.974014340744716 -9.981266501454641 6.672997905349519 182 136 110 255
-39.964765705344277 -9.260411030923137 6.554489285636379 189 143 119 255
-39.926082459214726 -8.424217795105164 6.132296033372455 192 144 121 255
-39.956280723592727 -7.854964130907277 6.418601272389850 191 140 119 255
-40.114341189056717 -7.790792928051403 8.020937503865525 184 133 112 255
-40.213470412729578 -7.500993085809100 9.016044989015683 172 122 101 255
-40.263504953247221 -7.019964436875128 9.505044714425480 159 108 87 255
-40.234961255871838 -6.224960511841076 9.184076541866204 153 102 80 255
-40.275291876125600 -5.706887291308206 9.571859631922848 148 100 77 255
-40.276369722262714 -5.030336965796749 9.554613336522436 142 94 71 255
-40.316829781101632 -4.515014817387524 9.942437138960486 131 86 63 255
-40.259074116264429 -3.595166907092405 9.317496393569400 117 75 53 255
-40.171912069933072 -2.549036183762340 8.388589637410149 106 67 44 255
-40.124139462925719 -1.662472540256147 7.864709628367507 97 64 39 255
-40.076445576837123 -0.772891674536638 7.340736457969228 77 59 29 255
-36.493620502959473 -23.151141417490294 -36.782838785872514 206 160 140 255
-36.549944216702912 -22.520828252517560 -36.196556353454355 209 163 145 255
-36.692367975222822 -22.147638264084449 -34.700970401236646 209 164 145 255
-36.748755681182502 -21.526293538142966 -34.114476557253738 207 160 144 255
-36.843431235866198 -21.023192314390144 -33.123752743553439 207 159 144 255
-36.909449135235242 -20.438461667299151 -32.436036880736822 205 156 141 255
-36.994630596027214 -19.916092527315300 -31.546128897960045 196 147 132 255
-37.051153647659575 -19.309925068080616 -30.959283229247262 190 138 124 255
-37.079016540128244 -18.617525789867088 -30.675560671290100 185 133 119 255
-37.097348714833885 -17.896649671244489 -30.492877418041758 173 125 109 255
-37.106150412889789 -17.146481837066929 -30.411254009534559 159 112 96 255
-37.105421949698822 -16.366207290152474 -30.430711005199441 141 95 79 255
-37.142994980337917 -15.709529315138525 -30.045806447413668 123 76 60 255
-37.266705767295484 -15.335547415494531 -28.750963723330585 112 65 49 255
-37.658328193078276 -15.848964475903912 -24.624987706628701 90 41 23 255
-38.490083628596949 -17.843278775135758 -15.847283538326963 199 146 128 255
-38.767021170117914 -18.029490845304068 -12.933344676614752 192 136 119 255
-38.823962132158236 -17.489492581877656 -12.344927292501040 170 117 99 255
-38.833108835968275 -16.790067285645534 -12.262103989125421 147 96 77 255
-38.861432807728455 -16.156709424718883 -11.976998406858172 127 74 56 255
-38.918503528035465 -15.624095050335825 -11.388423905536229 127 74 55 255
-39.042594030689926 -15.327978104581263 -10.091707023381105 124 72 53 255
-39.157164154973714 -15.005201577192040 -8.895986030468293 96 45 26 255
-39.252646210477607 -14.621077351523112 -7.902448263819679 86 37 20 255
-39.242928433804437 -13.866695440405309 -8.021696655649976 108 61 43 255
-39.261962586299134 -13.214915917202049 -7.837430532008796 139 93 72 255
-39.424566640702608 -13.084357788046347 -6.135343725046823 142 100 76 255
-39.577652853161140 -12.927922780276404 -4.534233686702805 133 93 68 255
-39.711653412393119 -12.709572047896216 -3.135321686537338 133 93 68 255
-39.883976718307949 -12.640640348940792 -1.331403594141477 144 103 77 255
-40.075486501777050 -12.652838459612809 0.675173440554829 150 108 83 255
-40.200071603265975 -12.423475946178357 1.973459894079042 157 112 87 255
-40.267301758594563 -11.983174513386174 2.664540418897786 163 117 93 255
-40.353720553530678 -11.619661296315172 3.558170257384404 170 122 99 255
-40.421057835235487 -11.187170552246840 4.249423604656499 175 126 102 255
-40.478882467870847 -10.721188946364833 4.839507616280287 179 128 105 255
-40.508061403280919 -10.146124215515258 5.125890826295461 182 132 108 255
-40.585132716361557 -9.760794381756227 5.918608527932946 184 138 114 255
-40.585726790675807 -9.076184059996990 5.901265936343634 189 141 118 255
-40.605514785260894 -8.467779274993248 6.086456848312935 188 140 118 255
-40.625363857933991 -7.860256923253885 6.271656519630739 186 138 116 255
-40.760065148021226 -7.718505693935398 7.672340297237383 180 130 108 255
-40.799166448263435 -7.194003144725428 8.060231974593364 166 118 96 255
-40.867025591314928 -6.789296296234696 8.752069129938661 152 104 81 255
-40.839298061456802 -5.992603616578222 8.430879089969210 145 95 70 255
-40.907283852757899 -5.592305402506369 9.122799244359442 140 93 67 255
-40.898820851306766 -4.874773386730013 9.004201482646948 132 88 63 255
-40.928682182715292 -4.317917168444808 9.290892474317388 122 79 55 255
-40.824730252487534 -3.193443761648354 8.158870028772355 109 71 48 255
-40.759111568472321 -2.226364880207313 7.432051881788539 100 66 41 255
-40.664888650302835 -1.131634736818043 6.401056991447064 86 61 33 255
-40.685487711386550 -0.528650710754079 6.586205899815724 51 43 13 255
-37.334818246281039 -24.121688681647385 -36.328839589953077 207 167 142 255
-37.343006835829677 -23.352978561661530 -36.247547585371422 211 164 148 255
-37.434901397206168 -22.836243429041389 -35.256555228230752 212 166 150 255
-37.508233353601646 -22.268532657924212 -34.467600837581017 214 163 149 255
-37.590896892249241 -21.733640329217025 -33.577454214690931 208 159 145 255
-37.599204639545349 -20.973688052542570 -33.495968219681743 203 154 140 255
-37.654038400640886 -20.359355629022843 -32.908956489129650 196 147 132 255
-37.736805153257187 -19.836120836510915 -32.018539468965741 186 137 122 255
-37.801009793466825 -19.258646856270602 -31.330242573482280 179 130 113 255
-37.837351336535022 -18.595487727221311 -30.945230254882006 168 119 102 255
-37.827227445901009 -17.784026593386798 -31.065824421351294 156 108 92 255
-37.835739389785267 -17.032740630602092 -30.984165430317887 145 98 82 255
-37.862889933727175 -16.343243112083712 -30.700213329895917 130 84 68 255
-37.927283946056363 -15.778949357180835 -30.011626694014922 115 68 52 255
-38.084733441220720 -15.530116858386776 -28.311380385019788 87 40 24 255
-38.502674315988671 -16.170768195671286 -23.778317245881510 100 52 33 255
-39.302047485617230 -18.135803424759700 -15.096649325252031 196 145 126 255
-39.543376202617445 -18.228387023479456 -12.484492080583777 190 134 117 255
-39.589409986200266 -17.657700535866269 -11.996867024750088 176 123 105 255
-39.598277957749659 -16.959579363507444 -11.913949663077062 166 115 96 255
-39.597886651489638 -16.229149028482851 -11.932227623641950 148 95 77 255
-39.644052281349865 -15.663954247427952 -11.444493481538245 138 83 63 255
-39.718172280175935 -15.201378099262953 -10.653069095900094 137 85 64 255
-39.773734446440329 -14.675843969694256 -10.063984977656276 123 70 52 255
-39.801436188949985 -14.051855574722410 -9.778507056313060 104 55 36 255
-39.801277814535410 -13.326976123183485 -9.796696663446596 104 56 36 255
-39.838380724209784 -12.739640539491973 -9.409945404948076 114 66 48 255
-39.903443360143768 -12.258403170836530 -8.719417599292228 142 96 73 255
-39.977860706997348 -11.815787786732770 -7.927556736870599 142 96 73 255
-40.080239426370916 -11.483040682116666 -6.831824904803000 110 65 42 255
-40.219882817027447 -11.298079438877451 -5.330895454513836 120 75 52 255
-40.406093566600077 -11.299903826370098 -3.323414395475083 153 108 85 255
-40.648173527542959 -11.528596412636915 -0.708000330589471 161 116 93 255
-40.778672212960473 -11.335578350474975 0.692318347883941 165 120 97 255
-40.918526994236586 -11.186555797371312 2.194104876146071 172 127 104 255
-40.993318227402725 -10.787587953673352 2.986980907361158 176 130 107 255
-41.086769955524034 -10.467013236124004 3.982562698529648 180 132 110 255
-41.143069220219544 -10.002141139685023 4.573009910980204 181 133 111 255
-41.273841351864604 -9.841582655998963 5.974084556931672 182 134 112 255
-41.311652240996409 -9.309157106291394 6.362060697758835 183 135 113 255
-41.293715372308135 -8.549521166343141 6.142068531683321 183 135 113 255
-41.285144288765416 -7.827067356664926 6.023370788210968 182 134 112 255
-41.360345389646724 -7.452514564053729 6.816770548760729 173 125 103 255
-41.417006256535913 -7.004060169251744 7.407551036406801 158 110 87 255
-41.510929911146711 -6.715760571972112 8.403840527610839 145 97 74 255
-41.502617654621027 -5.997568705945795 8.285193039654956 137 91 65 255
-41.578068286495338 -5.637011427355759 9.078889813909512 131 85 61 255
-41.551295490777413 -4.839489842643005 8.757469064568795 122 80 56 255
-41.543193442081346 -4.120813254468814 8.638763182187461 111 73 48 255
-41.451484944786998 -3.035567809489379 7.607454029746265 104 69 44 255
-41.369158330764414 -1.985516785825396 6.677385787606511 92 66 41 255
-41.314807412613348 -1.053829831347187 6.051398961859974 68 53 24 255
-38.136732673649867 -24.980606309376057 -36.278685258927851 192 171 130 255
-38.135568937475597 -24.184705436125142 -36.298439439265053 210 165 142 255
-38.170558805300587 -23.499487476897698 -35.913684583429813 210 168 150 255
-38.205577727839376 -22.816465179849942 -35.528880912570855 213 168 151 255
-38.285791388015390 -22.276634332640256 -34.638319918358093 214 162 149 255
-38.338939934977581 -21.656278032765996 -34.051089192280415 207 157 143 255
-38.328886598806506 -20.838003529133530 -34.171870165089103 199 150 136 255
-38.391134837708570 -20.251283628643833 -33.483375668142401 185 136 121 255
-38.453419325167857 -19.668353492820188 -32.794793859693129 169 120 105 255
-38.515741008677175 -19.089207866986953 -32.106125080128322 163 114 97 255
-38.541961153616640 -18.394565085968125 -31.822097818098712 153 104 87 255
-38.550147611433786 -17.641359708264545 -31.740415535345335 144 97 81 255
-38.549335274773391 -16.858326020535472 -31.759923462370523 130 84 68 255
-38.557596018499510 -16.105906038290186 -31.678237763269010 95 49 33 255
-38.593003831817988 -15.446700323967775 -31.292920798206637 72 26 10 255
-38.791105830260214 -15.350655383914400 -29.085677433357262 52 5 0 255
-39.468192007204067 -16.932671435701181 -21.513360413112025 187 140 122 255
-40.000764642775103 -18.047802293330378 -15.559708963465539 188 138 118 255
-40.199037542742680 -18.011555512560435 -13.350999761956928 192 139 121 255
-40.288915758418099 -17.600162916641111 -12.356915722147050 181 130 111 255
-40.333654096209514 -17.031526266501473 -11.868954365880597 174 126 106 255
-40.351325764431330 -16.367166109374907 -11.684705034667900 164 112 93 255
-40.360005519368826 -15.670762000439609 -11.601703130000317 147 95 74 255
-40.422957492762130 -15.174790970307740 -10.911081782203155 144 92 71 255
-40.449807296676560 -14.548130711759242 -10.625483761919099 131 80 59 255
-40.476706008654936 -13.923005331022949 -10.339857903760162 116 68 48 255
-40.485578912964037 -13.231132820020790 -10.256784526856734 101 53 33 255
-40.494502598702120 -12.539701714646910 -10.173711215207447 114 67 46 255
-40.521554073170968 -11.918061341324503 -9.888031319630045 120 72 50 255
-40.539620687458516 -11.262981108921423 -9.703635495951744 102 54 32 255
-40.630044806830632 -10.890610438002440 -8.708690394244513 120 74 51 255
-40.702447788166594 -10.452540984930209 -7.916272443423622 106 61 40 255
-40.811057518544779 -10.161699960469264 -6.718438336559473 75 33 11 255
-40.901647271245032 -9.805148261290682 -5.723131934646290 69 27 9 255
-41.164008589112449 -10.143559178720224 -2.802162449375544 177 135 113 255
-41.453534629653731 -10.607216813516303 0.423239759185776 175 130 109 255
-41.616587994734090 -10.572253797334326 2.230049586780581 175 129 107 255
-41.734509635057918 -10.361307759445666 3.530263816369882 181 134 113 255
-41.771154377409879 -9.820783521741575 3.918292687875123 184 136 114 255
-41.862080185848271 -9.508164665225038 4.914629747369929 180 132 110 255
-41.934991249487439 -9.124925932848925 5.708314527861546 180 132 110 255
