ply
format ascii 1.0
element vertex 658
property float x
property float y
property float z
property uchar red
property uchar green
property uchar blue
property uchar alpha
end_header
-5.370043243679774 -25.681309203404268 6.583307038055352 155 111 86 255
-5.348507577335042 -24.949486646604768 6.467223625912766 144 102 77 255
-5.395477458435742 -24.310188346658862 6.645662713452083 139 97 72 255
-5.419604351084651 -23.640681164053774 6.725945253131442 132 92 66 255
-5.466560614675309 -23.003267205201027 6.904434708879933 126 86 60 255
-5.330829669383050 -22.112301931631848 6.297360633068962 121 82 53 255
-5.172264737392105 -21.185990319297346 5.591998868242456 110 73 44 255
-5.082203206020459 -20.352984515899649 5.181179724258470 103 67 38 255
-4.900805796800860 -19.387251276502369 4.377427480507208 100 65 35 255
-4.902074768257073 -18.680419027323254 4.359377844635617 90 56 28 255
-4.538016747008591 -17.442742766907443 2.769593831165878 80 49 21 255
-4.082639687421505 -16.062614928815350 0.786628538581795 69 41 12 255
-7.719857424874633 -3.108057590838271 15.843508372705884 162 134 110 255
-8.085962180366749 -3.086218613303501 17.401176606661409 167 121 103 255
-8.178212194425498 -2.577403547373564 17.777779540376912 118 78 58 255
-8.019440485479606 -1.613391341500872 17.071515386837518 88 62 37 255
-7.951939102711925 -0.812603266620400 16.758965469576395 77 61 33 255
-15.631663612992526 -4.877399383319528 49.585586016995535 143 122 79 255
-15.723569452017337 -4.473545798301501 49.964903476666649 125 92 55 255
-15.655777152952354 -3.742379433323308 49.654167889793285 133 95 64 255
-16.135460279393570 -4.144012737419018 51.709607988358300 160 122 91 255
-16.295758379985436 -3.890882262313241 52.384936045773230 78 51 12 255
-15.794514389382897 -2.253884686097223 50.200758374306247 82 65 27 255
-15.293271572887498 -0.604310250561355 48.016264245993682 100 88 53 255
-3.248534874243319 -29.253384247443904 -5.560418224408352 191 160 132 255
-4.536737404264770 -30.117495318031374 0.015982930460552 193 156 130 255
-4.899271680593536 -29.851226549015806 1.568290741133580 196 153 129 255
-5.126334798852504 -29.422089687071903 2.531772688504532 200 155 134 255
-5.556558013730566 -29.258134980324044 4.379028634344934 203 156 136 255
-5.670718265398698 -28.696643182651101 4.851909300009822 203 157 134 255
-5.784869968410945 -28.137882884759449 5.324860518330070 201 153 131 255
-5.763572900606135 -27.403833581984728 5.208668674151681 192 146 123 255
-5.922855954726657 -26.908782370120903 5.878137654129262 174 129 105 255
-5.991838750382342 -26.296692882698295 6.154840330628787 163 119 94 255
-5.993098934764284 -25.594803556109639 6.136916897894110 152 108 83 255
-6.039497866808681 -24.954420964406225 6.315454230907790 141 99 74 255
-6.085890689725019 -24.315123228332411 6.494020181524292 136 94 69 255
-6.041995479689746 -23.551758965950881 6.279640441801035 129 89 63 255
-5.930387863069868 -22.692644568131712 5.770482751389750 123 83 57 255
-5.796211028602684 -21.799000038755338 5.162999691008281 115 79 47 255
-5.707173373627896 -20.966296694212858 4.751963082779525 109 73 41 255
-5.685840496771519 -20.228510833355045 4.635685168169687 101 66 36 255
-5.506527145571980 -19.261719750313674 3.831448211312704 98 65 34 255
-5.507757378299857 -18.553814480983931 3.813380113851224 92 59 31 255
-5.147908134033045 -17.315095883364307 2.222644721514200 85 54 26 255
-4.697801900811612 -15.933933500574014 0.238494786335082 71 41 13 255
-3.683553255356792 -13.699118185751942 -4.203567384144378 41 35 1 255
-7.976790745959910 -2.379745179139263 13.925187346914470 105 92 62 255
-8.609313360866395 -2.845118550945202 16.665561596046871 154 113 93 255
-8.790721558040673 -2.499801050367211 17.436349931719860 117 73 54 255
-8.791684937892043 -1.826136695833696 17.419201355391465 91 62 38 255
-8.657319630343046 -0.901249839277810 16.810974252034924 79 60 32 255
-16.224977031110576 -5.518452644614015 49.573699213625162 151 156 102 255
-16.744265425502533 -5.996954971209746 51.827202675244195 144 107 71 255
-16.880229245076478 -5.693157568375014 52.404187658545879 122 83 52 255
-16.971086964756424 -5.298214668508152 52.783959542080083 106 68 39 255
-16.881561408869871 -4.526763018939292 52.374570132224079 94 60 29 255
-16.882214231344761 -3.942911347612906 52.359747831358817 90 63 28 255
-16.431940239536047 -2.401915879188948 50.371616359271854 86 65 28 255
-16.116942662678731 -1.138105104472444 48.975227628320710 94 79 45 255
-3.481923216180206 -28.647404144665259 -7.880161605051569 192 158 133 255
-5.022659828556655 -29.842074149281359 -1.121940976345797 194 157 132 255
-5.336273445789253 -29.516442377091522 0.234791304386818 195 153 131 255
-5.716799694785649 -29.284177068641469 1.886417413632159 201 156 135 255
-6.030379485277521 -28.974547752089947 3.243559452899092 205 160 139 255
-6.232399724444711 -28.526866423330475 4.109661690985092 206 160 137 255
-6.322867449934733 -27.937084344777034 4.484620790297072 198 152 129 255
-6.435636002602728 -27.379157440407752 4.957897005262737 190 144 121 255
-6.570703921556493 -26.853889593533310 5.529510867697070 176 132 107 255
-6.616535814663187 -26.211052111028820 5.708111128003736 161 117 92 255
-6.595443544141034 -25.477881549169226 5.591896357997200 150 106 81 255
-6.685878087766845 -24.897911635485684 5.967109442050543 139 97 72 255
-6.709389267045303 -24.227059511513346 6.047493514220093 132 91 65 255
-6.621371315881611 -23.400324922925407 5.636382817111667 125 85 59 255
-6.511048961845859 -22.539876259360170 5.126909055152339 118 79 50 255
-6.512247575279858 -21.835841740143024 5.108945223981493 112 76 43 255
-6.468835306102036 -21.067606168987695 4.894336853126219 106 71 39 255
-6.358511716998919 -20.201183809470493 4.384713176101059 100 66 35 255
-6.158978170309226 -19.201510447801638 3.481675916484789 98 65 34 255
-6.160168513447978 -18.493070397296592 3.463603142449983 91 60 31 255
-5.893733870437494 -17.386534067500165 2.265330198762854 87 57 31 255
-5.471196818825170 -16.039395239761618 0.378393805776341 74 47 20 255
-4.624956515514917 -14.041455795903616 -3.377715769402869 51 39 5 255
-8.109528116955190 -1.407088256875042 11.413513518080634 67 76 39 255
-9.135843540184574 -2.604043748590698 15.929248413143654 137 110 85 255
-9.404288453660328 -2.422206191473336 17.094688048463695 119 78 58 255
-9.427542363707644 -1.789557157326485 17.176089149371421 102 72 48 255
-9.317059482886684 -0.906240616156353 16.666075745939253 87 66 39 255
-17.331638399341585 -6.047818171889361 51.801783547143145 156 123 88 255
-17.466042169832463 -5.744291426610303 52.379118265041058 140 101 70 255
-17.622716661239153 -5.490647320852489 53.055229950693587 123 85 56 255
-17.244632038700146 -4.105638233121638 51.362406721865369 121 87 56 255
-17.223044819233444 -3.471764376575592 51.248797201032914 110 83 48 255
-16.867243616170931 -2.119399264640819 49.654314745926399 91 69 32 255
-16.778807733415277 -1.335054012656386 49.244361642087597 85 68 35 255
-4.476545967850321 -28.986023849265294 -6.861265366346572 193 158 136 255
-5.095047468534212 -29.033837371340610 -4.128306999369443 197 160 138 255
-5.515121950515720 -28.841948713351371 -2.279522455784900 196 157 137 255
-6.067440122004349 -28.831878917401468 0.159273860289545 200 157 137 255
-6.487472530786590 -28.662194875226476 2.008625905593021 206 161 140 255
-6.775227339859349 -28.328038344321357 3.268409743141831 208 162 139 255
-6.974797755138894 -27.883343419149497 4.135125583496631 201 155 132 255
-7.086189171144355 -27.324870257912465 4.608690786958562 191 145 122 255
-7.241656786682427 -26.828989320402641 5.278977616059024 177 133 108 255
-7.286909552279027 -26.185881083520229 5.457698373024982 161 117 92 255
-7.266035636443576 -25.452445639299881 5.341428944812094 150 106 81 255
-7.355361379937825 -24.872201260253135 5.716878864834314 139 97 72 255
-7.356521398667120 -24.170067373728372 5.698971301950451 132 91 66 255
-7.291560394123181 -23.374087109041341 5.385983833537296 125 85 59 255
-7.160482306141013 -22.481829386873130 4.777854473015054 119 80 51 255
-7.205714785117728 -21.840902448421247 4.956634530090753 111 76 41 255
-7.206866379786113 -21.136856573357989 4.938680749081755 105 71 37 255
-7.097826765438199 -20.270986284467071 4.428788708571631 98 64 33 255
-6.944714076856258 -19.337133721296752 3.722038842473353 96 63 32 255
-6.813641164495849 -18.432375417799946 3.113594063221626 91 60 31 255
-6.616461332037410 -17.424835523359022 2.209841635302325 89 55 33 255
-6.220963062282635 -16.111446072605048 0.420228483758137 79 47 26 255
-5.516980683295309 -14.316376450400682 -2.747541398759097 63 40 12 255
-9.291139720971039 -1.665896655912547 13.515901731760295 115 108 76 255
-9.798673881403758 -1.931848570285069 15.766645212102958 134 101 78 255
-10.041903389833010 -1.711431230454366 16.834239348641830 122 87 65 255
-10.042865381043988 -1.036687723211756 16.817063946248538 95 69 44 255
-15.562673501909437 -1.127734755466008 41.210589411062443 169 131 95 255
-16.774363018639271 -3.084967459783613 46.626455362568208 171 130 100 255
-16.951250042463464 -2.862677151467906 47.401330607452792 173 132 106 255
-17.216189714735137 -2.833463600517717 48.571377932586302 147 111 83 255
-17.569177921140877 -3.000618967789606 50.136681011622528 128 98 65 255
-17.283711549846352 -1.789034818917983 48.837532179953996 103 79 45 255
-17.328470608930779 -1.291412872029881 49.020019179776284 101 80 50 255
-3.545740583061104 -28.396570322053478 -14.455273919855983 202 177 146 255
-4.439945776362244 -28.766193803349125 -10.443390780849995 197 165 140 255
-4.833185121296587 -28.519143099440726 -8.692512586505984 195 160 138 255
-5.531313610644588 -28.674503235610175 -5.564680351256186 200 164 144 255
-5.946290361876727 -28.479073989297291 -3.714864239796327 198 161 140 255
-6.644365071602074 -28.665548399952655 -0.586237929007098 201 160 139 255
-7.168188138695214 -28.638485404101615 1.755976546659497 202 157 134 255
-7.583101939778480 -28.478781986200715 3.606704690042818 207 162 139 255
-7.758451684940127 -28.006025319721147 4.375620806403504 201 155 132 255
-7.912016143141940 -27.507949583429010 5.046270807330075 192 146 122 255
-7.978468535939747 -26.893942013600466 5.323481493747295 177 131 107 255
-7.979589603908586 -26.190965731707109 5.305561314092188 161 118 96 255
-7.958933515287356 -25.457534267572569 5.189244103176804 150 108 85 255
-8.025375199422911 -24.846542481163112 5.466532964325722 138 96 72 255
-8.004715048302174 -24.113129975586460 5.350217123071673 130 88 64 255
-8.005827562893550 -23.410460931421582 5.332306547979385 123 83 57 255
-7.898070716357708 -22.550036981755014 4.822269457631933 115 77 49 255
-7.899181145624404 -21.846007866392554 4.804325146960309 109 76 41 255
-7.856744219490778 -21.077785618463366 4.589502711210116 102 69 36 255
-7.683673730859873 -20.114311685225161 3.783976846121959 100 67 36 255
-7.554151321664520 -19.211755953023754 3.175246610877139 97 63 35 255
-7.424631743031647 -18.305933633097041 2.566433627114691 93 59 32 255
-7.316885869585981 -17.430006113372670 2.056004344559710 86 56 29 255
-7.056748437432695 -16.317277965634602 0.856191477871448 84 50 24 255
-6.600688058129755 -14.894666910696088 -1.230110092699817 70 40 14 255
-5.709249730896467 -12.781144015731414 -5.286445364608596 38 29 1 255
-10.264696368727073 -1.565363948371768 14.733224655123507 113 86 59 255
-10.635563555746849 -1.591765008691155 16.393477230952840 166 130 108 255
-10.788834990411821 -1.208937245483355 17.067089129632251 103 73 49 255
-15.698003188491711 -0.775047591384862 39.021187797481730 164 123 93 255
-15.894593605188383 -0.574828057522609 39.894705133243150 179 130 102 255
-16.440001112895899 -0.516922998946981 42.333817909780294 176 133 108 255
-17.680582082840424 -2.601487865271295 47.951371044121714 183 145 119 255
-18.203365433974874 -3.147668084803740 50.308226157050854 183 151 120 255
-18.138885401926835 -2.415225378990570 49.996730378926458 158 133 99 255
-18.117903179134494 -1.776872468772169 49.882875258466697 107 88 56 255
-3.947532955903220 -28.728861234164299 -16.173936092266445 197 187 147 255
-4.379002215835399 -28.511029403337403 -14.225890192160932 202 172 144 255
-4.767425151811956 -28.249046568057437 -12.474328668429848 198 166 141 255
-5.327941420343379 -28.219031923979315 -9.935417495842614 199 164 142 255
-6.146594270794893 -28.539627732047109 -6.215414269099824 202 165 145 255
-6.900675557432805 -28.795831452131353 -2.790091030464851 200 162 141 255
-7.568676595184947 -28.956626794419918 0.242082066425439 204 160 141 255
-8.107578290178736 -28.961066679770283 2.684192384114851 207 162 141 255
-8.366806633760788 -28.600435798375585 3.847162906478047 206 161 140 255
-8.475445135335114 -28.040567004938580 4.321298167424345 201 154 133 255
-8.519545736431667 -27.394440612123859 4.500196312729827 192 146 123 255
-8.563643363856158 -26.749419107846549 4.679122890056021 177 131 108 255
-8.607738018923477 -26.105497685250768 4.858077778263180 161 119 97 255
-8.630320120088946 -25.432201265247400 4.938604627525308 152 110 87 255
-8.674409244944933 -24.790195681571916 5.117608898088690 140 98 74 255
-8.675477875478116 -24.087256714829579 5.099701183379921 129 89 64 255
-8.676545176106970 -23.384319554065215 5.081793806415362 122 82 56 255
-8.613087310594594 -22.586733990071195 4.768435558724889 114 77 48 255
-8.485107951601321 -21.692068810733502 4.159564509120571 108 76 41 255
-8.378639278741858 -20.826242142580696 3.649108421066046 101 70 36 255
-8.293680060027249 -19.990056877837588 3.237087751141701 99 67 36 255
-8.251735381740545 -19.216942298487083 3.022034109860499 97 64 36 255
-8.166779163751755 -18.376925556447318 2.609916451947811 93 60 33 255
-8.017308332617681 -17.435217414497998 1.902168533368069 87 57 29 255
-7.803326527541792 -16.389385147412398 0.898728392246085 83 52 24 255
-7.460323297920247 -15.135880911183790 -0.696081820536506 72 45 18 255
-6.966801612192789 -13.635869614918036 -2.980931395213872 53 38 7 255
-10.585033683717569 -0.910003857573599 13.007637086639306 159 133 103 255
-11.101852473898376 -1.222842226089440 15.359936808601901 188 144 124 255
-11.274766578710967 -0.879375401168602 16.132638843640649 103 68 46 255
-16.360079296978675 -1.535213888360104 39.202017044001451 166 125 93 255
-16.554317372995101 -1.333755353094219 40.076020321049583 173 123 100 255
-16.512198627874191 -0.625826135774290 39.862643788703906 175 128 103 255
-18.147624371896086 -2.369494173963247 47.330781198729795 185 145 119 255
-18.921896217980475 -3.484870308856657 50.875685273444702 193 161 130 255
-18.879733990102459 -2.802188895759187 50.662953062418381 143 116 84 255
-18.751636251088051 -1.925535213991708 50.054560867797591 99 79 46 255
-4.720294463067482 -28.761434690819812 -16.240567146493504 205 178 146 255
-4.933900857391670 -28.271504489124879 -15.275655567119827 209 175 150 255
-5.189995055856230 -27.842043550822069 -14.113726575123167 205 169 147 255
-5.892285606833454 -28.002338777716261 -10.884266767937902 198 163 143 255
-7.019500112036773 -28.741331856403747 -5.685296470023559 200 164 145 255
-7.934200387932592 -29.225846988347399 -1.470193229206757 201 161 140 255
-8.636398336202433 -29.447788175169705 1.760836794258580 202 158 139 255
-8.956134931869137 -29.168254075760899 3.219800479643027 207 162 143 255
-9.105891185370311 -28.663885041165315 3.891129378152129 206 161 142 255
-9.213150031184682 -28.104546094326565 4.365581235996387 200 155 134 255
-9.192933123946275 -27.369976822055477 4.249138878261533 192 145 125 255
-9.172716301698991 -26.634895097122268 4.132683618111287 177 130 110 255
-9.194988379492173 -25.959693498754618 4.213230718010209 161 119 97 255
-9.259747023430684 -25.345984417960736 4.490821228621598 153 111 88 255
-9.324502677533239 -24.733904622006662 4.768453358818249 141 101 76 255
-9.283039262564756 -23.968412718724821 4.553485570341991 132 93 67 255
-9.284062480960557 -23.264398081065480 4.535560794347987 124 87 60 255
-9.242600254906385 -22.497287325950424 4.320552044464421 117 82 52 255
-9.137412908524091 -21.633641985532279 3.809869136731720 110 80 45 255
-9.032228947994469 -20.767286842569789 3.299117356727834 102 72 38 255
-8.927048393130008 -19.898216159033069 2.788296555836041 98 67 36 255
-8.864353010721089 -19.091673051790906 2.474545494752419 96 65 36 255
-8.801659512407426 -18.283480742230338 2.160752556395892 93 62 33 255
-8.717727827674089 -17.440469445581570 1.748334398601173 88 58 30 255
-8.570079745099960 -16.494957565057732 1.040090172544808 81 52 24 255
-8.273761549279186 -15.309700512247773 -0.358429715304965 74 48 21 255
-7.807542528089037 -13.845056458733097 -2.545973379948009 61 40 13 255
-7.044000862308216 -11.889092760270188 -6.114369637170910 35 33 1 255
-11.424315083141586 -0.563156438390749 13.633773304344743 144 95 77 255
-16.617283366316876 -1.426323967289989 37.504046399800188 155 121 86 255
-17.297273165040693 -2.274184442750709 40.653276248701104 168 126 94 255
-17.425483223073670 -1.938560255917636 41.231165496339770 170 125 96 255
-17.574910309166512 -1.652258500874964 41.908049250085185 177 127 104 255
-17.618229853462815 -1.135742466887535 42.090377661822231 176 132 105 255
-18.128392464063623 -1.653881820983713 44.449302081125154 181 140 115 255
-19.126591824978959 -3.272068651800183 49.084226157856961 175 137 110 255
-19.360857147106763 -3.203863581220801 50.157617617635964 131 97 66 255
-19.298048878612676 -2.471712468019589 49.845761683553349 105 78 45 255
-19.192806752366849 -1.641244617539712 49.335924943177929 96 78 44 255
-19.002696807125602 -0.614042876928124 48.430124088387117 77 73 36 255
-5.197687917687801 -29.182448006220255 -17.666362142806975 173 182 134 255
-5.345636641871202 -28.605336395853442 -16.996464757142235 211 179 152 255
-5.472596644434915 -28.004844355713345 -16.424959847908553 211 176 154 255
-5.620534191399791 -27.435159435116674 -15.754873288538079 206 168 149 255
-6.880521111331845 -28.341141206478966 -9.863961890959729 199 162 143 255
-7.888681101510130 -28.943064272788064 -5.154359162922617 200 162 143 255
-9.064656155004315 -29.797405424167920 0.344047800073838 199 157 138 255
-9.422328111058178 -29.567405517411231 2.000754694002069 202 158 139 255
-9.717045064760256 -29.260070990964223 3.362100855126869 205 162 143 255
-9.780968040961419 -28.640023092390990 3.639715695977543 204 161 142 255
-9.886848456655478 -28.080404560693410 4.114463531130184 199 154 135 255
-9.803909054900629 -27.256595088213444 3.702310008808297 190 145 124 255
-9.804889275738070 -26.550364236844899 3.684338966013456 178 132 112 255
-9.868805871686526 -25.934745250113210 3.962066558028596 166 122 101 255
-9.974677092186397 -25.381692922917821 4.436981497469333 156 114 91 255
-9.954676304674685 -24.646933680063540 4.320486856197306 148 108 83 255
-9.913698688540563 -23.880637092782734 4.105392048633917 138 99 74 255
-9.935654634681974 -23.207088523360909 4.186050199894112 130 93 66 255
-9.957610026465929 -22.534075519217936 4.266721937827299 122 89 59 255
-9.895658681990952 -21.734337284003232 3.952978405778765 114 84 50 255
-9.749805141433839 -20.804633828205453 3.244737148137574 108 78 44 255
-9.645908794772843 -19.935842520489018 2.733641076538731 103 72 41 255
-9.625918309146812 -19.194819765800759 2.616986697796904 99 68 39 255
-9.584953944796581 -18.420334013709208 2.401683090873462 95 64 35 255
-9.481067509577905 -17.545247162717715 1.890426562319533 90 60 32 255
-9.335236738208081 -16.600557844497501 1.181803535302890 83 56 27 255
-9.021620343605250 -15.382436549772692 -0.316158515007032 76 50 23 255
-8.645095179350939 -14.054257656591389 -2.110314159633162 69 43 18 255
-7.933013348337461 -12.168464170101615 -5.483421340966288 54 40 9 255
-16.736205726655335 -1.008347385593254 35.111773179269022 148 117 79 255
-17.533496208895521 -2.115259093647254 38.856241294657195 167 119 89 255
-18.016411213365927 -2.554050732994810 41.116741974188699 171 124 94 255
-18.394529783703391 -2.774156718211756 42.882688948853826 170 125 96 255
-18.604991013629373 -2.632120619491658 43.857038412548292 171 123 100 255
-18.815446810274437 -2.495145808480643 44.831516318003395 174 129 102 255
-19.424039314335261 -3.256184756884906 47.687002705061701 182 142 116 255
-19.885929691725352 -3.701804682724628 49.849878287681776 146 110 81 255
-19.803000155743121 -2.922841002115291 49.438850078744679 106 77 43 255
-19.342911917580444 -1.280418974059955 47.245489174032798 102 87 48 255
-5.911003322246032 -29.134824900078939 -18.029197209007407 187 189 147 255
-6.181337238562492 -28.718914246636061 -16.767639317662770 212 181 156 255
-6.244490709320068 -28.037802100626394 -16.491390559506726 210 175 153 255
-6.618393371305395 -27.770856784660879 -14.736761953165342 206 165 147 255
-7.448044169497066 -28.124587535404316 -10.813506435875354 200 158 141 255
-8.982012366748826 -29.453241668430579 -3.538337430370404 197 159 140 255
-9.790878967013441 -29.831093840832978 0.287674911003421 198 157 137 255
-10.206126682358594 -29.687060211769008 2.241142013883803 203 160 141 255
-10.414210647974514 -29.265388071787541 3.208983630531236 204 161 142 255
-10.477285456925379 -28.645333556023473 3.486784749098774 202 160 140 255
-10.540358552644982 -28.026932395736367 3.764627811795833 197 152 131 255
-10.499860398917754 -27.261902316075876 3.549459450494737 188 143 122 255
-10.521504910730904 -26.585595869453286 3.630116724579921 176 131 110 255
-10.584575747586761 -25.970239636881828 3.908036837300244 167 122 101 255
-10.668357988146639 -25.386981803735637 4.284629567663217 157 115 92 255
-10.648575644890848 -24.652223782811276 4.168086938706892 152 112 87 255
-10.587370552192354 -23.854927169008874 3.854240751198404 142 105 79 255
-10.609015626350526 -23.181106152253705 3.934960388638501 137 102 74 255
-10.651372372889291 -22.539362947418766 4.114352067063862 129 95 67 255
-10.590173369902743 -21.739629801569095 3.800443283300979 117 88 56 255
-10.446134765822642 -20.809939479536709 3.091803396615944 113 84 52 255
-10.322812702379856 -19.908806292525824 2.481745966337201 106 77 45 255
-10.303046161658820 -19.167514881643342 2.365035605668368 102 73 41 255
-10.303991293316081 -18.458542535026865 2.347003351385922 97 68 36 255
-10.242809990498230 -17.650053434434511 2.032870540576369 93 64 36 255
-10.140214484449473 -16.773044284620553 1.521281910922255 88 58 30 255
-9.913372804638030 -15.691095526568759 0.417342209363710 78 52 25 255
-9.582999735268274 -14.433315417439431 -1.180351865659816 72 46 21 255
-8.983438167428091 -12.721746342202152 -4.061721007844767 60 41 14 255
-17.198339471202829 -1.323879732195039 34.301191050330090 139 116 75 255
-17.654518236032899 -1.693170348866943 36.463403140299135 160 118 86 255
-18.027916656987337 -1.891598939314861 38.229842699800002 171 121 94 255
-18.690981694502227 -2.742065612064877 41.382858472068762 168 123 94 255
-19.167807236614394 -3.194093666126733 43.645030517747500 172 127 98 255
-19.603237228723323 -3.565419383931683 45.709436365541848 173 125 101 255
-19.935204300416359 -3.714235300651424 47.278899231477936 169 123 97 255
-20.225783383239602 -3.777413131403137 48.650470146214616 141 101 73 255
-20.123262399521998 -2.949705480394698 48.140104639465420 105 71 41 255
-19.834552586322140 -1.690895439121917 46.738063058649630 112 92 55 255
-6.461758413993671 -28.873772316814467 -19.181011384369924 199 192 154 255
-6.851290270794706 -28.616879397166258 -17.327147254945885 211 179 153 255
-7.343066300093142 -28.506444819046308 -14.979984272087279 207 175 154 255
-7.691669922207524 -28.216550343519842 -13.322789805539230 202 163 145 255
-8.531077997237787 -28.602279489815089 -9.298456249225808 196 155 137 255
-9.840816247412405 -29.655006691500859 -3.005118207964642 196 155 137 255
-10.659713112821429 -30.062971089585048 0.921864743370634 203 162 143 255
-10.946893457189439 -29.749601667439407 2.284715876375174 207 166 146 255
-11.152268050914692 -29.328447217467641 3.253166082420080 204 161 142 255
-11.173596171235602 -28.650695950714038 3.333856580992233 199 157 136 255
-11.194924617255509 -27.973519640483033 3.414561463130894 194 151 130 255
-11.195805185005824 -27.267260221424920 3.396611607843397 187 142 121 255
-11.258030796902048 -26.650796470204810 3.674689673398575 175 130 108 255
-11.340703272494792 -26.066164384697345 4.051491801731686 166 121 100 255
-11.382479841448202 -25.422781303450762 4.230969786118521 158 116 93 255
-11.383362617258641 -24.719024989460053 4.213082376802674 154 114 89 255
-11.343353720402966 -23.953273160011506 3.997788321343876 143 106 80 255
-11.385132870864020 -23.311527751633648 4.177306911509618 137 103 75 255
-11.447358309729495 -22.702397117770985 4.455569379297287 131 98 69 255
-11.407355596157153 -21.935825765468948 4.240253360749080 123 94 62 255
-11.265129938259626 -21.007765104838967 3.531255924153527 119 90 58 255
-11.102466171644785 -20.043561748264608 2.723424115301668 111 82 50 255
-11.082921901888625 -19.303348598515555 2.606692003941021 108 79 47 255
-11.083824738628671 -18.595452453535529 2.588696104047074 103 74 42 255
-11.043842137707550 -17.821203250101803 2.373182633080432 99 70 42 255
-10.942532745400740 -16.945550066160891 1.861345380731109 93 63 35 255
-10.779899783584575 -15.966059969780460 1.053122471663812 84 57 30 255
-10.515060832771155 -14.812366572120581 -0.249105229043153 77 51 26 255
-9.984481393182655 -13.206528734179855 -2.835724592689076 64 42 15 255
-9.249501636241895 -11.241538231920103 -6.410626272955597 48 33 3 255
-17.276010043736392 -0.791600212088866 31.607856865417062 142 117 77 255
-18.216646180890088 -2.229947660357681 36.148494687453081 152 110 77 255
-18.442310999590902 -2.105808527681106 37.222370453709232 167 116 89 255
-18.627120022753701 -1.896047855966160 38.098237698066470 175 125 100 255
-19.097891171111087 -2.333372556852410 40.361370958671415 172 127 98 255
-20.099712522147058 -3.983332339238558 45.201134466334310 172 126 97 255
-20.611295589947829 -4.545051780403583 47.663260702857485 189 142 118 255
-20.714370315464656 -4.185678032896121 48.143659701425662 141 96 69 255
-20.470235777972519 -3.029728372035677 46.939242433669705 119 79 48 255
-20.123999879124334 -1.630408812399367 45.239058435972595 118 88 52 255
-7.038006951792823 -28.639507376257853 -20.235337649790665 200 187 151 255
-7.543546273940393 -28.541876391760113 -17.788459812662211 209 175 151 255
-7.968328707559053 -28.348907527691736 -15.735900525662771 211 174 155 255
-8.695876694989401 -28.579753188637909 -12.202963871991642 204 163 145 255
-9.948209854441508 -29.551949154196691 -6.103868510507652 189 148 130 255
-10.978475000024773 -30.249271589255272 -1.089471266886676 199 160 142 255
-11.403181842200922 -30.125048744821981 0.964833001798979 216 175 157 255
-11.747140997789543 -29.897907316412201 2.624626108724954 208 166 147 255
-11.889254627727624 -29.391550577335749 3.297585034856411 202 161 141 255
-11.930448798379381 -28.743446993982047 3.477072362388526 200 158 139 255
-11.911094326092183 -28.008311861490839 3.360426197777826 193 150 131 255
-11.932107512178021 -27.331971536294944 3.441221398100481 184 141 122 255
-11.953121865188784 -26.656196792096992 3.522030561358406 173 130 111 255
-11.974137496669350 -25.980982843873193 3.602853542730145 167 122 99 255
-12.015336230642944 -25.336784862628960 3.782438059117169 159 116 93 255
-12.036354435207649 -24.662947287684460 3.863295078704766 152 112 87 255
-12.017012112565276 -23.927657300149647 3.746642350100728 141 105 79 255
-12.038034303451049 -23.254367151212648 3.827512256423859 137 101 75 255
-12.139780042423524 -22.707765137003818 4.303496228339839 130 96 69 255
-12.120444533803443 -21.973003017936321 4.186855273183994 126 93 62 255
-12.020393282475837 -21.109378134921869 3.675043863624012 122 89 56 255
-11.819450869870934 -20.081303417147936 2.669183852013987 118 85 52 255
-11.800130079521807 -19.341358973270118 2.552409371039801 115 82 49 255
-11.780813037585993 -18.600843438514616 2.435619708115269 111 78 47 255
-11.801856801365503 -17.926061878923306 2.516447376264296 105 74 45 255
-11.701834424700046 -17.051224565559593 2.004347724259617 99 68 39 255
-11.621996629100821 -16.207335534783127 1.591007580575820 90 60 32 255
-11.360567854584495 -15.055552875228415 0.288078293553156 85 55 27 255
-10.917557282821768 -13.588588774019328 -1.904625380305390 70 46 18 255
-10.232443778441912 -11.695642477095660 -5.283840568869380 59 36 8 255
-18.416866836024546 -1.961006415904706 34.049352628278285 156 114 83 255
-19.022722301088329 -2.685166852532063 37.006931898362865 161 115 87 255
-19.386620884907877 -2.881168723030328 38.775398700653597 169 120 93 255
-19.407772554181967 -2.311062096513467 38.858834314250714 169 122 96 255
-19.549895831644250 -2.016475591376974 39.537115301344159 165 119 91 255
-20.780674602317958 -4.218444664942396 45.569448456326626 182 135 107 255
-21.063896539076481 -4.270604355034010 46.942359608016289 183 140 115 255
-20.702015350452136 -2.835067609611386 45.142285808074973 128 90 59 255
-20.360318141305676 -1.436215325976789 43.441115863770932 120 87 51 255
-8.136956817663048 -29.099103699700208 -18.724241073749283 207 191 156 255
-8.695546021047008 -29.086863618128319 -15.979622615062112 213 180 156 255
-8.935404814847665 -28.654239891169198 -14.814204273897928 215 176 158 255
-9.633404340696472 -28.860482999063294 -11.377809220838969 205 162 145 255
-11.148068600784597 -30.223913246660786 -3.892685704775033 189 146 129 255
-11.905774509907445 -30.563186811142558 -0.158815541178797 218 180 161 255
-12.165496494947469 -30.215473314966161 1.106789630417211 213 175 156 255
-12.365457887957483 -29.789106299450452 2.076298715226983 203 164 144 255
-12.505661457311298 -29.281654352510273 2.749649975815316 202 161 141 255
-12.645862908819794 -28.778016871823326 3.423097602637370 200 158 138 255
-12.666558293386089 -28.101910531341517 3.503968544756617 194 151 132 255
-12.727089466329573 -27.485672967738310 3.782424768449687 185 142 123 255
-12.707954282799577 -26.751403523865307 3.665752164343928 174 133 113 255
-12.708738707463866 -26.046804962987125 3.647865199379623 166 124 102 255
-12.729441977260215 -25.372681072650607 3.728784249567070 159 118 96 255
-12.730231635840262 -24.668380473162927 3.710903625224148 151 110 88 255
-12.711108728437196 -23.933089478892157 3.594202639462765 143 105 82 255
-12.711904779828807 -23.228527469304638 3.576314037659245 136 100 76 255
-12.792363806902543 -22.650106106716535 3.953758871860259 129 95 68 255
-12.813079903695552 -21.978414866980074 4.034736262447552 128 95 64 255
-12.734227341894972 -21.146872002192310 3.621489943540553 124 91 58 255
-12.595638916390854 -20.216118139656075 2.911625260074118 121 88 55 255
-12.596454524269205 -19.509864527161497 2.893689830247013 118 85 52 255
-12.557447345220325 -18.737811120174101 2.678017147299272 114 81 50 255
-12.558271675412492 -18.030948326266838 2.660064484513157 110 79 50 255
-12.439623771295217 -17.123502910449332 2.048820883051064 104 73 44 255
-12.320984093198717 -16.212771674208838 1.437492863506748 97 66 38 255
-12.102792253403223 -15.128936119753320 0.331604318018094 91 61 33 255
-11.745229666776659 -13.799480241438857 -1.466751784538758 77 51 23 255
-11.288126265922990 -12.287736382168049 -3.759901796777626 64 42 14 255
-18.090404662516669 -0.500473567367862 29.270730945302887 160 117 90 255
-19.305164511798559 -2.592694901674690 35.303826176534528 164 118 89 255
-19.962770481182602 -3.455830934791578 38.560778886684290 169 122 94 255
-20.202533876798945 -3.384360550319755 39.735298067402709 169 121 94 255
-20.243337635730768 -2.862871881357677 39.918054480379396 165 118 90 255
-20.184672600195491 -2.112615290064767 39.604832585551861 154 109 78 255
-20.305075391381955 -1.775812528411876 40.184408395272868 148 105 73 255
-20.604533646306756 -1.859851231570090 41.656970362019024 129 89 59 255
-20.645366017101161 -1.344388136763271 41.839871976381801 119 85 52 255
-9.541326508339878 -29.985586266994844 -15.630854964255661 206 190 155 255
-9.817246290343988 -29.604875655307126 -14.267221580912405 215 182 157 255
-10.034198359643447 -29.150128902487083 -13.199742488098593 217 178 160 255
-10.742487100765629 -29.388640948105959 -9.662379524910364 206 163 146 255
-12.099319096096288 -30.562712912444368 -2.864250854426473 202 159 142 255
-12.748604183452187 -30.764991854895541 0.377916136794568 220 182 163 255
-12.886900138726475 -30.249340444755504 1.051480583744080 213 176 157 255
-13.005541995755962 -29.708943853152689 1.626324865771267 202 164 144 255
-13.104530721174079 -29.142988623761539 2.102428319030821 199 161 140 255
-13.262475232247674 -28.667093651440879 2.875091551933451 198 157 137 255
-13.341811210544023 -28.078036865545357 3.252515866156045 193 150 131 255
-13.401496426736038 -27.461520287428215 3.531151033227957 186 143 124 255
-13.382578422144604 -26.726980114010630 3.414423882362826 178 137 117 255
-13.383315059541523 -26.022108590070530 3.396540559343464 170 128 106 255
-13.384055070470382 -25.317253628243833 3.378656911147743 161 120 98 255
-13.345498017343537 -24.550959429941443 3.163030075609470 154 116 93 255
-13.326595817681628 -23.814588555852140 3.046253424287443 146 109 86 255
-13.327347781475417 -23.108944430501396 3.028347308006573 140 104 80 255
-13.406701523772995 -22.529432433619945 3.406007685872908 135 99 74 255
-13.387811399090225 -21.793049561611284 3.289228078586120 130 97 66 255
-13.368926209662959 -21.056112720582519 3.172433458923251 125 92 61 255
-13.350046126627639 -20.318616263025788 3.055623647279504 121 88 55 255
-13.331171322183380 -19.580554420942860 2.938798460786927 118 85 54 255
-13.273006032516030 -18.776157693266811 2.624105557747612 114 80 50 255
-13.234495235579281 -18.003256712814149 2.408302450999770 110 79 50 255
-13.156696111073956 -17.162391052856904 1.994590178251144 107 76 47 255
-13.059257726516613 -16.285627261145848 1.481874079038278 103 72 44 255
-12.883240918037217 -15.270268962602913 0.573273031323367 97 66 38 255
-12.667942485645554 -14.181533175800197 -0.533374741107309 85 58 30 255
-12.295487674320462 -12.810796482427023 -2.431913490922511 70 46 18 255
-11.785530058219074 -11.186347090154925 -5.023533861664760 53 38 6 255
-18.731177700580645 -1.189482853785108 29.249617248118994 162 118 93 255
-19.792369031065192 -2.953893080659952 34.591299491598761 166 118 96 255
-20.401987583098375 -3.717078263035575 37.651451094886255 168 118 93 255
-20.520800867810415 -3.370061671947639 38.231119520759421 170 120 95 255
-20.816300339369519 -3.434043116593941 39.704047441254460 166 116 89 255
-20.876230228263537 -2.958431290543103 39.986171354823597 159 112 82 255
-20.818388368354874 -2.208717351909272 39.672782152572012 142 99 67 255
-20.662413136010827 -1.226127077072135 38.863017799195120 131 92 59 255
-20.643862522656981 -0.563808159108717 38.748025625576588 113 79 44 255
-10.462809986187615 -30.231694248986869 -14.905462324609175 202 192 155 255
-10.773724636295526 -29.907276642144083 -13.343269428447172 217 183 159 255
-11.123409532461750 -29.645999954979274 -11.583174757287622 216 179 160 255
-12.209826493153933 -30.439049977045030 -6.066622078343869 208 169 150 255
-13.179891868604500 -31.095821704257716 -1.142429623798137 217 179 160 255
-13.568313609490218 -30.938793870135996 0.816607672048292 217 180 161 255
-13.607759920243005 -30.283256800687610 0.996292326455659 209 172 153 255
-13.705368568086719 -29.714547166665199 1.472629898949151 202 166 145 255
-13.783591042643160 -29.119741638918583 1.850154452590345 199 161 140 255
-13.939359957701974 -28.643556612238854 2.623288632550782 193 154 134 255
-13.998197682605117 -28.024842603165254 2.902054848815737 190 149 129 255
-14.076423169539844 -27.437421856655220 3.279764403370677 184 143 123 255
-14.077108032742053 -26.732524981225637 3.261891823982467 177 136 116 255
-14.077796760205786 -26.027649365967505 3.244018929661081 168 130 107 255
-14.059104509878871 -25.292336390346875 3.127222724243097 160 122 99 255
-14.059801784058529 -24.587219063991014 3.109341874248742 156 118 95 255
-14.041118986764076 -23.851115255793275 2.992523708296517 150 114 90 255
-14.080593997802701 -23.208260665193237 3.172520907975638 143 107 83 255
-14.081304818254587 -22.503416272043808 3.154643942139501 138 103 78 255
-14.082020617920456 -21.798562346242676 3.136765642109424 134 100 72 255
-14.043974786548489 -21.029551362729720 2.920958126284404 129 96 65 255
-14.064084789854199 -20.356463162455100 3.002033626889386 124 91 60 255
-14.026051260577731 -19.586057279259578 2.786188337209239 120 87 56 255
-14.007407162298456 -18.847420510991768 2.669297982500211 114 80 52 255
-13.950005021607822 -18.041907685416774 2.354409263925390 109 78 49 255
-13.873228748325751 -17.201313915235005 1.940478983738956 108 77 48 255
-13.757697726534275 -16.291135397107425 1.328481515582837 103 72 44 255
-13.622795339881868 -15.343705829118576 0.617387318117892 102 71 43 255
-13.468522714305671 -14.358209299584061 -0.192824369250161 90 63 36 255
-13.197976908189318 -13.161341718344858 -1.597301446418157 77 51 24 255
-12.791783060615231 -11.713473201312894 -3.695199681207214 61 44 14 255
-12.114286331561374 -9.763671086962219 -7.179937020273769 50 37 3 255
-19.158344113676428 -1.393838690446842 28.136671308438707 167 128 96 255
-20.166514418795245 -3.052530580967797 33.282513930354071 166 119 95 255
-20.690470052421084 -3.626177770938170 35.947057112253560 166 119 95 255
-21.020746521929730 -3.766249001303606 37.619090154832719 166 116 93 255
-21.021793158843998 -3.149069447259578 37.603343378975126 164 117 91 255
-21.177780315954344 -2.894248010000524 38.381994956209553 160 113 83 255
-21.178850645620685 -2.278488467934565 38.366278673177618 151 106 77 255
-21.276759519070993 -1.891777073695408 38.847125924757876 133 92 62 255
-21.471499837407393 -1.738211569258411 39.824641294042266 118 83 51 255
-21.337058061263200 -0.800272247434961 39.113684442445731 105 74 40 255
-11.150019155223767 -30.157701805218736 -15.365640080662388 186 184 143 255
-11.475746299228327 -29.859384217334636 -13.703628675963671 213 183 159 255
-12.069180752653658 -29.951337839707136 -10.656795127515068 213 179 159 255
-13.446609714514260 -31.187006676371325 -3.554390250579502 214 177 158 255
-14.078255142824894 -31.379102863568590 -0.308601718240141 222 184 165 255
-14.327455412500370 -31.028548017894607 0.959244901034992 214 179 159 255
-14.347195902867227 -30.345517099727999 1.040151654975375 204 169 149 255
-14.424302744056220 -29.748767686279137 1.417872575248225 200 164 143 255
-14.444048429544814 -29.067716669471849 1.498827964516522 196 159 138 255
-14.540280120910175 -28.503659814555832 1.975585196487486 191 152 131 255
-14.579151989992155 -27.854213849994252 2.155549263006662 189 148 128 255
-14.656267432153484 -27.265162712368721 2.533461837374261 185 144 124 255
-14.656905397506350 -26.558643890074791 2.515558789195495 173 135 114 255
-14.714907046929746 -25.942692422040622 2.794578245438061 168 130 109 255
-14.658195115963899 -25.145664739405078 2.479751132628962 161 123 102 255
-14.697085731071667 -24.500636889409733 2.659822155597624 158 120 99 255
-14.716861521931257 -23.825702672193472 2.740924711476339 154 118 96 255
-14.755760884340212 -23.182568759652113 2.921041427687555 149 113 91 255
-14.737309399185712 -22.445919329998617 2.804158697072864 145 109 85 255
-14.795337032590801 -21.835918410173704 3.083322046111391 140 106 78 255
-14.796015254076188 -21.131312897678612 3.065458251951668 136 103 72 255
-14.815817357751413 -20.459024968017886 3.146621554891567 128 95 64 255
-14.740038233536296 -19.624209532840865 2.732617356375442 123 90 59 255
-14.702502177989217 -18.852960197847509 2.516641506560006 114 80 52 255
-14.626740279634959 -18.014299654954385 2.102536850400497 109 80 50 255
-14.608337473566522 -17.273688040631455 1.985543804627639 108 77 48 255
-14.570826183444382 -16.498799882473918 1.769471026086592 104 73 45 255
-14.475975350100718 -15.620907652832628 1.256157761086740 102 71 43 255
-14.362019300065967 -14.706029184305265 0.643695919796528 96 66 39 255
-14.076035182298725 -13.477384632983288 -0.860604824684970 85 58 31 255
-13.790067909298642 -12.240570782091552 -2.365114658897710 69 48 19 255
-13.293853738741269 -10.610194685723485 -4.959905118260565 58 42 11 255
-19.648093105669091 -1.734449117634028 27.320649293079953 166 127 96 255
-20.336856067162550 -2.673689322334056 30.879921637944079 169 121 93 255
-20.987396540942278 -3.543717944707097 34.241019175171090 167 119 93 255
-21.217675994300620 -3.452492560350137 35.417126448963245 167 118 92 255
-21.486162614380639 -3.457044129803805 36.792079786564699 166 116 91 255
-21.468134839627361 -2.792871264548495 36.676926071923020 158 112 83 255
-21.698431635274112 -2.717194119563430 37.853420436682825 154 108 77 255
-21.565829990873468 -1.781029647659665 37.142103709476999 144 101 71 255
-21.796144364217483 -1.712495643544273 38.318773798246809 119 82 50 255
-21.892768994105182 -1.326993741340871 38.799933760399114 104 72 41 255
-22.008503584391605 -0.990247571108412 39.380537156586826 97 70 38 255
-12.631376381571215 -30.458223515953762 -11.689398783777449 208 190 160 255
-13.442788818583956 -30.882609651473530 -7.453102537382676 211 179 157 255
-14.442749641248426 -31.605096367697115 -2.226574333076087 219 184 164 255
-14.726158238379021 -31.301599660115798 -0.760227480330002 218 184 163 255
-14.934140196198214 -30.894157437567287 0.310412719921942 206 171 149 255
-14.991275445671313 -30.266357701720565 0.589324747150954 199 162 143 255
-15.142690684758449 -29.783036247374767 1.363236532781855 196 160 140 255
-15.180974900055119 -29.131080292541611 1.543266672875745 194 158 136 255
-15.219262526233415 -28.480242231390207 1.723324168504462 190 154 132 255
-15.238698952104670 -27.801146286559913 1.804396692282012 188 151 129 255
-15.295848878089572 -27.181901513514006 2.083520576316232 182 145 124 255
-15.334148038228591 -26.534389487640098 2.263659157443442 173 137 115 255
-15.372451478161750 -25.887976616908915 2.443824431989640 166 130 108 255
-15.335343721461271 -25.120860104728777 2.227858338134354 161 125 103 255
-15.411364685839033 -24.536990554953576 2.606141772473222 156 121 99 255
-15.430829284049025 -23.862317641303846 2.687319304218931 153 118 96 255
-15.488005960143568 -23.250700775807317 2.966629083654652 152 117 95 255
-15.469775601792279 -22.514586068791218 2.849711188586355 150 117 91 255
-15.526963265370334 -21.905111093161352 3.129072402677025 145 114 86 255
-15.471041264708390 -21.104837525114448 2.813990041608463 138 107 79 255
-15.490536791898620 -20.432270749418151 2.895213725620295 132 101 73 255
-15.453483080997820 -19.662398667019943 2.679166472767463 128 97 69 255
-15.454141401398246 -18.957166507683354 2.661291298538970 120 89 61 255
-15.379401483904310 -18.119315457524110 2.246982342308797 113 84 54 255
-15.323522874713717 -17.312677419539895 1.931730431800133 109 80 50 255
-15.305356054121049 -16.571739181672811 1.814677299967400 107 78 48 255
-15.268347559505585 -15.796250265963792 1.598478893110155 104 75 45 255
-15.174797549522118 -14.916947810218559 1.084844226250084 99 70 40 255
-14.968158192654812 -13.827917637205218 -0.023714384977040 92 62 34 255
-14.686134539452958 -12.593823529572688 -1.529022727577001 80 56 26 255
-14.385279176821726 -11.316518974113535 -3.133696253603375 67 46 17 255
-13.952497300152103 -9.783370007212042 -5.432730774554557 57 38 8 255
-19.764757239391024 -1.210012598106829 24.516522327411934 163 130 95 255
-20.670060881935413 -2.656745961334778 29.269974572426349 174 123 99 255
-21.104393699283506 -3.029976486173254 31.539506293372824 170 118 91 255
-21.538722133511378 -3.415402752024463 33.809345594755428 170 119 92 255
-21.822351287010811 -3.456875892842433 35.284316959655825 169 116 90 255
-22.049474143136166 -3.371801480802972 36.461272760009621 163 112 85 255
-22.012900392324532 -2.662003255243732 36.246630337976711 153 106 77 255
-22.070522926439544 -2.177422186394878 36.529035955617672 145 100 69 255
-21.920976471306417 -1.192360050931782 35.717796282940753 130 87 58 255
-21.978634205780047 -0.707257678206318 36.000181056576821 114 80 50 255
-14.593807560939076 -31.514458454699081 -5.334610676945204 210 177 155 255
-15.207812409737350 -31.693396102658269 -2.085275216266211 221 184 165 255
-15.394229083942101 -31.251914940014331 -1.113168721558282 213 179 158 255
-15.580645802134526 -30.815883969219911 -0.140925211541969 200 165 145 255
-15.655522699870353 -30.215554781878382 0.237195894572153 192 157 138 255
-15.841941288902120 -29.788792288016793 1.209672015017816 192 155 136 255
-15.898233221930390 -29.165656828947206 1.488886686065939 192 156 134 255
-15.917349978459107 -28.485979310698951 1.570014858022944 191 155 133 255
-15.917882218023998 -27.777506680080904 1.552085929175462 187 151 129 255
-15.992775836501366 -27.187618735587662 1.930465866288841 183 147 125 255
-16.049084601216357 -26.570004634461327 2.209815651583313 175 139 117 255
-16.086809365205227 -25.923850830665572 2.390114643928939 168 133 111 255
-16.050185853114257 -25.157001841388904 2.174048829325272 161 126 104 255
-16.106510372152904 -24.542669703774706 2.453477664376123 156 121 99 255
-16.125664294717630 -23.867987784964328 2.534723262424791 154 119 97 255
-16.163412363277004 -23.225101420002517 2.715099279662525 152 117 95 255
-16.145404121239551 -22.488712025507567 2.598125652993645 150 117 91 255
-16.183165546902337 -21.847158449778931 2.778532242144536 144 114 86 255
-16.202346628359507 -21.174602812626276 2.859825327638930 138 108 80 255
-16.221535128532679 -20.502564990873225 2.941129800910517 134 104 76 255
-16.166384919559491 -19.700624368565713 2.625835872699781 131 101 73 255
-16.129830888081969 -18.929906658760160 2.409657520158476 123 93 65 255
-16.074700371563893 -18.124928741543016 2.094282901572058 117 88 58 255
-16.038166137872572 -17.351700648095161 1.878037082742196 114 85 55 255
-16.001642117489517 -16.577342745078582 1.661760613927640 113 84 54 255
-15.965128601693436 -15.801848579126357 1.445453268853612 110 81 51 255
-15.872870512089875 -14.922546995712054 0.931534634052923 105 76 46 255
-15.780625064212622 -14.040477559903366 0.417543632906018 98 69 39 255
-15.558300363658788 -12.912306309885352 -0.790969486380277 90 62 32 255
-15.410330050344633 -11.917698942693576 -1.602795606127586 78 52 25 255
-15.076534360737028 -10.565677140100604 -3.406943483735915 70 44 17 255
-14.519754322847632 -8.776996709597427 -6.402073941805213 53 37 4 255
-21.810902060093397 -3.884833896038870 31.917785906235878 170 123 96 255
-21.904833592462545 -3.474156525415722 32.398904920622670 168 117 92 255
-22.184499899840375 -3.508298211456150 33.874563075758260 166 115 89 255
-22.464170569691326 -3.550270980156242 35.350417155633494 161 110 83 255
-22.650989840389002 -3.376122615618442 36.329156249083439 152 104 79 255
-22.522117333539249 -2.440995266840886 35.617045857688083 142 95 68 255
-22.523262129065024 -1.819014191493565 35.601156788060791 137 92 61 255
-22.394439161882936 -0.877370204767615 34.888871670025480 124 86 55 255
-15.494356416344331 -31.792535616357640 -4.501394041064430 203 176 149 255
-15.971261890981204 -31.781737152232651 -1.943620428032773 217 179 160 255
-16.063344387330709 -31.202292883199320 -1.466337980015282 211 177 157 255
-16.155429541947754 -30.625601817025725 -0.988986897203915 201 166 146 255
-16.210868947922023 -29.995082741287945 -0.709770457518005 194 159 140 255
-16.467877836791224 -29.680367959711845 0.659679139195134 191 154 135 255
-16.596619107283765 -29.171452495701516 1.335513246994879 191 155 133 255
-16.578772974832681 -28.433572437601171 1.218466508165136 188 152 130 255
-16.597580106312037 -27.753921412879322 1.299663407966705 187 151 129 255
-16.671363081971123 -27.163748777136902 1.678280329016161 184 148 126 255
-16.745150789033659 -26.575757947122568 2.056951063468887 177 141 119 255
-16.782297399773483 -25.929592937159512 2.237376863694521 173 138 116 255
-16.819450008734982 -25.284521687419542 2.417828843959228 164 129 107 255
