ply
format ascii 1.0
element vertex 660
property float x
property float y
property float z
property uchar red
property uchar green
property uchar blue
property uchar alpha
end_header
22.179644364117507 -11.568630630298998 30.810256966907048 119 81 60 255
22.346837677153871 -10.717525407568317 30.814880826829000 121 80 60 255
22.414635825163941 -9.897858201683803 30.815361435387299 117 71 55 255
22.383071232353302 -9.110436032762834 30.811703558442215 79 33 17 255
21.656170499658288 -8.553976955110429 30.779000097773867 104 56 42 255
20.035513936075517 -8.300659587756186 30.708976652540599 137 90 75 255
18.117269601397652 -8.156619207749330 30.626564380268260 160 113 97 255
17.093156703129978 -7.718736511684540 30.581554179924193 176 127 112 255
15.771390809102286 -7.388500943494307 30.524149090721608 183 134 119 255
15.045590854846125 -6.859319034234403 30.491673285812894 182 137 118 255
13.426521444135062 -6.645407663015646 30.421936291165107 178 133 114 255
12.601869876996943 -6.161169649085693 30.385409595733570 171 124 106 255
11.777394533152687 -5.681283880247150 30.348927291605413 167 120 102 255
11.151569112528534 -5.134914941115525 30.320772290399798 160 116 97 255
10.625102490310496 -4.556123654038856 30.296798443930118 150 110 90 255
10.098746807019381 -3.980050649425422 30.272864347587770 141 105 83 255
10.167728772958526 -3.189339927521459 30.273796450106300 128 98 74 255
9.839917021365238 -2.544079006538198 30.258210494099409 113 89 63 255
10.107269667107118 -1.679851481128779 30.267474417392076 95 80 51 255
10.771247906866449 -0.665863420777384 30.293300632428295 66 59 28 255
-16.658145115027708 -1.895846686464466 29.131102281947253 193 179 140 255
-21.240435261596559 -3.089856571432335 28.939268340999238 197 175 142 255
-24.534602205373005 -3.774530388760269 28.801109251666695 202 169 142 255
-28.323052032246721 -4.683730178442744 28.642460369364965 203 162 142 255
-30.031926091296299 -4.739232858741971 28.570386566172008 207 163 143 255
-31.839410940246097 -4.845724991807089 28.494269082400010 206 160 144 255
-32.953740525098141 -4.666680779954959 28.447036374352514 206 159 143 255
-33.770965610877681 -4.366165978804858 28.412211704927401 204 157 141 255
-34.489073852641695 -4.027156580082504 28.381560012261261 202 158 141 255
-35.602769377380611 -3.863725262506534 28.334512531265176 203 158 139 255
-38.595775144484634 -4.527839585696498 28.209389052101145 204 157 139 255
-39.510967659464626 -4.294157308378132 28.170708011417815 201 158 139 255
-39.832556238357796 -3.802470927700753 28.156755900617291 199 156 137 255
-39.461844571768950 -3.003841886873545 28.171631372106418 197 154 135 255
-39.981144035397989 -2.601876568018938 28.149563301969099 201 158 139 255
-40.796946239641812 -2.336267841960137 28.115225574682537 201 158 139 255
-43.293174924891332 -2.837669746971955 28.011103580253277 202 159 142 255
-46.876191814318389 -3.849033981673344 27.861876089817073 204 160 144 255
-48.679367024328684 -4.062267736834343 27.786677618178231 204 158 143 255
-49.296241877764771 -3.736847055034090 27.760835664749404 191 142 127 255
-50.011805756027059 -3.460451419386075 27.730947916453182 199 149 132 255
-50.332003668601345 -3.002744914011913 27.717545945041508 208 156 138 255
-51.343696621609837 -2.871967380526073 27.675464666132644 206 157 135 255
-51.564914053184623 -2.372237621480011 27.666289173279271 198 151 130 255
-51.983636686674828 -1.967465720994909 27.648963796790984 143 103 82 255
-51.019619901033536 -0.902233219641062 27.689158901301518 141 119 89 255
27.244287335398781 -18.841537595620480 30.248060231257000 172 137 117 255
24.924456910307413 -18.712407402632223 30.154575376040626 159 119 102 255
25.887159116644909 -17.623277105304268 30.189759373336983 155 113 91 255
24.562423726581642 -17.212901138383231 30.135321129297427 152 111 89 255
23.536276083511666 -16.719622334880924 30.092607468990888 146 108 87 255
22.908041425148440 -16.110720861810748 30.065500876258149 143 105 84 255
22.677589598150178 -15.382948853955668 30.053986820473771 140 104 82 255
22.049580696063742 -14.779644269919672 30.026925457073144 134 99 77 255
21.521096628966404 -14.148580343514240 30.003779941855655 130 95 73 255
22.185279901418141 -13.143942295802262 30.027316815136786 125 91 66 255
22.749947088651879 -12.167239255609118 30.046962126143939 119 85 60 255
22.420267543344153 -11.474512075973053 30.031635742278876 117 79 58 255
21.991310109801304 -10.815658365236061 30.012447414980556 114 73 53 255
21.661779655389296 -10.126596080898381 29.997168010041804 112 68 51 255
21.630294418714300 -9.341081967825644 29.993558430221988 99 53 37 255
21.400183992156087 -8.621604544940496 29.982205250536410 71 23 9 255
20.077779463012746 -8.269073051572690 29.928202091574665 124 76 62 255
18.457781346485945 -8.024197179513280 29.862615715259359 142 95 80 255
17.334543771370988 -7.619044073460373 29.816473540804243 152 105 89 255
16.807175567651370 -7.015493743007752 29.793633830497328 172 122 107 255
15.287314356401282 -6.758038868519606 29.732082619659160 181 134 116 255
13.370782471176426 -6.647145719921298 29.655096758257667 184 135 118 255
11.752381398143200 -6.441925502669605 29.589796381993104 179 130 113 255
10.531241644492354 -6.104798733986399 29.540042407288691 172 124 107 255
9.608016070979772 -5.667935742883728 29.501951527279257 169 125 106 255
9.478639149827814 -4.950478905282566 29.494857445272753 163 122 102 255
9.448482200759429 -4.197627062693385 29.491660506508790 144 108 86 255
9.616697431975126 -3.372341152935505 29.496224656141997 138 109 85 255
8.991480324556562 -2.837941260535828 29.469891235363836 123 97 72 255
9.159700489705472 -2.012670666082869 29.474514815849673 109 90 62 255
9.526184357578416 -1.112251892121932 29.486891277844009 99 89 58 255
-17.544599440850305 -3.624811638813995 28.415378612764275 196 168 140 255
-21.235674145793240 -4.434079070548847 28.270525297024388 201 167 142 255
-24.826937333322206 -5.222721425906585 28.129630566641890 206 165 145 255
-26.734404626873072 -5.336895733811048 28.054274772591175 208 165 146 255
-28.245500510081598 -5.296919613365048 27.994386213994353 207 162 143 255
-30.152190415130804 -5.430384374661188 27.919176528768666 208 161 143 255
-32.256407564664187 -5.657278472392221 27.836348901928680 205 158 140 255
-33.370593165157203 -5.476476481182971 27.792054667155014 207 157 143 255
-33.791912633963165 -5.006361795934723 27.774734838245394 205 156 141 255
-33.817401751384494 -4.368559655788673 27.772841153882226 203 154 139 255
-34.436444656530654 -3.986882929280100 27.747933681094448 204 155 138 255
-35.846676275795801 -3.952147191394161 27.692342396244189 202 155 135 255
-37.850029796208958 -4.184344545569587 27.613768980904620 201 154 134 255
-38.765129704082682 -3.948536005579570 27.577521707905152 201 154 134 255
-38.888979429432453 -3.367153020577504 27.572056508544467 198 153 133 255
-39.309423873510127 -2.918345673470256 27.555122827833237 195 152 133 255
-39.828644786735737 -2.515883996453042 27.534405184289390 198 154 135 255
-40.743159238786234 -2.294376860882764 27.498391569899514 201 157 136 255
-42.744710365422662 -2.571171463010245 27.420226890164255 204 157 139 255
-46.623566621574554 -3.716346888345754 27.269235140796454 204 159 143 255
-48.129966628996868 -3.792556660425646 27.210414637166245 198 155 138 255
-48.252754352470390 -3.237130468392380 27.205365417546158 200 155 139 255
-48.474319687873134 -2.728015980660572 27.196535083365273 205 162 143 255
-49.189769879436341 -2.450929840659143 27.168586592920015 204 162 140 255
-50.102620671425854 -2.270439366919490 27.133031003184673 191 153 126 255
-50.521464744154628 -1.860775179520033 27.116708955057511 154 125 96 255
-49.853950282384886 -0.935606420406955 27.142615422746626 86 75 40 255
23.704839612835485 -19.855634857027113 29.317226994563011 165 126 104 255
23.275330411076595 -19.181161658098048 29.298987786532916 157 119 101 255
23.740833807371700 -18.243723667497235 29.313394247078772 157 113 91 255
23.709109217261130 -17.452392003195797 29.309673121408540 149 111 85 255
23.080905238938954 -16.841232478404677 29.284221355853653 145 107 86 255
23.049254887308109 -16.051726099018111 29.280523413718868 143 105 84 255
22.818824417130259 -15.323421626645811 29.269593626890007 141 105 83 255
21.694008378227522 -14.873696335305425 29.226105974367897 135 100 78 255
21.265029711255863 -14.212358733911699 29.207982493668428 131 96 74 255
21.631020640519296 -13.302366434987562 29.218814354172348 121 87 62 255
22.394325175801271 -12.263764090098604 29.244110641463308 116 82 57 255
22.362755400147535 -11.476149076261606 29.240486873494568 114 77 55 255
22.033207825708246 -10.785134210973908 29.226038654572388 112 73 52 255
21.803045843523194 -10.063371960188078 29.215224953864308 110 68 50 255
21.672236891469083 -9.310048253583659 29.208042960988877 103 60 43 255
21.541453558955084 -8.557333130341007 29.200880612094199 67 22 8 255
20.914275612670110 -7.971493470388594 29.175698443212397 70 27 15 255
19.592318876889010 -7.623624497967853 29.125301766469175 115 69 55 255
18.866221510819457 -7.080067834955855 29.096590278385424 132 84 70 255
17.842524513175078 -6.642536535631422 29.057102907343310 149 97 83 255
16.025121376550999 -6.485127171291836 28.988834706567879 171 122 105 255
13.215811707367266 -6.683522972171687 28.884610479331581 180 131 114 255
10.903206575233071 -6.722705430337868 28.798479859541537 182 131 114 255
9.682393377112987 -6.387755130621329 28.752024267601655 182 134 116 255
8.561040191339714 -6.023899348335647 28.709219796757640 177 133 114 255
8.530981195807726 -5.273483507068846 28.706038351660109 170 130 110 255
8.005045622950774 -4.702857867092050 28.684901703646617 152 115 94 255
8.272541218222159 -3.845156621810020 28.692565438356645 139 107 84 255
7.746740500855594 -3.277796981433113 28.671498027275977 129 100 76 255
8.014197733988453 -2.419033270584109 28.679214919734630 122 99 73 255
7.984194479105952 -1.669751932704116 28.676179764741875 118 103 74 255
8.648046075588525 -0.659342058163503 28.698311546681936 106 94 62 255
-19.943603951682235 -5.261354290739234 27.648427455156249 202 171 149 255
-22.148881439214506 -5.467131552017008 27.567279491361450 207 160 144 255
-24.452686269061417 -5.725003550989967 27.482630806705885 206 161 145 255
-26.854986204656598 -6.035776453506614 27.394484055331745 205 162 145 255
-27.772047099752314 -5.747241475516688 27.360088726869705 205 161 144 255
-27.996119771415181 -5.175906831262395 27.350788253914857 206 160 144 255
-29.803505816199390 -5.267230696766049 27.284312743472835 207 160 144 255
-31.214707649776216 -5.201697581923256 27.232210446029978 205 158 141 255
-32.823484022223795 -5.227425896686199 27.173024380299790 207 155 141 255
-33.145859971585395 -4.713564106698030 27.160364656593440 205 155 140 255
-33.468172170670442 -4.201218507681318 27.147752817109893 204 155 138 255
-33.889326549507132 -3.733088418064668 27.131617521616864 201 153 134 255
-34.804870639615899 -3.481882232946504 27.097676507901124 198 151 131 255
-36.610179075889533 -3.624636613082728 27.031659291129174 196 149 129 255
-37.624113694955412 -3.428864984351790 26.994273378652466 196 148 128 255
-38.044659076166937 -2.975643812272892 26.978363420781257 195 147 127 255
-38.465120217663099 -2.524444682304349 26.962506608621911 194 147 129 255
-39.182020020877530 -2.208248032358540 26.936000191251029 195 148 128 255
-40.195261389117007 -2.029484880510978 26.898850610405656 198 151 131 255
-42.196482155479885 -2.304681481407158 26.826098067181295 201 153 133 255
-45.284166566085702 -3.087102967405954 26.714194785204814 192 151 128 255
-46.592826011753061 -3.068726338782440 26.666555288369626 185 149 123 255
-45.727897321546294 -2.052176821236458 26.697407926127227 184 151 124 255
-45.653375127167379 -1.398197452537048 26.699788886160661 168 139 111 255
-45.973939248504308 -0.928384551119308 26.687967024179965 158 138 105 255
-47.084477568745683 -0.831976816638033 26.647695848944338 108 103 62 255
21.757773006964328 -20.406874502773334 28.459041820673317 169 128 108 255
22.024539860401603 -19.533145990529192 28.465445653824965 158 118 100 255
22.490078217905420 -18.598962037907413 28.478555270940898 155 109 88 255
21.961461793698959 -17.959585106086209 28.458131333497946 145 108 82 255
21.929929694564578 -17.172960481854190 28.454484352109521 144 106 85 255
21.600251893570942 -16.477280515972083 28.440794637381604 141 103 82 255
21.767506578602081 -15.630561827595088 28.443866028454945 138 102 80 255
21.139828375524075 -15.029433184887750 28.420160270113417 131 96 74 255
20.710986440685588 -14.369455456636217 28.403172867443981 125 90 68 255
21.275636406205308 -13.398103154426380 28.419659168317111 121 87 62 255
22.138148482777524 -12.328695784787143 28.446174916477474 116 82 57 255
22.106604029068933 -11.541634619520735 28.442596597427986 113 77 55 255
21.677833365915035 -10.883345847429865 28.425666070222650 109 71 50 255
21.447746988484425 -10.162408116035138 28.415440907165131 107 67 48 255
21.316993908220127 -9.409910346247287 28.408575533838292 100 59 41 255
21.484091825279904 -8.559071616237205 28.411743041758680 85 44 27 255
21.452621729015846 -7.773725217201886 28.408249902059438 40 4 0 255
21.024141495761796 -7.122534868215325 28.391433180847752 73 37 23 255
19.603324873726763 -6.811498484594850 28.341302023422433 107 66 51 255
18.182814774470444 -6.508075981851832 28.291224275060806 118 74 57 255
15.770400741818435 -6.555598357437376 28.207880720890063 153 108 89 255
13.358509248295150 -6.616124326206815 28.124615124251733 169 123 104 255
10.550342505440597 -6.829142617442457 28.028109203161712 179 131 113 255
9.032236070390923 -6.600448483287053 27.974961737555194 183 136 118 255
8.010345862602321 -6.202816260449040 27.938509472204753 181 137 118 255
7.583676516336823 -5.596508820665647 27.922062171469491 171 130 110 255
6.760471768246759 -5.136195166548475 27.892349136434465 164 127 106 255
6.532314637131378 -4.462878009048481 27.882624519323397 145 112 89 255
6.403337748571062 -3.754159386248475 27.876254663895516 135 104 80 255
6.571756002044083 -2.935698765546618 27.879880756405829 132 106 81 255
6.343681557862737 -2.264292023080714 27.870248915288656 130 109 82 255
6.710265103360882 -1.370145265304274 27.880569473609558 121 104 74 255
5.887668434607122 -0.924703010340039 27.851089649435270 89 82 47 255
-19.173685450936603 -5.621989454142351 27.000392940727853 204 174 152 255
-21.774870975275633 -5.978667823424914 26.911919456559879 207 166 151 255
-23.583541704567381 -6.029314272776162 26.850008012391644 206 160 146 255
-25.688773142243491 -6.210439570418274 26.778240599281737 205 159 143 255
-27.100743447605595 -6.119045700480754 26.729703166968505 205 159 143 255
-27.819679620616057 -5.749456354203986 26.704376773136055 204 158 142 255
-27.944759539879101 -5.137076673021099 26.698937130578322 205 158 142 255
-29.553919381617419 -5.145447985638370 26.643961687374134 205 158 142 255
-31.063804868070093 -5.120754777138103 26.592357825606609 204 155 140 255
-32.276611632773864 -4.978395342292842 26.550730004653921 205 153 139 255
-32.302268057239530 -4.336460362065552 26.548794613353312 201 151 134 255
-33.020203656665046 -3.991457563092311 26.523788510795743 196 148 130 255
-33.639103256651850 -3.607424061436163 26.502137327665871 192 144 124 255
-34.851126248875119 -3.484366153875868 26.460737287474640 188 142 119 255
-35.964027167471727 -3.324430321379097 26.422699116386415 186 139 117 255
-36.977838603945230 -3.126800190412851 26.388020858241081 186 140 117 255
-37.200693283230152 -2.584154642697357 26.379787495719796 185 138 118 255
-37.621171082045009 -2.130562853640797 26.365008581671376 183 136 116 255
-37.745101242095586 -1.546003911981771 26.360172744861590 180 133 111 255
-38.758306202439371 -1.363216580438092 26.325721288561869 184 139 115 255
-40.067696669487503 -1.320290822750962 26.281444889179298 191 147 124 255
-42.265908243123249 -1.690501761348358 26.207579737376793 168 134 107 255
-41.697864067018998 -0.800943509461632 26.226031888782138 134 115 81 255
20.638192251937141 -21.509971061820607 27.639397363773952 169 128 110 255
21.103886318208765 -20.582068331679352 27.651215953957923 169 126 108 255
21.072441451372526 -19.797566377762564 27.647608278991633 164 118 100 255
20.941605067992839 -19.042642375893408 27.640923382859143 158 110 90 255
20.612024293617594 -18.347845351516369 27.628084648359895 147 110 83 255
20.878760292508446 -17.474711676784466 27.633739641740434 144 106 85 255
20.549253724521520 -16.781741554825558 27.620922766399911 141 103 82 255
20.517875244114293 -15.998838376131516 27.617354093708645 137 101 79 255
19.989791153238173 -15.370138029940776 27.598413616848237 131 96 74 255
20.157138097229449 -14.526590969414329 27.601020482729066 126 91 69 255
20.721727494354582 -13.556604608777974 27.615928507830635 121 87 62 255
21.484810295679267 -12.520197907919481 27.636978845796182 116 82 57 255
20.956841035980005 -11.894282787024679 27.618095039482423 113 77 55 255
21.123999330705544 -11.045942093737366 27.620727842399166 110 72 51 255
21.191841395133622 -10.229040633833932 27.620301344789780 105 67 48 255
21.557464526557226 -9.313534323155523 27.629090966689841 98 58 39 255
21.327472640295696 -8.593834578753558 27.619488032583316 85 48 30 255
21.593750829888563 -7.709017034849211 27.625233715260340 52 23 7 255
22.256902949857704 -6.688550156046020 27.643246986873837 21 0 0 255
21.332340236299331 -6.205049248446741 27.612254801180811 43 23 6 255
19.614278840223164 -5.998966892211968 27.556808861193741 70 48 23 255
17.003776893337033 -6.111110935501713 27.473877061346400 107 73 50 255
14.790602678727737 -6.098927615409522 27.403264751782299 145 104 84 255
11.784470042174917 -6.377646316248132 27.308258059331283 167 122 103 255
10.068184589318037 -6.215741690508082 27.253086531536599 183 136 118 255
8.352269698236341 -6.063046447688990 27.197976947496915 183 139 120 255
7.429903201907962 -5.634094511952199 27.167369633161577 171 130 110 255
6.210324663948995 -5.317880992061390 27.127645760144588 163 126 104 255
5.486636272806550 -4.827050613591311 27.103238058039533 158 126 103 255
4.763101635011594 -4.340011647849849 27.078872300946269 145 115 91 255
4.337032661135936 -3.746472464495454 27.063700970226069 149 120 96 255
4.604704804472760 -2.895870540982102 27.069913208556308 131 109 82 255
4.674149341500879 -2.118251187969619 27.070051328367654 121 105 75 255
4.743574172197782 -1.340084754303788 27.070217465120532 109 96 64 255
4.416735951982162 -0.712733175422954 27.058227061683109 60 59 21 255
-20.113989589499454 -5.979264727364495 26.293902768890966 210 163 148 255
-22.417607453232762 -6.219191642773097 26.221624053672176 207 161 146 255
-23.829958585970331 -6.111472489968278 26.176770059166063 206 158 143 255
-25.242007062257926 -6.011255346780644 26.131977447703477 206 155 141 255
-26.257941902099418 -5.756369393171909 26.099393209096444 203 155 138 255
-26.581066919506270 -5.221134002265529 26.088114255381861 202 153 137 255
-27.101989774905718 -4.769607207263363 26.070808330601700 202 154 137 255
-28.612008925609274 -4.734219312915528 26.023208870150814 202 153 137 255
-29.923885502940323 -4.623605444416114 25.981740382499524 199 150 134 255
-31.334380835090428 -4.561816641561776 25.937300878104185 200 149 132 255
-31.360142963666988 -3.917220250008754 25.935366605619993 194 145 127 255
-32.275800879779780 -3.654415138825172 25.906196445920596 188 140 120 255
-32.894666582026474 -3.268255475184574 25.886172270048899 183 135 113 255
-33.809970921024899 -3.014144327911850 25.857112176188892 178 132 109 255
-34.725082540066239 -2.764777725632456 25.828108889176711 175 128 105 255
-35.244665765851749 -2.346091770796292 25.811273924055261 169 123 99 255
-35.665319927429465 -1.886189936397628 25.797517979383532 164 122 98 255
-36.184702344513738 -1.472366005863393 25.780786802998868 164 123 99 255
-36.308773079904682 -0.883792961441699 25.776211720633217 147 112 83 255
23.662702157621140 -20.623249942314288 26.940205806657367 169 130 109 255
21.742409621637876 -20.381238708579119 26.883157902945328 168 125 106 255
21.213956005241982 -19.740840051762788 26.865529080134966 161 117 98 255
20.188733221244718 -19.250600675034505 26.833863572897549 155 108 90 255
19.859291205390150 -18.557700877171996 26.821895278069629 149 107 85 255
19.728628389470771 -17.806507913160530 26.815557560428658 143 107 85 255
18.902584194060012 -17.267918784412487 26.789579774115161 140 104 82 255
18.275384085628275 -16.672652732214786 26.769241424641557 137 101 79 255
18.442896661213467 -15.834159192396768 26.771364134436002 132 97 75 255
19.206239004855320 -14.808130540726310 26.790312653852908 126 91 69 255
19.671510567107703 -13.871952160090203 26.800845609936935 120 84 62 255
20.136678148706665 -12.933158870427036 26.811377968468889 116 80 58 255
20.105346880147806 -12.151256829908178 26.807911233603598 112 76 54 255
20.669628634927221 -11.176404348805534 26.821249742363239 112 76 54 255
21.134527298948854 -10.230830155226059 26.831790471335857 105 69 47 255
21.202335802025004 -9.413477997533420 26.831148972834690 95 58 38 255
20.972419607353459 -8.694603351351816 26.822135453419868 85 50 31 255
21.238674850762152 -7.810614863006862 26.827113041328989 57 30 10 255
22.794651463884804 -6.489279700680370 26.868407441990509 28 11 0 255
23.854269545356658 -5.328325456592310 26.895724891752057 3 8 1 255
13.513883197572227 -5.751843734541808 26.595246844551987 138 103 79 255
10.607952079360530 -6.006796674958750 26.511272931406037 178 135 114 255
8.099204301477300 -6.135789733618651 26.438526088198511 181 137 118 255
5.987509952643279 -6.135578592968145 26.376993172799253 177 135 115 255
5.065672971014749 -5.715304579121664 26.348922184383184 174 139 117 255
3.549397543977761 -5.517237463040217 26.304206648502987 168 136 113 255
2.727114527919184 -5.071839399018529 26.279012483909057 179 149 125 255
2.301343916458052 -4.483722305276302 26.264979507654651 172 144 120 255
2.866396938278854 -3.527454374553500 26.278765550086419 132 110 83 255
3.431322318668265 -2.567946668370340 26.292567158872721 112 97 66 255
3.698964232856724 -1.717907433522001 26.298056709310121 106 93 59 255
3.768460865225109 -0.941919305016441 26.298019739824948 95 84 47 255
-16.374687554968432 -5.165970712788351 25.724848413425459 206 169 143 255
-20.163153297528680 -5.981399764572956 25.617194899472334 211 162 147 255
-22.070453359064913 -6.062418700760432 25.562245204278010 206 159 140 255
-23.482569197760881 -5.953641937449987 25.521201932372851 205 155 136 255
-24.696494658168859 -5.771826427007284 25.485751922982793 204 152 135 255
-24.821896853173001 -5.150481636364702 25.480780405639262 200 152 132 255
-25.738655947312509 -4.856093253605977 25.453728931644871 199 151 131 255
-26.754132456713251 -4.607572378345068 25.423966088666898 198 150 130 255
-28.857301120355430 -4.819233560032913 25.363864997350511 196 148 128 255
-29.773338098527717 -4.542701991146501 25.336983151221943 191 143 123 255
-30.689181519802958 -4.270941994659665 25.310154850692442 191 140 121 255
-30.616148608879854 -3.582332608026164 25.310985690319477 184 134 115 255
-31.235140981027484 -3.190101504209153 25.292536979347314 175 127 105 255
-32.051698534228905 -2.886408192212215 25.268620631481916 169 121 99 255
-32.769248972348578 -2.543951476602842 25.247516324191665 162 116 92 255
-33.091349631658233 -2.032185399995299 25.237494667412761 152 106 80 255
-33.314573197981787 -1.478398982835017 25.230277278625266 135 96 65 255
-33.834166197605470 -1.056910627139757 25.214838580768657 121 92 60 255
-34.254860899966189 -0.593930344701008 25.202206911854304 103 82 45 255
22.014690996357047 -21.083486835538153 26.104595560671790 173 134 113 255
20.691221173202337 -20.672231995327607 26.068027048752466 170 127 108 255
19.964243279755067 -20.092935485177463 26.046736297593359 162 117 98 255
19.038708422272464 -19.576472335557824 26.020388953265940 155 110 91 255
18.808794428035583 -18.856812369533316 26.011834581521978 149 106 87 255
18.777598468790586 -18.078320011828225 26.008364845041651 140 104 82 255
18.349110256911842 -17.421048100919350 25.994760013309737 138 102 80 255
18.218653343635822 -16.674388292594784 25.988775694234874 135 100 78 255
18.386130181040244 -15.835904769591608 25.990401867032791 132 97 75 255
19.149318381669843 -14.809890623026391 26.007224437596186 127 92 70 255
19.316652384298891 -13.967808083202769 26.008853614334825 121 85 63 255
19.483947385419981 -13.124732733505226 26.010489120138455 117 81 59 255
19.353425630216975 -12.376365069146260 26.004546597113492 113 77 55 255
20.413910607836499 -11.242563909676193 26.028945775516608 110 74 52 255
20.779498490211381 -10.329988414369154 26.035650350783818 104 68 46 255
21.045777079610048 -9.448038913061865 26.039835109747994 92 57 35 255
20.518267140056992 -8.828393422085711 26.023838428622369 82 51 31 255
21.181330811090334 -7.812497022743230 26.038140129013367 56 33 14 255
22.935384270171141 -6.424146369432421 26.080178106436744 30 16 0 255
27.466189988786084 -4.079969731419098 26.192759978130315 0 9 0 255
10.651834362995373 -5.973604417875265 25.753590658924679 151 112 91 255
6.855030115352861 -6.562679867929148 25.654986430833688 187 147 126 255
5.338529966246540 -6.351628631549602 25.614274504991521 182 146 124 255
4.119647731551140 -6.040844875979118 25.581152764676293 178 146 125 255
3.297372204450596 -5.591673683095834 25.558122244788937 171 139 116 255
1.781744118861070 -5.402271145623999 25.517569339697086 171 141 117 255
1.554282219359834 -4.743084831226710 25.509679927199169 168 142 117 255
1.723080836183158 -3.936860252680972 25.511849595809206 129 108 79 255
2.089924208108641 -3.054954904584605 25.519054541822953 114 97 65 255
2.951843966876936 -1.983033322760548 25.538804620884871 106 93 59 255
3.318464035889292 -1.095444455623607 25.546045362464309 92 82 45 255
-10.260591068503516 -3.439095454400089 25.195228621634580 191 181 142 255
-17.810146900858257 -5.716783511291524 25.002806865686232 208 166 143 255
-20.410230889425520 -6.062475385565648 24.935469621492487 206 156 139 255
-21.426620099886492 -5.786483806871004 24.908169131632725 204 153 135 255
-22.937467994907934 -5.715838171948292 24.868438632994835 200 147 127 255
-24.151219170007806 -5.532426248658282 24.836255319578679 198 144 125 255
-24.177750362474796 -4.868955814902392 24.834061895747311 192 141 120 255
-24.402086935923819 -4.287036328264250 24.826916282048590 193 142 121 255
-26.208649553308732 -4.363400164422416 24.779925814451193 192 143 122 255
-27.915942946397280 -4.408057899554365 24.735494507001643 187 138 118 255
-28.436427396388581 -3.962373355164388 24.721021743655708 185 137 116 255
-29.055664158668378 -3.561189316353207 24.704104708325413 182 131 112 255
-29.081680757516409 -2.910186828938564 24.702172615696249 172 124 103 255
-29.700725485451528 -2.513665293923481 24.685347774271076 163 116 93 255
-30.517296094947284 -2.205679380027618 24.663596482478908 152 106 82 255
-31.037246936985525 -1.772987842884476 24.649359551258375 141 98 71 255
-30.766648402759955 -0.996941470165382 24.655062885757712 123 86 57 255
20.895589193428009 -22.184919994570564 25.292440708375029 182 142 121 255
18.876766947125247 -21.973598095627167 25.243550374158254 181 137 118 255
18.448121437076509 -21.310384279574350 25.231029407518545 172 127 108 255
19.013045423399774 -20.357473407454776 25.241208917550264 163 118 99 255
18.783148320929456 -19.637169047256293 25.233238593757847 155 110 91 255
19.049929886686641 -18.769362916179034 25.236610001405477 149 108 88 255
18.720759293112621 -18.080091461553380 25.226389562824668 140 104 82 255
18.888180600842134 -17.241149962424046 25.227502850629040 139 103 81 255
18.658388587094521 -16.523424610888895 25.219567957423237 134 98 76 255
18.726492784938671 -15.714418993211055 25.218430933029499 131 96 74 255
18.596035803148425 -14.967147242079605 25.212779892735558 127 93 71 255
18.068560250615008 -14.345948211414125 25.198104197067639 122 87 65 255
18.235949513580351 -13.506127492015011 25.199257365803973 118 83 61 255
18.800257708821960 -12.537709438942642 25.209444940679631 114 79 57 255
19.364440199856006 -11.566131903051286 25.219630847816589 110 75 53 255
19.432407656374210 -10.753595907633951 25.218543067288255 104 69 47 255
19.599564537541369 -9.907884678029490 25.219720332528791 93 58 37 255
20.163466967838133 -8.929241772991773 25.229916859976907 79 49 29 255
21.223170471080607 -7.781172221383414 25.251370925417145 54 34 13 255
23.076036510445022 -6.359059429785574 25.290816403351659 29 18 2 255
28.696718677973422 -3.642690813612987 25.415693292456634 0 9 0 255
6.433957916846339 -7.451502166479898 24.898863842273197 172 130 110 255
4.422140887018600 -7.414517414346832 24.851013393794219 161 122 101 255
3.500728053047453 -6.995872312982385 24.827880823181502 162 127 105 255
3.173976155433934 -6.366407566679030 24.818230682058779 161 129 108 255
2.351959099733563 -5.919683365508675 24.797415274674403 165 133 110 255
1.332005883090517 -5.550272620058834 24.772165033344358 166 135 111 255
1.203674969502003 -4.855429806854673 24.767092853496287 150 122 98 255
1.273435926585421 -4.087072578292307 24.766520168658925 130 106 78 255
1.640247094007634 -3.206277051486737 24.772676460778520 119 101 71 255
1.907961177140692 -2.360887619347125 24.776618112279031 104 91 59 255
2.472617185502145 -1.400350865637833 24.787280398806470 102 91 56 255
2.443199786216098 -0.665216345083593 24.784568825244122 99 90 53 255
0.929082408789782 -0.505749046942526 24.748424542181862 67 72 29 255
-11.400275394736724 -3.869405251819259 24.466798727606097 194 181 146 255
-18.156630718035984 -5.836517696146927 24.312842769156799 208 164 142 255
-20.360419638841876 -6.025193124263311 24.261489074416239 203 153 136 255
-21.277693698223544 -5.709226230266452 24.239147011747445 200 148 130 255
-22.293688405836804 -5.438066369035070 24.214628348477149 197 142 122 255
-23.803989566927811 -5.373593375995597 24.179039069335534 191 137 116 255
-23.632773798619070 -4.627999588293662 24.181307730327276 186 134 113 255
-24.450430551486789 -4.289345900879582 24.161381699613251 187 135 114 255
-25.267914940677628 -3.954939535582795 24.141504331510703 182 131 110 255
-26.777256363590311 -3.914218144921207 24.106130253814772 181 130 109 255
-27.001217862933999 -3.340466550604845 24.099677409371697 177 129 107 255
-27.719335719778371 -2.977150892266948 24.082168766607463 170 122 102 255
-27.844330001395917 -2.364563375257035 24.078019353947070 156 110 90 255
-28.562212754856517 -2.006991378527744 24.060604214256802 144 99 78 255
-29.082331198339403 -1.567693097202834 24.047672684485498 126 88 62 255
-29.404750326305901 -1.045040717969115 24.039220748429276 105 76 46 255
18.851118700541406 -22.754429289954558 24.464665825383939 186 144 124 255
16.932261762107146 -22.519853346463080 24.423283102680781 181 136 117 255
16.801921626591593 -21.775001906638963 24.417915724042153 171 126 107 255
18.360184862392202 -20.534459664004814 24.446503766490764 162 117 98 255
18.428347713345431 -19.727379809860039 24.445120894701031 155 112 93 255
18.993025501761053 -18.771179231744881 24.453714197053809 149 108 88 255
18.564622398749179 -18.111919844382015 24.442364302419925 140 105 83 255
18.732018876499296 -17.273256679441928 24.442984394226158 135 100 78 255
18.403007119998108 -16.586356555056341 24.433651350199209 129 94 72 255
18.570380143961131 -15.747081395808905 24.434283419831544 128 96 73 255
18.241453110136661 -15.062266787986729 24.424975490358893 125 93 70 255
17.614871168713478 -14.473244478459108 24.409721065430276 122 87 65 255
17.683037531064940 -13.666146079365234 24.408396571125596 118 83 61 255
17.850406242958002 -12.826693549299705 24.409066263360099 115 80 58 255
18.216153718832629 -11.921903355196250 24.413711719083434 111 76 54 255
17.986629975467451 -11.209672541267764 24.406462127587140 106 71 49 255
18.451464664628134 -10.269627036972651 24.413104237007207 95 60 38 255
19.511254054365736 -9.129072158752010 24.431634206783770 79 47 27 255
21.661631775972353 -7.616892551995207 24.471931125091579 57 35 10 255
23.216608282980985 -6.294019907337386 24.500323122950416 31 18 0 255
29.133580599576305 -3.475796994138676 24.615704661025827 0 9 0 255
6.012951387636122 -8.338190112567816 24.144809296451136 199 157 136 255
3.803176570359710 -8.367138823463790 24.098442176789639 194 145 130 255
3.179147225881479 -7.841439552231421 24.083677449648885 187 143 126 255
3.050592229561744 -7.140610094031359 24.078795906180254 179 138 120 255
2.823003859211326 -6.476295454136476 24.071969599816448 166 129 110 255
2.991648317509885 -5.668203144139639 24.073041113437586 162 125 104 255
1.971820130017250 -5.296919760372873 24.050531619961223 162 127 105 255
1.447336090554131 -4.747248773954524 24.037895352749562 158 127 103 255
0.823947749045146 -4.237311768483437 24.023329670982200 149 122 95 255
1.190726736218664 -3.357625229600515 24.028438097635267 153 130 103 255
1.161449984546095 -2.626051204806586 24.025714505841528 134 116 88 255
1.429120812949407 -1.780952355128363 24.028903103568275 113 100 69 255
1.498785964615820 -1.010437027944292 24.028192661610660 101 91 57 255
0.677787366257348 -0.584767438370861 24.009872290949033 88 88 49 255
-18.404068965946806 -5.917082795212252 23.626440667473119 208 164 144 255
-20.706317168897982 -6.145767429429796 23.579122107630340 200 149 132 255
-21.326659445902635 -5.711449981102305 23.565110796120134 193 139 123 255
-21.946871901300113 -5.280321697197920 23.551141517158747 187 131 112 255
-22.863609142996808 -4.973180722972799 23.531355297351197 184 128 108 255
-23.384656070652170 -4.508686892153904 23.519426646562280 182 125 106 255
-24.202184951909118 -4.169249673244963 23.501685591683032 180 126 106 255
-24.129869717303137 -3.464358930221664 23.501547351373191 170 119 98 255
-25.243676220526766 -3.255025218026148 23.478045119238693 166 117 95 255
-25.764261021905753 -2.801840166401519 23.466289957365035 161 114 91 255
-26.778839014705568 -2.560707173146000 23.444838341342614 154 106 84 255
-26.903919128978174 -1.945454207973398 23.440965299184580 141 95 74 255
-27.424172782666716 -1.500353356464814 23.429345038182365 128 87 65 255
-27.549169486330840 -0.887049170596327 23.425553762657543 99 69 43 255
17.105458398075086 -23.238810806555250 23.652887225597343 187 143 123 255
16.279794599849140 -22.693619862508143 23.635742011563469 181 136 117 255
16.447500448691301 -21.863617255037497 23.635882994637079 172 127 108 255
17.608250773687303 -20.740684614678344 23.653276060810629 158 115 96 255
18.470853337999813 -19.699770726645042 23.665473099167496 152 111 91 255
17.943252613999277 -19.070415212870898 23.653532230122423 143 105 84 255
17.912143903480228 -18.293833479369653 23.650217837426766 138 103 81 255
17.086919959357033 -17.759577490838723 23.633144246419381 134 99 77 255
17.055907019669064 -16.985363669848567 23.629852543133001 127 94 71 255
17.322628528750386 -16.118793212885109 23.631723853561208 126 94 71 255
17.291592012795832 -15.343962615656693 23.628445056864578 124 92 69 255
16.665229817277748 -14.757377797239542 23.614878819453420 122 88 65 255
16.237423492144899 -14.110867098126448 23.604766191288082 117 83 61 255
16.801708260498401 -13.147612407245290 23.611811830473631 114 80 58 255
17.167488914429953 -12.245537978440808 23.615429925435258 111 77 55 255
17.235651918268672 -11.438701096420345 23.613916452131132 106 73 50 255
17.799635168904501 -10.467853335457789 23.620966089016889 96 63 41 255
19.355060161440520 -9.164042619455287 23.645109663427345 81 48 28 255
21.306726729757941 -7.718662414256244 23.676065223597117 56 33 9 255
23.456234822807119 -6.195509203363997 23.710406242684247 27 15 0 255
7.871124206429783 -8.426966202258924 23.431982581220545 194 157 125 255
3.976962347545737 -9.037591228757563 23.362633130685062 193 144 125 255
2.758543983470645 -8.720548896424248 23.339303478721817 192 143 129 255
2.332863600980716 -8.126746006176674 23.329615676893386 192 145 130 255
1.808223678776983 -7.570811786788013 23.318258220916690 188 145 128 255
1.580807982661099 -6.909755773028252 23.312024833098000 188 145 128 255
1.848573299624377 -6.068707105101538 23.314299708612978 186 143 124 255
1.522178507271406 -5.444987633491166 23.306418575855353 179 140 119 255
0.898834290963293 -4.933174590006146 23.293483825072059 170 133 111 255
0.077632370518700 -4.498663385695679 23.277198633158402 156 124 99 255
0.543395468227800 -3.583596431966512 23.282955341148320 147 117 93 255
0.019321590946731 -3.041507656735703 23.271813853591279 141 117 91 255
-0.207755879544663 -2.388595834322317 23.265779857168997 122 105 77 255
-0.434788717305537 -1.736750014808678 23.259776933111276 106 95 63 255
-0.167073663968324 -0.894077267752280 23.262248164348780 88 83 49 255
-18.651428978920222 -5.997669398364337 22.941101820733024 208 163 144 255
-20.755404535249284 -6.147989100152827 22.903415907268514 196 145 129 255
-21.474512402201498 -5.753423593173267 22.889371367675125 187 131 114 255
-21.699089348023591 -5.162603120198426 22.883784263870584 179 122 103 255
-22.022488172464165 -4.613074284520522 22.876549564315006 168 113 93 255
-22.444676667356163 -4.105641381142718 22.867670554708397 164 107 87 255
-23.064466154851260 -3.681915685716788 22.855470117638369 162 107 86 255
-23.387628383995178 -3.138127017983578 22.848351329131155 155 105 84 255
-24.007192318884847 -2.719921319250645 22.836235318526597 150 103 83 255
-24.527816421394448 -2.263255088669524 22.825841422575312 145 99 78 255
-25.542335338294691 -2.018636023136651 22.807105510337763 134 89 66 255
-25.766323182709158 -1.442063715103401 22.801831235285423 116 75 52 255
-26.484163038451044 -1.078607765200672 22.788219133117977 94 62 39 255
18.240778532008619 -22.900092745125647 22.892544091974763 188 145 125 255
16.521354393731087 -22.609540473530387 22.864507474767706 184 139 120 255
16.887590832145918 -21.720880444832417 22.867061907047646 173 130 111 255
16.955879664203110 -20.917755933323932 22.865249838950994 165 123 104 255
16.726318375005121 -20.202599469731368 22.859082223062423 152 114 93 255
15.901203733008913 -19.667051689530879 22.844216043572473 147 111 89 255
15.771059463650033 -18.925890061539505 22.839524758337561 140 106 84 255
15.938677134901923 -18.094541915650652 22.839189005753138 133 99 76 255
16.403959245716237 -17.170571665245305 22.843199283144465 124 92 69 255
16.670690406931783 -16.305632590932589 22.844312220244767 122 90 67 255
16.738935527008266 -15.501343960556937 22.842535318755505 119 87 64 255
15.815144004356682 -15.010189699558794 22.826319779645225 120 88 65 255
15.387507131471807 -14.365847594859005 22.817351132250206 116 84 61 255
15.455862504532547 -13.564261327964473 22.815613249934707 113 81 58 255
16.416725669348523 -12.472700881057548 22.826854859677962 110 78 55 255
16.584107272276697 -11.635328732542305 22.826565456859125 106 74 51 255
17.247188828917729 -10.633409625042972 22.833479044684434 98 65 44 255
18.108396958627964 -9.561826038121140 22.843266270733903 87 53 34 255
20.357181349022824 -8.019968116709862 22.873162766427523 58 35 13 255
23.001933792282841 -6.331681535207210 22.908766759420505 26 15 0 255
7.221944366979983 -8.636609470335742 22.670016938355971 161 119 89 255
3.922988415512464 -9.039631650881901 22.619881284325313 171 123 103 255
3.001962081053705 -8.617183689690080 22.604136451489897 181 132 118 255
2.477292075535161 -8.057996031731236 22.594142537049276 191 141 128 255
1.457587988877322 -7.679929687159287 22.577042869751882 192 144 129 255
0.834175126393973 -7.163495059745387 22.565689011041666 196 149 133 255
0.408909012751053 -6.577885019448161 22.557218909165393 199 151 133 255
0.478714378779557 -5.812012373346960 22.555899446776774 204 159 140 255
-0.342371535217353 -5.376431443026135 22.541792504236593 197 155 135 255
-1.262257627505562 -4.982203259645900 22.526302766964402 180 143 120 255
-1.786090844835940 -4.443645866497661 22.516539397489186 160 127 103 255
-1.419234073744747 -3.569680567341393 22.519591899924848 134 107 83 255
-1.547174968032721 -2.882734117977549 22.515566144851437 118 97 70 255
-1.971888190260358 -2.310635219874882 22.507313856719026 109 94 63 255
-1.308383013947889 -1.318533988117068 22.514686102849055 94 83 51 255
-15.212329261111023 -5.316044111622929 22.311503527036940 213 186 164 255
-19.492042281800508 -6.313395876429496 22.248339738126177 207 160 143 255
-21.002247980937398 -6.229147810099391 22.224862572642177 199 147 130 255
-21.622326410581536 -5.795419116658067 22.214155142144115 188 131 114 255
-21.945706472295001 -5.244892854558728 22.207723011745198 175 116 98 255
-22.170176328864670 -4.655666013827499 22.202737002773450 155 97 78 255
-22.592272425959749 -4.148530870860753 22.194964974301797 133 76 56 255
-22.717811005717209 -3.521071969903872 22.191458738203707 127 72 51 255
-22.942141562416793 -2.935157237666999 22.186577851926341 129 81 59 255
-23.166429655014383 -2.350244792101037 22.181733039041585 132 87 66 255
-23.785841283390056 -1.932793190585045 22.171297960829072 120 79 57 255
-24.207563159047112 -1.434720245168464 22.163718549424946 110 73 50 255
-24.036580803148667 -0.685773305758303 22.164611335578055 93 65 42 255
17.389596161405166 -23.129104249806332 22.101916510587216 190 150 127 255
15.968469816117363 -22.754746095909482 22.082113527465065 185 143 121 255
15.540448135620977 -22.098837747518786 22.074174418087466 177 135 113 255
14.616173838993745 -21.591180929028724 22.060338323974023 169 127 105 255
14.585421047439468 -20.823317440992511 22.057152914014878 157 119 96 255
13.264459999484416 -20.442125925559324 22.038637168378848 146 110 86 255
14.821638363837963 -19.197896910276967 22.054331938177715 138 108 82 255
14.096288499991488 -18.641476604439944 22.042917263217618 128 98 72 255
15.355388027033030 -17.478008697045681 22.055049936034699 121 91 65 255
15.522968323107193 -16.646598878035419 22.054234307390146 116 86 58 255
15.789702759743818 -15.783117310972600 22.054596215138179 113 83 55 255
15.064554646747808 -15.231682606959268 22.043230781258146 115 83 58 255
14.438733674753166 -14.652493723292224 22.033061930028030 115 83 58 255
14.705491763470661 -13.789554123768099 22.033452830630971 115 80 58 255
15.567087531352684 -12.732070430187022 22.040865628010373 111 76 54 255
16.131075888318094 -11.767120035044982 22.044764509190465 106 71 51 255
16.298426000366192 -10.929839042694468 22.043992614820286 100 64 45 255
16.564854061271262 -10.058574298343075 22.044395597380134 90 53 38 255
18.416924904093833 -8.653789921238840 22.063450419934135 67 42 21 255
22.349597970449622 -6.534931774785193 22.106927468339006 24 16 2 255
8.256891855025515 -8.258121557385593 21.930990388491281 137 98 62 255
4.562305044343987 -8.797638814510009 21.885205851225574 164 108 87 255
3.740415152680896 -8.338175287389788 21.873095503706470 165 114 96 255
2.918700906652191 -7.883066495582582 21.861020250000383 170 121 105 255
1.404097458041917 -7.682049937368703 21.840889675747945 178 130 113 255
0.087817446140320 -7.417262000209703 21.823119185564110 187 140 124 255
-0.634253516419449 -6.942210093368189 21.812318410081300 189 141 123 255
-0.465379425452511 -6.142571327188151 21.811928219501443 207 158 141 255
-0.989308740808383 -5.599164394797441 21.803493036202969 201 154 136 255
-1.908949112087726 -5.206570921023925 21.790486850666383 199 156 134 255
-3.323115597428682 -5.005320291984575 21.771772098048114 189 150 129 255
-3.747641524553103 -4.435960554871983 21.764597341225372 182 147 125 255
-3.875310972727391 -3.755244624364323 21.760898559147776 154 126 101 255
-4.002957465634609 -3.075056672184431 21.757226835625890 129 106 79 255
-4.328383718332645 -2.472142957132434 21.751290752919722 100 81 55 255
-16.646842505331733 -5.863127888061967 21.604498692580062 217 186 165 255
-19.837996342299789 -6.433207821687560 21.565612378135825 213 166 148 255
-21.249013046478893 -6.310328430729882 21.547374266161711 202 150 133 255
-22.165490665099924 -5.996337952750991 21.534896380818239 189 132 115 255
-22.488754740131299 -5.447187661536830 21.529306480277938 175 116 100 255
-22.713128351323263 -4.859338510636448 21.524890503790793 157 100 81 255
-22.838644054829956 -4.231975008003587 21.521646499488430 137 80 60 255
-22.865334410894633 -3.564281423619178 21.519572589283989 108 57 35 255
-23.188405383595523 -3.019741747919255 21.514117896911955 77 29 7 255
-23.116282129236509 -2.311364997488099 21.513245647829613 71 29 8 255
-23.241724940278829 -1.685595016870138 21.510132912126760 67 29 10 255
-23.070864408683320 -0.934619804942784 21.510459518347226 54 26 6 255
16.935854165689022 -23.244627972742876 21.319236030308883 195 154 132 255
16.011405243528429 -22.728079415964942 21.307856800117857 189 148 126 255
15.087156172799041 -22.216517719883925 21.296500024185338 181 139 117 255
13.567612509567368 -21.885103836165669 21.279705769853468 171 129 107 255
13.239257255533801 -21.208342210562094 21.273856235153456 158 120 97 255
13.010199038011137 -20.503577458363026 21.268925593021887 147 111 87 255
13.773354466536546 -19.499947947894711 21.273072204495012 134 104 78 255
13.345872275053352 -18.855404964137634 21.266338694242755 124 94 68 255
13.910430415797578 -17.907666709712743 21.268666154794698 117 87 59 255
13.978942635968565 -17.110865601521397 21.266469981051717 111 81 53 255
14.543304002839193 -16.158188101723439 21.268791269314157 110 80 52 255
14.413402658619702 -15.421859013348993 21.264798583897495 111 79 54 255
14.481830506054223 -14.622907586524406 21.262617496471744 110 78 53 255
15.145085860964969 -13.632121466592878 21.265838766922609 107 75 52 255
15.709063918682716 -12.669805727148756 21.268157179507202 108 73 51 255
15.876439487502523 -11.834079868683929 21.266885722173136 103 68 48 255
15.746450639528973 -11.095474467811769 21.262933913948984 98 63 43 255
15.814682447521818 -10.291529574377506 21.260786359418599 86 54 38 255
17.468284607687622 -8.955157613971181 21.272950561957074 70 42 23 255
5.696454335985152 -8.381363944721983 21.151133191986585 128 94 63 255
4.775585243959654 -7.953810250936627 21.140337533615380 154 101 82 255
4.052914025109658 -7.460338186709507 21.131349239744033 147 98 80 255
2.538480466454246 -7.256090470926324 21.115317802671012 156 107 88 255
0.925394681784553 -7.095913109693939 21.098452277429168 164 114 99 255
-0.093535595721335 -6.727096277543083 21.086933521725431 145 92 76 255
0.174195048660124 -5.889374947897949 21.086914705700625 175 124 107 255
-0.844439363075423 -5.527876699724942 21.075464204824197 179 134 115 255
-2.159662528159856 -5.282861617438073 21.061416295542127 196 150 130 255
-3.771377460695362 -5.156753036242733 21.044780093283755 201 154 136 255
-4.294691843981752 -4.626058188427535 21.037851618564382 194 151 132 255
-5.213509438089886 -4.249396804250523 21.027449424481709 185 149 126 255
-5.934346690981897 -3.801371149520548 21.018839908630699 158 126 103 255
-6.753913252097561 -3.395481811326334 21.009393443216716 138 108 84 255
-10.045075680672085 -3.960006874469897 20.978139119114164 101 73 52 255
-16.499044690877810 -5.787581771605076 20.919034304324295 212 174 153 255
-20.381530978603081 -6.631410602495862 20.882747734202972 212 167 148 255
-21.298022857220559 -6.312623059848420 20.872693883916739 206 154 135 255
-22.115492583986907 -5.958927530123702 20.863553005417529 191 134 116 255
-22.339888586341772 -5.369538541161731 20.859670361376931 176 119 100 255
-23.058271647675468 -4.982496747603548 20.851475959180505 163 106 87 255
-23.381322902624532 -4.437039705827303 20.846793232678447 141 89 67 255
-23.704309831364469 -3.893138252379288 20.842144786732788 123 74 51 255
-23.533364328646940 -3.145416628987448 20.841861964203446 98 52 29 255
-23.263699930237522 -2.355194575418452 20.842471881393575 83 45 22 255
-23.191605432984346 -1.646497813775355 20.841379268822433 55 25 2 255
-23.020792441796885 -0.895287675313739 20.841180946526642 38 16 0 255
17.077839254453067 -23.189909408875891 20.542525727036722 198 157 135 255
