ply
format ascii 1.0
element vertex 657
property float x
property float y
property float z
property uchar red
property uchar green
property uchar blue
property uchar alpha
end_header
-3.035497385513310 -11.748133585650677 -20.694402586234133 113 99 65 255
-2.682907415990286 -10.733329244186763 -19.876419655543543 110 95 63 255
-2.097910039247196 -9.488476524583533 -18.507419224821575 101 87 58 255
-1.319209335918998 -8.046503732867620 -16.679305849859048 95 84 54 255
-0.695388771797099 -6.745924153176858 -15.218684404424010 86 81 51 255
11.298158084811902 -26.521620839215629 12.043975482761738 204 172 149 255
10.835823445152641 -26.074832078097202 10.931668329455789 197 164 147 255
10.645896545733038 -25.440027049619886 10.462462951523406 192 155 137 255
7.653508641494611 -26.829315181961377 3.379654747649425 195 158 139 255
5.711827810905987 -27.495061315457647 -1.222597434110071 196 155 137 255
5.054542868395203 -27.243679393653693 -2.793478875034197 189 146 127 255
4.864333236232312 -26.654974420739549 -3.262092238044687 160 117 98 255
4.284811780735964 -26.360608837002673 -4.649091803410272 112 71 51 255
3.432722393049872 -26.280410397712458 -6.678857401322148 202 163 142 255
1.840839361577949 -26.776381814857871 -10.453340602445252 200 164 142 255
1.845124351621763 -26.066033418279545 -10.462430945328379 205 169 146 255
1.187497047606925 -25.869754233862665 -12.032602790777162 206 170 146 255
0.179374309669782 -25.957274531389842 -14.429080065595002 205 169 147 255
-0.945653105339389 -26.151230961233423 -17.100840360310883 201 165 143 255
-1.447725612589068 -25.864197410662356 -18.303309244658891 206 170 148 255
-1.833016169002619 -25.490301283126854 -19.230242550945832 201 164 145 255
-1.789958277400331 -24.774431337108595 -19.147182008401842 195 157 138 255
-1.980574051832107 -24.249203428244016 -19.614972695286241 183 145 127 255
-1.937525922667788 -23.533978341489373 -19.531901282172470 175 138 120 255
-2.283966600356877 -23.142203250190320 -20.366842926469531 175 138 119 255
-2.318836183332380 -22.494014485852247 -20.467341514172574 172 137 118 255
-2.626377362701675 -22.076941608099986 -21.210388605512350 170 135 116 255
-2.622318578173321 -21.398588801369456 -21.219054697492879 171 136 116 255
-2.929906326850698 -20.988054572051823 -21.962014936157800 168 136 113 255
-3.003782387371601 -20.379401012466417 -22.154216474602180 165 133 110 255
-3.077669123556205 -19.771846634453937 -22.346402143243580 163 131 108 255
-2.878845625354842 -18.925405133451008 -21.896135083079230 159 129 103 255
-2.835857584476670 -18.214487685107287 -21.812993339704065 154 128 103 255
-2.792870982165311 -17.503036244902702 -21.729856352259191 151 126 100 255
-2.866780841382905 -16.896323149828760 -21.922023208062342 147 122 97 255
-2.823802343272462 -16.184597957801060 -21.838885374250424 145 120 92 255
-2.858762022409081 -15.543587484695465 -21.939271237332463 141 116 89 255
-2.776820823301932 -14.795396027680681 -21.764379915373439 138 114 86 255
-2.655907228095529 -14.009933184772962 -21.497747565660376 125 110 79 255
-2.340124846720599 -13.040618068798125 -20.772387795707203 121 105 72 255
-1.985348114573327 -12.030242604125974 -19.955335083605803 115 101 68 255
-1.747476934553589 -11.125915663971739 -19.413568919000483 107 95 61 255
-1.275726444835016 -9.994800676432362 -18.321408558618401 105 93 61 255
-0.414151196823283 -8.481949847906037 -16.311974051610008 97 85 57 255
2.673574349591860 -4.088319003068293 -9.083051484124155 30 23 1 255
5.328658494895578 -0.766988474618955 -2.854826943444806 16 18 0 255
12.053078906378460 -26.501666314946050 11.816680903979233 203 171 149 255
12.175226489959954 -25.641625939608787 12.082009278522690 197 164 147 255
10.613064384606105 -25.975497020844415 8.402130228824632 190 153 135 255
7.758102333174918 -27.257443110728275 1.694940243094777 194 157 138 255
6.469840033300088 -27.445319098526411 -1.342077549777315 195 155 137 255
5.808270271950718 -27.193354047360387 -2.911054468093795 185 142 123 255
5.577587150698889 -26.632978233129819 -3.470829969605973 132 89 70 255
4.759209162650137 -26.513215691892796 -5.406532061158799 182 141 121 255
3.509783171082830 -26.728532163337476 -8.351094075034666 204 165 145 255
2.652066929132445 -26.664303995586849 -10.378189480831082 200 162 141 255
2.146925582549017 -26.342384142029374 -11.579642715077284 203 165 143 255
1.485001496298594 -26.148493839256517 -13.147874664337678 206 168 145 255
0.823020491644726 -25.963860055107503 -14.715987675819804 206 168 147 255
0.239358307955627 -25.726933391968558 -16.100560504245522 203 165 144 255
-0.540302073824122 -25.653384435467785 -17.943564143451226 207 169 148 255
-0.849735815203829 -25.214950974904099 -18.685983324916037 203 165 146 255
-0.963234281039078 -24.622984882561497 -18.969844131998258 194 156 137 255
-1.155133782917446 -24.096397155103503 -19.437076204352479 182 145 126 255
-1.268660338542418 -23.508315416253069 -19.720885226282263 176 139 120 255
-1.578187116273554 -23.083858529939050 -20.463121658542065 174 137 118 255
-1.652547847982277 -22.467792110657356 -20.655182028447598 173 138 118 255
-1.962122514539445 -22.050432102284276 -21.397325377408634 172 137 117 255
-1.997309829823948 -21.405014076490104 -21.497654296675165 172 137 117 255
-2.032503769528546 -20.760165021051279 -21.597974511526843 169 137 114 255
-2.028498938429507 -20.082139472728528 -21.606613240225755 165 133 110 255
-1.985290670967316 -19.370123403413487 -21.523580790737611 162 130 107 255
-1.981291688931890 -18.691863766597635 -21.532219277641019 157 127 101 255
-1.977296601446596 -18.013614821403436 -21.540855920066264 149 124 99 255
-2.012517389948854 -17.370191745983490 -21.641149751092655 146 122 96 255
-2.047745475909821 -16.727308995570567 -21.741434867158063 142 119 91 255
-1.965335861837289 -15.978882440250828 -21.566754767560326 139 118 89 255
-1.765274415845113 -15.122478735101936 -21.117140348146279 134 113 84 255
-1.722074432329521 -14.406959141512559 -21.034139617091427 130 111 79 255
-1.521996776346114 -13.546203244464067 -20.584576414817178 120 104 71 255
-1.125801290432861 -12.500528773865568 -19.676853464878832 116 100 67 255
-0.651133283692715 -11.376008562826868 -18.585927243227246 108 95 61 255
-0.294106009162448 -10.355910071474113 -17.769976226803550 98 87 56 255
0.376753022266357 -9.032922946865554 -16.221059831799806 96 87 57 255
6.155772195204847 -1.354996098197589 -2.779682648655239 24 19 0 255
12.059607432291713 -26.999666823513806 9.847914084727876 204 172 150 255
11.196973359488723 -26.832688426722157 7.821972779924721 198 165 148 255
9.742980187642644 -27.094689522836376 4.421621020288086 189 152 134 255
8.170605646229177 -27.461011598806124 0.746623255565822 193 156 137 255
7.150015866729589 -27.452325825366074 -1.645267904501537 198 157 139 255
6.799549593956939 -26.971447494316635 -2.479315320380834 193 150 131 255
6.370202153731157 -26.553289907406693 -3.496546793483759 197 154 135 255
5.112847903500821 -26.753304494588903 -6.437728601390575 204 161 142 255
4.013105281767082 -26.853023598008434 -9.012220937972131 204 163 143 255
3.386436031896579 -26.611683670231542 -10.487157235955209 204 163 143 255
2.917441895671075 -26.259231782307779 -11.595541695501595 203 162 140 255
2.408974286976800 -25.943570402829224 -12.795448634852477 206 165 143 255
2.176509200573747 -25.421507941332180 -13.354042382275594 207 166 146 255
1.628529530879675 -25.148914447865380 -14.645391147838268 206 165 145 255
0.883311957386127 -25.039146450186891 -16.394623574152519 207 166 146 255
0.492990709567280 -24.657914228017816 -17.319388060936461 204 163 145 255
0.142076945617760 -24.250560656490990 -18.152492807856390 194 156 137 255
-0.129981623314109 -23.784422025834772 -18.802362137603865 185 148 129 255
-0.402064798272662 -23.322113129867347 -19.452181787519038 178 141 122 255
-0.634726460478035 -22.831240317043012 -20.010372640709818 176 139 120 255
-0.827961942806951 -22.310989513847403 -20.476945006298052 175 140 120 255
-1.021215937624603 -21.793475583294679 -20.943481455009191 175 140 120 255
-1.214488523823064 -21.278693991036278 -21.409981997499614 171 136 116 255
-1.210517231486776 -20.599297415569197 -21.418619630369164 166 134 111 255
-1.127640755040929 -19.852449148365992 -21.244131732086515 165 133 110 255
-1.163128042511048 -19.206566528657419 -21.344331602531383 162 130 107 255
-1.040792720974039 -18.424127425504423 -21.078302577029319 156 126 100 255
-1.194662881231167 -17.881914550943819 -21.453154364696786 149 124 98 255
-1.151247095663862 -17.167778341107976 -21.370235867945070 145 121 93 255
-1.147293578504289 -16.488190765025351 -21.378867506166841 138 118 88 255
-0.985489560802350 -15.667170627007607 -21.021331969066352 132 113 82 255
-0.626351256774825 -14.665848330129208 -20.206132389499970 123 107 74 255
-0.385588471165818 -13.767344868049804 -19.665596606733601 117 102 69 255
0.131466685318316 -12.612418062696605 -18.484382463322504 111 97 66 255
0.609088718037171 -11.486886336035738 -17.394783538812050 103 90 57 255
1.126215452597677 -10.318140736236529 -16.213740982523120 97 87 56 255
1.682851410870171 -9.105365349801303 -14.941265057413034 94 86 57 255
2.279001102925207 -7.847743936771025 -13.577366024477953 59 53 26 255
7.221794936380064 -1.718421698720761 -2.156364401674153 31 23 1 255
7.344468902446906 -0.867360788253094 -1.891179958475050 23 19 0 255
12.295172399125903 -27.334113238440310 8.432339825833679 204 172 151 255
11.466647679897989 -27.142797675896233 6.500438503163338 198 165 147 255
9.924028274969444 -27.463267491195268 2.921204614933600 188 152 134 255
8.024257260638237 -28.057525211696856 -1.481468192113113 194 157 138 255
7.036775481174075 -28.026112566341467 -3.778856633482008 202 162 144 255
7.239401815099470 -27.150129963874221 -3.330583681179888 209 166 147 255
6.648552783188578 -26.849071106887337 -4.712600419289600 205 163 144 255
5.700570800041191 -26.818532484504118 -6.918097423087545 207 164 145 255
4.831867420622885 -26.742219471787536 -8.940416284062792 206 165 145 255
4.002772811322757 -26.648192585917599 -10.871080171455020 204 163 143 255
3.610099389920208 -26.236066531453432 -11.795108184680771 202 161 139 255
3.177710743289012 -25.859648228162314 -12.810561834518666 203 162 140 255
3.221492960410188 -25.123281674441913 -12.728031407161922 204 163 143 255
2.868421864432321 -24.694117610055457 -13.560394742101778 204 163 143 255
2.039076288032149 -24.642325981427732 -15.490519840975651 206 165 145 255
1.646237863052519 -24.257559733734851 -16.414197746813642 202 161 143 255
1.213676088136822 -23.909829010920390 -17.429284246326574 196 158 137 255
0.860461438181261 -23.504398450154966 -18.261343690210452 186 150 128 255
0.665989852578633 -22.975410573358914 -18.727453240482390 180 144 122 255
0.431805694219975 -22.481555382952209 -19.284995422460241 178 142 120 255
0.237297072264454 -21.958325096507821 -19.751030264940766 177 142 120 255
-0.155719330983402 -21.602463496139336 -20.674336664050259 176 141 120 255
-0.350271476591658 -21.086052103548070 -21.140283179200736 170 135 115 255
-0.306634913987196 -20.371572947650492 -21.057466583771571 164 132 109 255
-0.104186990390701 -19.521636363870968 -20.608850825706753 162 130 107 255
0.018865553876040 -18.737033489292187 -20.343163449329523 158 126 103 255
-0.056604051972101 -18.122204454914225 -20.534716913033321 151 121 95 255
-0.171789873725857 -17.543010745210154 -20.817696303700245 146 122 94 255
-0.088443298112168 -16.791367280851034 -20.643466469914301 139 116 88 255
0.153748462309323 -15.898306946074698 -20.103512789173891 130 111 81 255
0.356243972168670 -15.037359551957408 -19.655029539599184 123 107 74 255
0.757319761439646 -13.995583525542884 -18.749443103665044 115 102 68 255
1.237853694115842 -12.876608663265458 -17.661076196674401 108 98 63 255
1.877288237230061 -11.606482675567563 -16.207108543667005 101 93 62 255
2.477050881396849 -10.364130197226402 -14.844666039987402 91 85 53 255
3.513773693945879 -8.709912294166614 -12.476775713279210 74 67 38 255
5.106671351093169 -6.523997631509687 -8.829319865072961 28 22 0 255
8.451723698725402 -1.937207364535595 -1.169611294333919 28 20 0 255
8.416224446804620 -1.234388816083509 -1.270381310528023 30 22 3 255
8.221808423287754 -0.684254829817448 -1.736729367953217 29 27 6 255
13.283138371754021 -27.150777203732787 8.756452240206698 204 172 151 255
12.010262796047726 -27.260258472525948 5.821275658372116 199 167 148 255
9.659522126886756 -28.137560756976100 0.418099198788411 184 152 131 255
8.226729488703285 -28.401425036756820 -2.882192270478782 193 159 140 255
7.352708945238291 -28.288190641971909 -4.902513619550945 203 164 145 255
7.316978747649912 -27.586274699349389 -5.003171543903221 206 170 148 255
6.882010242486871 -27.173734937381624 -6.017840043508443 207 171 149 255
6.287306740778618 -26.883810080009496 -7.398025702215165 203 165 144 255
5.492923069895610 -26.749151881111160 -9.235082521478830 206 165 145 255
4.858188647888312 -26.506649175281979 -10.706434658571908 208 167 147 255
4.303262773422617 -26.212964339870581 -11.994899590766778 204 162 143 255
3.947948223649277 -25.775798908852948 -12.826343539919151 204 160 141 255
3.912066346388045 -25.099614337228545 -12.926673756862726 202 160 138 255
3.436903101084980 -24.762450808496808 -14.032153148606909 204 162 140 255
2.841893920641922 -24.524938466501283 -15.411672758541158 207 165 143 255
2.406586393428327 -24.170371538806052 -16.425604142071279 200 159 137 255
2.091060127626633 -23.727080281625689 -17.165356028910992 196 160 138 255
1.735567175081485 -23.320007805992006 -17.996416271237337 188 151 130 255
1.699580850674010 -22.660932181304673 -18.096526990920296 181 146 124 255
1.583702741464890 -22.067211858135437 -18.379344548178210 178 143 121 255
1.467813706427293 -21.475154039020225 -18.662140430310700 177 142 120 255
0.992394036963503 -21.181067535255423 -19.767070092296194 174 140 118 255
0.756624613318962 -20.694330395784263 -20.323833526870601 169 135 114 255
0.640684012567846 -20.110471062434996 -20.606523551831600 162 131 108 255
0.924244825274755 -19.190924608312329 -19.975788397204809 157 125 102 255
0.968108521228316 -18.471639351706244 -19.893121648462397 151 122 97 255
0.972018985075579 -17.786103287622410 -19.901794215434450 144 117 90 255
0.856059807913596 -17.204205941085917 -20.184456127180567 139 116 87 255
1.299493012741806 -16.136561444633529 -19.188522643177123 130 109 79 255
1.742957883198997 -15.062982882873285 -18.192663256111530 121 103 71 255
2.146493859352219 -14.018816887451308 -17.288197868411430 112 98 65 255
2.390210214764807 -13.111732333903802 -16.749065688922940 102 94 59 255
2.953651030907253 -11.914263867559839 -15.479469042744000 93 89 55 255
3.676992707523283 -10.564575505147459 -13.844728421660506 91 91 58 255
4.520286923784255 -9.095854442804495 -11.936191011495822 54 54 23 255
6.802496077805188 -6.294536836189593 -6.740894019045356 29 27 4 255
7.885786867654801 -4.571540393233363 -4.284967666555701 22 18 0 255
8.889215118529506 -2.908407085726068 -2.011816703194313 24 19 0 255
8.973344192597381 -2.094467570801527 -1.838565409484772 29 19 2 255
8.977527997607339 -1.354949312197817 -1.847905472835322 28 19 2 255
8.821805751781014 -0.767565457703867 -2.222388061041130 34 31 12 255
15.599984353613422 -26.068318877740381 12.092283830737500 204 172 151 255
12.993705472286450 -27.075046858290108 6.147385858798287 199 167 148 255
11.431549350866845 -27.394500043953144 2.576852277320683 186 154 133 255
7.981387892046257 -29.053988092715286 -5.284568109608642 190 156 137 255
7.664168296113246 -28.550282961435883 -6.024175646843076 207 168 150 255
7.387094399540302 -28.022401965416165 -6.672432918782420 210 174 152 255
6.868964210690066 -27.671628680230214 -7.868386622629259 210 174 152 255
6.310619629598690 -27.357116054217187 -9.155537817447509 207 169 148 255
5.752231461983612 -27.050258604190930 -10.442592204178396 206 166 146 255
5.314330534933674 -26.662006861521689 -11.455707771601652 208 167 147 255
4.956752099899177 -26.219877084849685 -12.286192528749467 205 162 143 255
4.639325290353327 -25.752466298560563 -13.025340833065570 205 160 141 255
4.442417733480227 -25.197976519020159 -13.490622049036944 201 159 137 255
4.004395573954667 -24.830829868326546 -14.503470244286689 199 157 135 255
3.566338836231580 -24.469691134694315 -15.516242297552395 203 162 139 255
3.128247495944080 -24.114555758676261 -16.528938244054586 201 161 136 255
2.971435039029743 -23.544417312504436 -16.902760445934831 193 157 135 255
2.573474276274027 -23.167543852303950 -17.824074745089376 187 151 129 255
2.617579544570674 -22.442893815099794 -17.741569927620361 184 148 126 255
2.340148954299664 -21.976802672548502 -18.389043623915825 178 143 121 255
2.344052059899596 -21.285974546419453 -18.397766399705091 174 139 117 255
1.905805990124776 -20.957317225525188 -19.410125731903889 172 138 115 255
1.909689882902796 -20.269531166400739 -19.418809193814070 164 134 110 255
1.873374187332388 -19.615235997053347 -19.518724742573198 157 127 103 255
2.038053337292340 -18.792853561565522 -19.162484872823342 148 121 94 255
2.041937880879075 -18.104334898936429 -19.171176029694749 141 115 88 255
1.965415285373325 -17.484372615940131 -19.362311894895839 135 109 82 255
2.049702816291017 -16.727341315310852 -19.188556050226737 128 106 75 255
2.696877936711303 -15.481902073358569 -17.737790066602173 121 103 70 255
3.705967225660231 -13.912116135148054 -15.466219607848501 110 95 62 255
4.272832368283431 -12.717678440681723 -14.198119088153447 102 91 57 255
4.518054617482179 -11.800629333620648 -13.659759038766509 96 92 60 255
4.924141489783167 -10.736772514480720 -12.756630011139038 72 75 42 255
9.726002938015725 -3.506638704166193 -1.940882343345351 15 12 0 255
9.730156755997456 -2.766696267744152 -1.950213324148052 19 14 0 255
9.492982126737644 -2.251747457470287 -2.506635387527069 26 16 1 255
9.497123090086589 -1.513311384771313 -2.515945411422535 33 25 7 255
9.541486247653921 -0.736761231643101 -2.434080156377632 39 35 16 255
14.986667880469554 -26.975138561270853 8.761603424843457 203 170 150 255
13.980640944778386 -26.889937186063847 6.471939801848833 198 166 147 255
10.392105225607466 -27.854682458935798 -1.663289160205437 188 154 135 255
8.213661504012393 -28.642420925390411 -6.596721365655497 208 170 151 255
7.571006404097588 -28.372715994405965 -8.064816959467493 211 175 153 255
6.685774737713245 -28.284966869448084 -10.079882158108433 212 176 154 255
6.447241147778442 -27.742981116640991 -10.635971595351890 208 170 149 255
6.127840313507761 -27.263145058567488 -11.374365355368525 207 166 146 255
6.172247266374384 -26.520606979612836 -11.292175849556287 209 168 148 255
5.691101336903202 -26.166949742715587 -12.395154529758486 206 162 143 255
5.290776343028853 -25.759415608443121 -13.315724622770233 204 159 140 255
4.930850970549727 -25.326869016880536 -14.145066119274020 200 158 136 255
4.773057169118417 -24.745458888961224 -14.518564710384425 198 156 134 255
4.574817339168590 -24.197306054098902 -14.983187872342114 199 158 135 255
4.255257196955881 -23.745814551826001 -15.721224111054198 198 158 133 255
4.016545072233853 -23.235564410582612 -16.276913179456102 191 153 134 255
3.737376332173270 -22.760448556568477 -16.923703126769141 184 146 127 255
3.579504023861844 -22.192836932649755 -17.297027246587390 180 143 124 255
3.340737191080137 -21.692189733596464 -17.852594861230358 176 140 120 255
3.263721226049611 -21.064230304051890 -18.043591585360303 170 135 115 255
3.105810714456581 -20.503226411180890 -18.416831884302439 161 129 108 255
3.028778282547336 -19.878039624504865 -18.607793242057255 155 126 102 255
2.992186028542349 -19.220504468775673 -18.707618233473312 148 119 95 255
2.996038455974329 -18.529806883768970 -18.716317094600214 142 115 88 255
3.161689863817898 -17.703139846127826 -18.360554019497897 134 109 82 255
3.408255418333255 -16.805795954089689 -17.822593721667289 126 102 74 255
3.776197068684951 -15.801614440666000 -17.011348075470266 117 100 67 255
4.750981660808435 -14.270478337464994 -14.833585838312530 109 94 61 255
5.928117351529536 -12.551010139008497 -12.200477502318051 99 86 54 255
11.212285438355025 -3.519913698233012 -0.413540360841836 10 12 0 255
10.568968019503174 -3.366069079578196 -1.880169596416948 13 10 0 255
10.411217198279587 -2.773989684701576 -2.253795190223968 21 14 0 255
10.132045052362542 -2.296531514688013 -2.900607293982659 29 16 1 255
10.176618673040792 -1.520591830341786 -2.818829705078457 41 29 13 255
10.221194351946920 -0.744045938340420 -2.737059161096596 34 29 10 255
16.064692677947477 -26.737604467645539 9.264002402422619 200 168 147 255
16.760230470723869 -25.494300236879027 10.802720993497104 196 163 144 255
10.424960130040148 -28.310915647587009 -3.425228213419985 191 157 138 255
9.453008390565813 -28.253073537597771 -5.620314103049907 209 170 152 255
8.033628690211728 -28.522857535171894 -8.817032126179299 210 174 152 255
7.305538619959023 -28.320936581978245 -10.465338541482822 211 175 153 255
6.984112002258513 -27.837476243958861 -11.202865724148722 206 168 147 255
6.662661329988268 -27.358428539297904 -11.940337581202044 209 168 148 255
6.707258945360365 -26.616702843365303 -11.858224872442293 207 166 146 255
6.467125951678966 -26.084144803162232 -12.413505913633429 205 162 143 255
6.186297184925721 -25.585123760613797 -13.059797348192092 204 159 140 255
5.946126522093863 -25.059472855449968 -13.614991780425981 200 158 136 255
5.665257118864332 -24.567890907395494 -14.261189906241384 195 153 131 255
5.506413092976942 -23.987077840391066 -14.634214212601449 195 154 131 255
5.184822417112471 -23.533674779494874 -15.371364444703715 195 155 131 255
5.066633319225758 -22.926819548657221 -15.653284392564075 192 151 133 255
4.948435084632166 -22.321640383155597 -15.935183325920718 183 145 126 255
4.586099153752045 -21.910770041428833 -16.763230965218014 173 136 117 255
4.386494576785566 -21.375301589257745 -17.227117437666323 168 133 113 255
4.146183864902170 -20.875221525654339 -17.781990970637850 162 127 107 255
4.068625344848854 -20.246756188987661 -17.972750906256863 156 125 102 255
4.113142827554839 -19.519848569515759 -17.890452696003109 147 120 93 255
4.239054174498477 -18.725521136167984 -17.626138227915732 140 113 86 255
4.527762350476110 -17.794700152270138 -16.997812018742081 129 103 76 255
4.938586702845072 -16.758138402894787 -16.096519344841766 125 102 71 255
5.552940604151402 -15.544873588690550 -14.740288451987169 114 93 62 255
6.045234541097173 -14.427130455648793 -13.657152375833846 103 87 57 255
6.781781824177258 -13.094093189529531 -12.028131266155583 93 81 49 255
8.535993804245336 -10.874492560606228 -8.124457428074493 53 45 12 255
14.092731268680083 -2.305706219082936 4.202588733459521 13 21 0 255
12.020535555541230 -3.417223217808981 -0.446460704633779 10 12 0 255
11.251063643059013 -3.373414831808873 -2.184212476359420 12 7 0 255
10.929415023589328 -2.930255477991437 -2.921233335577739 20 12 0 255
10.770613952975836 -2.341351098004125 -3.294358576834867 43 30 14 255
10.896836240744435 -1.490139724343322 -3.030757698609705 52 40 24 255
11.023067493020733 -0.637242532773527 -2.767177856686175 33 28 9 255
17.515396645661909 -26.255014161712921 10.583207632430657 197 164 145 255
16.619572601241060 -26.079839968457520 8.571981470661257 193 160 142 255
16.787429863013188 -25.194347349963152 8.926166470436300 191 159 138 255
11.309059765365518 -28.178026220147203 -3.273284103610251 193 160 141 255
9.594590607886431 -28.628574035140602 -7.103064403418614 210 171 152 255
9.107529444720342 -28.244139360136671 -8.203716818217885 210 174 152 255
8.374917957637138 -28.039466503917865 -9.850035142926998 210 174 152 255
8.174222034850402 -27.465881700883216 -10.313820292378267 208 170 149 255
7.973511452080658 -26.895088937915574 -10.777570685014240 209 168 148 255
7.690939065487996 -26.386431713706571 -11.423182112168462 207 166 146 255
7.408346189883105 -25.881639444987570 -12.068745339095670 209 164 145 255
7.207585883209958 -25.320280601463253 -12.532378208592064 206 161 142 255
7.047738988932124 -24.731214673079336 -12.905038794870165 200 158 136 255
6.765092117377364 -24.236642827697281 -13.550474644343836 194 152 130 255
6.482424845717347 -23.745919584257805 -14.195862498523866 192 150 127 255
6.363466757751965 -23.133865733178197 -14.477492131833600 189 149 124 255
6.203566203155418 -22.555056053639603 -14.850025128195199 186 144 123 255
5.961783475246108 -22.042129707485273 -15.404372196341910 178 138 116 255
5.556236198812130 -21.660908679221237 -16.322347938124835 168 130 108 255
5.600980728826670 -20.929026889865554 -16.240201234956118 159 124 101 255
5.563849035711499 -20.261935876949408 -16.339882299528171 151 116 93 255
5.690479539785400 -19.463772204547865 -16.075927247506513 143 114 89 255
5.653348538318710 -18.796756354404138 -16.175607860746879 136 110 83 255
5.943768096816001 -17.862689597244838 -15.548077490165696 127 101 74 255
6.438936680940415 -16.756259389237371 -14.466108750212271 114 91 60 255
7.384558827127421 -15.269460581445728 -12.384389957312095 104 83 52 255
8.125506321101795 -13.941578476669449 -10.757278606764430 97 77 45 255
8.211306982605166 -13.156505477295994 -10.584480833610201 78 63 32 255
9.075192318327481 -11.709129093593148 -8.684908377315111 60 49 17 255
9.980092946024669 -10.215351867226644 -6.694598008778456 50 44 12 255
11.622238581276932 -8.073558628657011 -3.068653760185157 33 31 2 255
14.669418262095675 -2.422545973140885 3.618168147737691 12 22 0 255
12.502583833825341 -3.608114922855208 -1.206925203981513 11 12 0 255
11.441602136257444 -3.824324260929842 -3.578534215064366 18 12 0 255
11.322733513945622 -3.198231490077504 -3.860345635716016 43 31 13 255
11.367721802110381 -2.423705967925443 -3.778738635573347 63 47 32 255
11.658520062310231 -1.421963167901623 -3.152061147748242 58 45 29 255
11.826432541689073 -0.530494027124846 -2.797961174859978 29 24 5 255
17.122893103890803 -26.998318970985594 7.809386692826450 194 162 137 255
16.756581890094537 -26.472769336972618 6.981952339835090 194 163 143 255
14.949563110204295 -26.924476283949431 2.974459925198914 197 160 143 255
11.701684872152825 -28.381821624501896 -4.212735959624155 197 161 142 255
10.799995931089484 -28.267747762652718 -6.220729644105745 209 171 152 255
9.857076810119054 -28.194257559655227 -8.319424228748659 208 173 151 255
9.325772509453529 -27.844691968451485 -9.509491955488983 208 172 150 255
9.000278650829642 -27.356592685937926 -10.245252618361405 208 170 149 255
8.798274954724263 -26.784704381139761 -10.708437540523875 207 169 148 255
8.472739722324107 -26.304617169807798 -11.444098774558000 207 166 146 255
8.188355598872178 -25.798994255218020 -12.088871756801922 208 165 146 255
8.109828391217562 -25.146177195660442 -12.279445931406997 205 160 141 255
7.866588621559231 -24.616440976987704 -12.833313273120893 198 156 134 255
7.499797207601873 -24.182270871027683 -13.659609906460560 193 151 129 255
7.132980256869715 -23.753029392594499 -14.485845337922427 188 147 124 255
7.013224702436318 -23.140966025980276 -14.767119511381537 183 143 118 255
6.728730683974320 -22.656826942771943 -15.411626348230158 180 138 116 255
6.485401090990507 -22.144692647945334 -15.965275730050109 173 132 110 255
6.159683824392204 -21.700051241171892 -16.700497534211479 161 124 100 255
6.575309141308281 -20.677105055548310 -15.801207784714677 154 120 95 255
6.949775861703529 -19.681446308109230 -14.992785242951669 143 110 84 255
7.324269539087339 -18.680970338327640 -14.184423410250218 134 105 78 255
7.534025047162515 -17.808393644351909 -13.739294625105771 121 96 68 255
7.867374265560827 -16.832800047498111 -13.021830612666719 114 90 61 255
8.489107107315931 -15.616877715844666 -11.668916533137377 102 81 50 255
8.987297617838337 -14.494851916319448 -10.588452772824013 88 69 37 255
9.279538595124251 -13.537664819590546 -9.961968183557190 76 59 26 255
9.407006875337061 -12.714829171057744 -9.698636032036262 69 54 23 255
9.864085183255625 -11.611990203888780 -8.709142041424400 65 53 21 255
10.609607002724189 -10.257736522567114 -7.084336736885660 54 46 15 255
11.973226267793436 -8.363689296080338 -4.098162510814603 34 31 3 255
15.891613923248215 -4.244113513945948 4.515075373229166 19 24 0 255
17.997223247021068 -1.651896290054466 9.134260933301078 17 27 3 255
17.259680281017879 -1.526339893810089 7.490941013137871 19 27 6 255
15.038572058124203 -2.721504097847756 2.580649133088997 15 20 0 255
12.982149035689147 -3.799023973517123 -1.966282430936616 11 10 0 255
12.038296660621924 -3.905638454371712 -4.062740508692201 29 21 2 255
11.918641244654410 -3.280075622743098 -4.344195775499941 60 45 29 255
11.922622666266548 -2.543587963965905 -4.353414972987480 71 55 40 255
12.421198379798028 -1.353837285189243 -3.273807487697354 59 48 31 255
16.886616933412057 -26.865687526378593 5.395032612399433 194 161 142 255
11.970459667867686 -27.935371311522417 -5.432022241374057 206 168 149 255
11.063191112964191 -27.829985835685832 -7.437440397909540 208 173 151 255
10.238694337126233 -27.678873606989569 -9.261237386898216 207 171 149 255
9.911162798855571 -27.189129640284364 -9.996106159634053 206 170 148 255
9.625028885679654 -26.674401070213221 -10.640191021291173 205 169 147 255
9.504560952135506 -26.044869124773172 -10.921324139265039 202 164 143 255
9.011280223055365 -25.686485623037427 -12.018940204530054 205 163 143 255
8.766511121039429 -25.153414291708614 -12.572159392332708 201 158 139 255
8.356023184397074 -24.745573204332771 -13.488201368421585 195 152 133 255
8.194069832953488 -24.158715041621846 -13.859900460966713 190 147 128 255
7.949249007386840 -23.636122191212408 -14.412990676162707 186 143 124 255
7.787271825395280 -23.054257242303464 -14.784628674757158 181 138 119 255
7.583852911680651 -22.506170931190766 -15.246942033433385 175 137 114 255
7.297555272205173 -22.024496896877309 -15.890619797684195 164 127 102 255
7.218409765034167 -21.386164057141400 -16.080771899780814 156 122 95 255
7.470744792039937 -20.490016118559254 -15.545371873699310 146 114 87 255
7.971720650527502 -19.394847667745239 -14.465878519564171 136 107 77 255
8.306978285394905 -18.424873320659941 -13.749208591424178 126 97 67 255
8.559380445608184 -17.516972222179618 -13.213957292277343 112 85 55 255
8.770359975524840 -16.639311743682143 -12.769425630250083 103 79 48 255
9.230012183022694 -15.556677567594278 -11.780875010827060 91 71 39 255
9.275255392588974 -14.807997889730871 -11.699120432182752 83 67 34 255
9.569177187253317 -13.853255812155354 -11.073360534112680 82 67 36 255
9.821673828665993 -12.929274960224717 -10.538313886260681 79 66 34 255
10.405777868541207 -11.723693860331863 -9.278012082077225 70 57 24 255
11.280073918724540 -10.265098389875007 -7.383194712960915 57 46 15 255
12.734752115350560 -8.300467276393860 -4.219345448126234 38 33 5 255
14.728420166368494 -5.854069153808823 0.122742186908113 24 24 2 255
17.302588661371516 -2.879500380848043 5.733585244172986 19 24 2 255
17.348139095224752 -2.076307852736974 5.814651855804328 21 26 4 255
14.989179477631623 -3.384614322784216 0.638483979393811 17 18 0 255
13.376313031737297 -4.063319655252897 -2.905808904686722 18 12 0 255
12.799837952714384 -3.839166188500414 -4.183963183937976 44 32 13 255
12.762324600471942 -3.138603867969422 -4.283812394514626 72 56 37 255
12.890662934939627 -2.288550961343702 -4.021143261369360 71 55 40 255
13.267799165510453 -1.210233639973538 -3.214746411426091 52 42 25 255
19.171904552986035 -26.605607470660786 8.534259182695081 186 158 131 255
18.592716784496403 -26.213465617735906 7.255616431655284 191 158 139 255
18.555074900630359 -25.467951738698147 7.155370179704533 198 162 146 255
12.938580442110947 -27.744694758077628 -5.099135900169244 203 166 147 255
12.025788327390657 -27.637354756522143 -7.102111094122222 206 171 149 255
11.071269014355167 -27.570858413700265 -9.195562961136261 206 170 148 255
10.408357572273175 -27.313010305946676 -10.654507279542315 206 170 148 255
10.120421216341740 -26.799341112243084 -11.297777801778324 204 168 146 255
10.040817131208414 -26.141214064374267 -11.487925513725145 202 164 143 255
9.627835397084141 -25.723734744480623 -12.402953031164799 201 160 140 255
9.256499591564889 -25.281531417610495 -13.227304711411421 200 157 138 255
8.926814010165529 -24.813789613276015 -13.960990701914994 192 149 130 255
8.805486339108086 -24.196712694181500 -14.241614610635963 187 144 125 255
8.600796993805787 -23.643355495651647 -14.703414813981681 185 142 123 255
8.271058933939713 -23.186619293372303 -15.436966167414454 179 136 117 255
8.108020076059063 -22.608041163574214 -15.808097588812302 168 130 107 255
8.195060392453854 -21.840726951282221 -15.635673027474155 156 120 94 255
8.365473776986690 -21.008195306831198 -15.282092389685943 148 114 87 255
8.619268793904226 -20.108822952589293 -14.747375901163991 137 105 77 255
8.789711130870458 -19.271526636297907 -14.393856330966059 128 99 69 255
8.960166682146038 -18.432111671324208 -14.040364066712925 119 91 61 255
9.130635549205607 -17.590573744558142 -13.686899197242582 109 82 52 255
9.301117835001051 -16.746908409233157 -13.333461813402494 103 78 48 255
9.554996402637045 -15.833682527223814 -12.798922601156562 94 74 43 255
9.850587061430147 -14.883256667038765 -12.173863151697418 92 76 43 255
10.187894176629641 -13.894816635070597 -11.458293640768119 85 70 39 255
10.817095911297613 -12.660406174276218 -10.108896488488853 78 65 33 255
11.279554632771948 -11.557082534303007 -9.121806291904363 69 55 24 255
12.200730514790919 -10.062129467856224 -7.138764244690350 55 44 12 255
13.038571993622057 -8.625967690601371 -5.336960465238235 41 35 6 255
14.752200966077595 -6.431345693807415 -1.633927666670303 30 29 4 255
16.966382644829025 -3.784113650935794 3.155281813690095 24 25 4 255
17.095510404294600 -2.915380575146997 3.417410166249482 22 23 2 255
15.097665044908794 -3.902022988864658 -0.937569474597296 14 11 0 255
13.808705496645231 -4.290939113471154 -3.753256649888584 27 19 2 255
13.562372115472868 -3.772747682839537 -4.305627994165945 57 45 26 255
13.691414120091238 -2.922752280523213 -4.043272016077339 80 64 45 255
13.820468477735403 -2.071084577506326 -3.780938448459722 71 57 40 255
14.158099015220699 -1.028930174661809 -3.066056055900788 49 42 23 255
19.594361867556586 -26.804250310348536 7.581454347623009 183 157 131 255
19.095433643263689 -26.358959373550661 6.485477840453115 189 156 137 255
19.308932417080612 -25.448167042745879 6.928551399521183 198 162 146 255
13.868270513360670 -27.582430565852221 -4.858321647032426 202 167 147 255
12.991866820301794 -27.444823697967735 -6.768332931853053 204 169 147 255
12.031575964596442 -27.376369502293755 -8.859231305015896 206 170 148 255
11.113138671132603 -27.291316997359729 -10.859464285371473 206 170 148 255
10.571900817295500 -26.953710619485733 -12.044982189814164 204 168 146 255
10.575576279075221 -26.237601218312733 -12.053858999619962 204 166 145 255
10.327730133106186 -25.701171282787257 -12.605740212861036 202 160 141 255
9.996024974551162 -25.228467661758984 -13.338575912284170 198 155 136 255
9.831992095998402 -24.638269909735271 -13.709381587969517 190 147 128 255
9.751798966139333 -23.988819236406201 -13.899178973686901 185 142 123 255
9.671601954836490 -23.340517291694653 -14.088963018055125 182 139 120 255
9.255981789229807 -22.943621994089781 -15.002606119168973 177 134 115 255
9.133837387409756 -22.331317810402496 -15.282817642292940 165 127 104 255
9.179407442570991 -21.593399659425543 -15.201100017867390 153 117 91 255
9.602366744127266 -20.566162202506547 -14.305123551007739 145 111 84 255
9.857624157079528 -19.663025241877335 -13.771097132812713 134 102 75 255
9.861294326305611 -18.952487740581731 -13.779915264890491 126 97 67 255
9.655288052239996 -18.406500716246200 -14.241053812220002 118 90 60 255
9.742830597059509 -17.631044543481451 -14.068935467860456 110 83 53 255
9.998135682308742 -16.720773359353558 -13.535002413893579 106 81 51 255
10.421220204984948 -15.672444825487588 -12.639294955915659 94 75 43 255
10.802394252560717 -14.652723209488585 -11.834106138675509 91 75 42 255
11.099711009820354 -13.696664246356491 -11.209873218963935 85 70 39 255
11.648715572562949 -12.529714619220854 -10.043025463587753 80 65 34 255
12.029977619098418 -11.494919783349161 -9.238028233947261 70 56 24 255
12.830738131663495 -10.104665422639130 -7.528721500809382 56 45 13 255
13.589607239815422 -8.739485148856360 -5.909977619315555 44 36 8 255
14.642179225848338 -7.115382226875596 -3.658343235814357 36 32 8 255
16.114337448401500 -5.119075360511630 -0.502607726209845 30 25 5 255
17.083167129206373 -3.537536030499524 1.567806233990098 27 22 2 255
15.408962963607351 -4.237352745938338 -2.058419278453414 18 11 0 255
14.405937051127268 -4.371852334172047 -4.237706435002252 36 27 6 255
14.200027743374662 -3.817230320481912 -4.698975493641825 65 53 31 255
14.329774919216021 -2.967508335377076 -4.436931157532683 82 67 45 255
14.501494979767642 -2.078625106636167 -4.084502684349218 72 59 40 255
14.841075622085029 -1.036487806407223 -3.370489586869212 48 40 20 255
18.832966493955695 -27.765284908564354 4.098356207336536 183 157 131 255
18.077999832806796 -27.494409540305526 2.461335951864555 188 155 136 255
17.871044109368952 -26.872396277924949 1.999852287629864 196 160 144 255
15.724725827029047 -27.542967115096346 -2.620605947616980 203 168 149 255
13.286824849000482 -27.709657815129091 -7.882610015956459 203 168 146 255
12.573723686093999 -27.470472990224579 -9.428482120552559 204 168 146 255
11.607585929045840 -27.415286273632105 -11.516639510551840 205 169 147 255
11.400385484505364 -26.843604410343559 -11.977505339295931 206 170 148 255
11.235340793655496 -26.245050979505919 -12.347944346423361 205 167 146 255
11.154625404025765 -25.588882054071988 -12.537576783718521 199 157 138 255
10.947394137289166 -25.024473129685674 -12.998355358903666 195 152 133 255
10.951011345894997 -24.310491132131162 -13.007184693379827 189 146 127 255
10.828110183044942 -23.688801740195046 -13.287153670319640 182 139 120 255
10.663028062424317 -23.099811202432406 -13.657479332131317 178 135 116 255
10.244880109500670 -22.700725021713410 -14.570017545867927 172 129 110 255
10.079772337114733 -22.117799542196437 -14.940270468053313 162 124 101 255
10.209908468196772 -21.314351872511196 -14.677931832497876 151 115 89 255
10.550956872107491 -20.348889245210017 -13.963798157200074 143 109 82 255
10.934211632125880 -19.346797709627978 -13.159358844098904 133 101 73 255
10.895663558517612 -18.666187334271797 -13.258545052497851 125 96 66 255
10.730562459872203 -18.084854684741387 -13.628784850680347 118 90 60 255
10.692010853297447 -17.406209162022066 -13.727949624123482 110 83 53 255
11.033144327350598 -16.427184190202738 -13.013990959411359 104 80 50 255
11.458680386570236 -15.376451172358045 -12.119400839563156 96 76 44 255
11.884247615610590 -14.320343702192531 -11.224878939302300 91 75 42 255
11.972315631993965 -13.532843511592901 -11.053116615102510 85 70 39 255
12.355741971444004 -12.502649089923452 -10.249037851957979 79 64 33 255
12.654809072441353 -11.537180706549179 -9.625680441064333 68 54 21 255
13.502440969810536 -10.112186600123820 -7.828128911230721 56 45 13 255
14.096951539447090 -8.888361384108833 -6.572651333967627 50 41 12 255
14.775902060013109 -7.585777444386423 -5.136630226116353 43 36 12 255
15.665900059057222 -6.095208826934979 -3.249136849987224 35 29 7 255
16.302755199590450 -4.810107694842230 -1.903664378709919 28 20 0 255
15.462571856753840 -4.791117903971454 -3.719131973366444 26 18 0 255
14.959968536159906 -4.489474728845835 -4.812017992556719 48 36 14 255
14.837184113806515 -3.861750081143100 -5.092100020445088 74 62 38 255
15.052049886312545 -2.937868111182595 -4.649768250942145 82 67 44 255
15.224727295515478 -2.048720231363816 -4.297769293344658 69 56 36 255
15.481840665271946 -1.081841181795454 -3.765214640015103 46 40 18 255
19.114247248474413 -28.045573956665123 2.880839577683531 179 154 126 255
18.651567998079443 -27.584885239565224 1.878039442772405 189 157 136 255
17.001452054821939 -27.907686870241363 -1.653242789579025 198 163 145 255
14.927144616544453 -28.532042084071264 -6.087286960046669 206 169 151 255
16.245515685406019 -26.918517610726809 -3.297090852892126 201 169 148 255
14.340700528047577 -27.460130057979853 -7.369565210231514 204 169 147 255
13.368847377902540 -27.391541039223981 -9.455309815889734 205 169 147 255
12.863489452136605 -27.015192806109312 -10.547722756752165 206 170 148 255
12.485347319331453 -26.557258930038202 -11.369198784751575 208 172 150 255
12.192016376582970 -26.044960769572484 -12.010050234819602 206 168 147 255
11.941086645751355 -25.506600600810444 -12.560576119921876 199 157 137 255
11.817401360641497 -24.880969976007236 -12.840235326472595 194 151 132 255
11.948235424626930 -24.074233095545992 -12.578241114921099 187 144 125 255
11.824546520232261 -23.450371737068096 -12.857880824920045 180 137 118 255
11.658428395602897 -22.859206497937237 -13.227766557868875 174 131 112 255
11.322602350310973 -22.395374547099394 -13.958675260530299 166 124 104 255
11.326167674961255 -21.683546490746053 -13.967459691208830 156 118 95 255
11.414591162714615 -20.908141549104812 -13.795733603628292 147 111 85 255
11.715168058119104 -19.971275691427934 -13.172760245010068 139 105 78 255
11.930906444082069 -19.095393787015809 -12.730332375447318 131 99 71 255
11.849639855846576 -18.445244028456244 -12.919658218211367 124 95 65 255
11.641072186448241 -17.894903238983630 -13.379698755134484 118 90 60 255
11.814404374698910 -17.048800024535055 -13.027556661207086 110 83 53 255
12.115058625414818 -16.100260968368332 -12.404735778909924 104 80 50 255
12.543047378798789 -15.046853155066046 -11.511266245499655 98 79 47 255
12.758875056197581 -14.157949346518834 -11.069009806112064 94 78 45 255
12.889841000176872 -13.334855196010110 -10.807239725371176 87 72 41 255
13.063260914486079 -12.475638530742060 -10.455269288992980 81 66 35 255
13.406466913705458 -11.475129517917679 -9.742451824242380 69 56 23 255
14.004363597371395 -10.259975592093383 -8.488396324606299 61 50 17 255
14.602303778461660 -9.037263026912072 -7.234436617587420 58 48 19 255
15.242734436823241 -7.771391614595217 -5.890363951572255 55 45 19 255
15.968108064318002 -6.425681710421628 -4.365982942931993 44 33 11 255
16.226589930694331 -5.468251197044452 -3.833942942310870 23 10 0 255
15.763429569003122 -5.126420933184917 -4.835327207960887 41 29 8 255
15.512506083167409 -4.607123964979579 -5.385663196043879 66 54 31 255
15.516293994662561 -3.869363195426757 -5.394808983659374 76 64 40 255
15.732363404872459 -2.945488414516191 -4.953013791821860 75 61 36 255
15.863540479212517 -2.093828099154678 -4.691626577689675 67 56 35 255
15.867359280664601 -1.353747943259378 -4.700809581018547 49 44 20 255
15.956103452659107 -0.537554552651343 -4.529638742211745 29 32 5 255
19.817074705077758 -28.053654073292876 2.567560686876249 178 150 120 255
19.180976866696852 -27.702899875320284 1.205216151209129 189 157 132 255
16.795926352282208 -28.498630497600303 -3.855005913286021 196 165 144 255
16.202354833082666 -28.147373007019155 -5.126822329094182 200 173 154 255
14.716481771012027 -27.667888080116384 -8.301467059011287 205 173 150 255
14.464087929197447 -27.110781141949175 -8.851529643008007 207 175 152 255
13.785049372706908 -26.848148825239562 -10.303331930538036 208 175 152 255
13.276627814841049 -26.476717013648752 -11.394329236744056 209 173 151 255
12.853507883168263 -26.052547484775445 -12.304904188881494 205 167 146 255
12.515697673170095 -25.574015185961656 -13.035076821605429 197 155 133 255
12.519215444406285 -24.858329887232500 -13.043879037356675 191 146 125 255
12.736084159957926 -23.990399282163708 -12.601874765386611 181 139 117 255
12.782284775546600 -23.242778312773567 -12.520536352044360 175 134 112 255
12.657801510317952 -22.618703528642754 -12.799824047883988 167 126 104 255
12.447965916969608 -22.058862247330794 -13.259395298272324 155 116 93 255
12.451495243312294 -21.344060622370165 -13.268193734211962 148 113 87 255
12.583056962663505 -20.533873771263572 -13.006558823514382 143 109 82 255
12.629274860465273 -19.786288566664027 -12.925227754075451 137 106 78 255
12.632820121938593 -19.070566352287898 -12.934042599667180 130 99 71 255
12.465647843613937 -18.485383718357326 -13.303397861571057 124 94 66 255
12.511877393515803 -17.737931972559011 -13.222070638367342 119 91 62 255
12.686162977590598 -16.890485776762262 -12.870367196858780 109 85 54 255
12.988516869189283 -15.940612123543531 -12.248317600839783 107 84 52 255
13.162837019940810 -15.088096525240275 -11.896680810138008 98 79 46 255
13.507921038343582 -14.097552370220200 -11.184599953588105 96 77 44 255
13.639589526154197 -13.273921286758494 -10.923148534003985 89 73 40 255
14.112789487949073 -12.172583024732603 -9.940827327682683 81 68 34 255
14.415260103968549 -11.204444573115566 -9.319014385607801 73 60 28 255
14.931217684448939 -10.057269569556880 -8.246726393997932 70 59 29 255
15.319132137084750 -9.009580423353086 -7.444825515672790 65 54 25 255
15.920553058776562 -7.779066363157256 -6.192496574961694 62 53 24 255
16.436625239913582 -6.612704616772291 -5.120453608958684 44 33 8 255
16.653851202378888 -5.692764170771042 -4.679134307762183 31 19 1 255
16.230608267171220 -5.316113602003924 -5.589174119783024 50 38 14 255
16.191650776620790 -4.614786950651549 -5.688387176624019 82 70 46 255
16.323505756387775 -3.766196291965258 -5.427271184820228 80 68 44 255
16.668893290050775 -2.729886243173667 -4.715788231681472 77 62 39 255
16.843491280551532 -1.839126551615848 -4.364661870147643 67 56 37 255
16.761871141489536 -1.172649813558181 -4.553995104817830 56 50 30 255
19.962153221285575 -28.415642057309157 1.083114959280721 177 150 118 255
21.038410251467681 -26.968791045906841 3.325980773971764 190 156 131 255
19.111352229428746 -27.451702191838493 -0.737169769534518 196 165 144 255
18.299753814624282 -27.230278069627872 -2.457934396096135 202 172 154 255
17.616831543425874 -26.934331391334098 -3.908341827206783 200 171 150 255
16.762231827725799 -26.761417988438794 -5.718937564387318 203 171 148 255
15.650117872775468 -26.772457330587130 -8.069822655942289 209 177 154 255
14.795409860160888 -26.622976931554007 -9.880133258979129 212 178 155 255
13.811912024914491 -26.572537640048793 -11.960502551493533 210 174 152 255
13.429160433965194 -26.119494983965566 -12.779873982156118 205 166 145 255
13.175135447691417 -25.581633565100589 -13.329014784750683 197 154 132 255
13.092766177376191 -24.926327146743247 -13.517901109924992 184 139 118 255
13.224986987195578 -24.119869782894938 -13.256522363533321 173 131 109 255
13.400138496666287 -23.281133223313361 -12.905116968256294 168 127 105 255
13.575303726034775 -22.440305464644368 -12.553738826897359 162 122 100 255
13.407103477287151 -21.847554111609071 -12.922712261830156 151 113 90 255
13.324743823709852 -21.193940832514116 -13.111585761281191 143 109 82 255
13.414082941962945 -20.414219325890116 -12.940311543695572 139 105 78 255
13.589284076088802 -19.569308852507390 -12.588990676784334 135 104 76 255
13.464006138762699 -18.948745315666585 -12.867888572535293 128 98 70 255
13.338724694540971 -18.329845467898650 -13.146768088966581 124 94 66 255
13.299300589278261 -17.646823234447481 -13.245588090363754 119 93 63 255
13.517468564905073 -16.765412585154095 -12.804299352242992 112 89 57 255
13.735654797187024 -15.881334456642421 -12.363045715539755 108 86 53 255
13.953859519365054 -14.994584246850096 -11.921827330761374 101 82 49 255
14.300889875637523 -14.003247103465881 -11.210622277762354 96 80 46 255
14.647947185782527 -13.007609429970870 -10.499472709966369 89 75 40 255
15.080908313880258 -11.938646955180303 -9.608377363583969 83 70 38 255
15.299204082631718 -11.038191735527960 -9.167338096015726 80 67 35 255
15.646342503943458 -10.029891552513732 -8.456352678581510 77 63 34 255
