ply
format ascii 1.0
element vertex 660
property float x
property float y
property float z
property uchar red
property uchar green
property uchar blue
property uchar alpha
end_header
25.231137297648445 -20.628490081303795 -0.848028906881439 186 142 114 255
25.738613412418630 -19.944153094201255 -0.936655525905699 191 146 118 255
26.778194941460868 -19.872878109108115 -1.116326507595019 190 145 116 255
27.416925243228121 -19.344196309825378 -1.227405152687666 191 145 114 255
28.319735813468725 -19.124705331678740 -1.383661659790150 193 146 115 255
29.022395650754930 -18.676140229872061 -1.505670166180323 196 150 121 255
29.789882985748847 -18.306480971819809 -1.638765102383168 195 150 121 255
29.767318031991493 -17.006297749074321 -1.636709809957097 192 147 118 255
30.009477157884277 -16.014437143718226 -1.679944892368518 193 149 123 255
30.383631912828434 -15.177231912087251 -1.745761363204750 190 148 126 255
31.280273843958128 -14.966058952379967 -1.900942568544913 189 147 125 255
32.370148276693641 -14.993289273471675 -2.089164226331306 187 145 123 255
33.521971324440329 -15.103307621569769 -2.287969631914905 187 145 123 255
33.699080576362860 -14.032840517736076 -2.320081772891129 186 144 122 255
33.877704855062916 -12.960330275701381 -2.352458974908252 184 142 122 255
33.477874267149815 -11.170934086905930 -2.285933556986329 184 142 123 255
34.625187612543925 -11.287033394516129 -2.483953227265175 181 138 119 255
35.769215487614389 -11.407563083149086 -2.681399601936107 176 134 115 255
36.909959952077060 -11.532520371749968 -2.878273056046240 177 134 115 255
36.962807877287673 -10.296967303934821 -2.889158043569488 177 135 116 255
37.781507512386980 -10.024572779731358 -3.030967529325018 175 134 112 255
38.598529571926889 -9.754440352537131 -3.172484615746050 173 132 110 255
38.654024472912482 -8.515317386583092 -3.183833725900541 171 130 108 255
38.838006034552933 -7.435581616119919 -3.217151672831754 171 130 108 255
39.842528232922405 -7.411582295031224 -3.390709532694530 172 131 109 255
41.661356901878321 -8.451726288649724 -3.703418447529870 169 129 107 255
43.097313720002120 -9.010217962958677 -3.950675517243177 167 131 109 255
43.403020747137987 -8.098986476432287 -4.004783506102250 169 133 111 255
43.460175004455522 -6.857624889273524 -4.016426614250655 170 134 112 255
43.768311098033962 -5.943117420208409 -4.070960396158767 168 132 110 255
44.821850255670938 -6.019343766266729 -4.252847252421965 169 133 111 255
45.934337006217334 -6.182404989441409 -4.444794016303099 171 129 110 255
46.488068594217964 -5.602014833780771 -4.541279297299816 171 129 110 255
47.041426400771314 -5.022128534421938 -4.637700140081456 167 126 106 255
47.840025499805392 -4.776837554002441 -4.776009047096430 166 125 105 255
48.575734523036772 -4.450027815880105 -4.903571102828643 161 123 102 255
49.187951337714424 -3.957095427399111 -5.010038236044920 155 117 95 255
49.494864122497518 -3.044236031187722 -5.064365253131633 147 117 89 255
50.106515275903064 -2.552066013498688 -5.170735476667680 140 116 86 255
49.869020283068664 -0.876407254366370 -5.132108334860966 118 105 71 255
-33.390137346016729 -3.115250092328836 10.290787348045427 190 180 137 255
-29.691712211330525 -5.277183455895340 9.643030030500618 212 173 148 255
-28.376366065642856 -5.166042810644228 9.412839753558501 214 170 147 255
-27.494119156364206 -4.641362512207650 9.258537299645006 204 158 139 255
-26.756194492051975 -3.978775984442962 9.129522555617235 189 142 122 255
-25.662478338955054 -3.667716123749074 8.938162001103244 169 123 102 255
-2.777607077326110 -22.353585265537276 4.928880250936217 206 171 148 255
-0.254108815459830 -23.605974763813975 4.486945982945961 208 176 153 255
2.189765290648751 -24.799475240413557 4.058959420725110 210 178 155 255
3.358739935167250 -24.719455284467045 3.854374608096627 211 179 156 255
4.875607139892850 -25.001613999377099 3.588824404486992 214 182 159 255
5.967768028432999 -24.858914953626169 3.397695548560847 215 183 160 255
7.127110871753274 -24.791883364495305 3.194791888225843 217 181 157 255
8.144069610787085 -24.584331927386245 3.016837390876894 215 179 155 255
8.880544567726446 -24.089963242659167 2.888033168829182 213 177 153 255
10.240305324551201 -24.251455116635896 2.650002255299221 211 175 150 255
11.596104398879760 -24.418289317821859 2.412663024614972 206 170 144 255
13.086042403826241 -24.736761989257388 2.151814221546125 201 164 138 255
14.226930507886891 -24.694616404921248 1.952131743374423 194 154 128 255
16.052105808109161 -25.392333715046732 1.632528595951591 191 151 126 255
17.116829413441764 -25.286633530528718 1.446188774369766 193 153 128 255
18.384100755099382 -25.406584983911983 1.224350896623399 192 152 127 255
19.306508470512540 -25.160272838346259 1.062947777077063 188 147 125 255
20.499227925357900 -25.214495034522429 0.854170783865833 183 140 121 255
21.009395115279972 -24.526514427340913 0.765010000758046 171 129 110 255
21.451701972131218 -23.763780885383255 0.687741277032138 160 119 99 255
21.691425682918293 -22.775443173030965 0.645975556157772 156 115 95 255
22.471871692970382 -22.388041027551679 0.509445458524617 149 111 90 255
23.250935019234163 -22.002503349995493 0.373156415594458 147 109 88 255
24.297097976669278 -21.921831678725937 0.190054914327199 151 110 89 255
24.403156286289715 -20.781216220560793 0.171712936114695 161 120 98 255
25.045439315845613 -20.247601501028413 0.059392649712322 174 132 108 255
25.553706259442436 -19.562182360756310 -0.029440800273079 171 126 103 255
26.327790151577403 -19.183358981608848 -0.164862507962901 174 129 104 255
26.636270150296895 -18.268564751249301 -0.218682218021215 175 128 100 255
27.342561636136651 -17.814896711691858 -0.342224278735344 183 136 108 255
27.981798970948205 -17.285388576969609 -0.454015139980072 187 140 112 255
29.146992756246647 -17.376728379574047 -0.657989607992285 187 142 113 255
29.389419749907546 -16.384743575121661 -0.700234810042986 188 142 116 255
29.829584368436798 -15.624897061200841 -0.777137296254864 186 140 115 255
29.943200083654574 -14.474088807636946 -0.796805906145707 181 139 115 255
30.645405196345052 -14.025930643657972 -0.919637124623627 180 138 114 255
31.671733430584482 -13.972005238755827 -1.099279334148584 179 137 113 255
32.500784371593852 -13.685320513429133 -1.244345823725617 177 135 111 255
32.551569876866154 -12.452975623018517 -1.253003149901062 177 135 111 255
32.798173835410864 -11.455357113361345 -1.295982300519917 177 136 114 255
32.724001044530496 -10.058992860843119 -1.282736473705846 175 134 112 255
34.065777605490780 -10.410998071316698 -1.517675555532271 175 134 112 255
34.826640732097871 -10.050001566485548 -1.650794791718972 173 132 110 255
35.969625347738628 -10.171289921524107 -1.850893892509475 174 133 111 255
36.599295866309006 -9.654681313769856 -1.961020229293084 174 134 112 255
37.101058796726562 -8.978030724720895 -2.048727341852079 169 133 109 255
38.046782307565081 -8.866537705010273 -2.214254529819065 168 132 108 255
37.787981667524548 -7.220355065356301 -2.168647160978246 167 131 107 255
38.416543394184799 -6.705241244036216 -2.278581742787551 168 133 108 255
39.044392203242978 -6.191088709880944 -2.388392212349181 169 133 109 255
40.613446136490808 -6.901661137036001 -2.663187073401396 167 133 108 255
42.239629708780001 -7.701457079192409 -2.947999421444557 165 133 110 255
43.047820363730011 -7.442901639048955 -3.089427354269645 167 135 112 255
42.794994416782259 -5.788661157764693 -3.044867370728774 165 133 110 255
43.353956797981283 -5.201139021533834 -3.142608187431911 162 130 107 255
44.098524292266859 -4.862116444848482 -3.272885489187750 163 131 108 255
45.089096811561319 -4.856406940769659 -3.446287906720180 167 131 106 255
45.336946641662450 -3.857106230569627 -3.489493951966246 160 127 100 255
46.078148538598498 -3.522622001884429 -3.619184337109722 157 126 98 255
47.002089681259463 -3.440502100027743 -3.780910206338596 152 125 96 255
47.678958454356206 -3.026508277387904 -3.899325316642212 143 118 88 255
48.110673699967720 -2.278052881034171 -3.974765101094277 136 115 83 255
48.177399199349452 -1.024209415223254 -3.986220749456280 118 112 72 255
-33.862770153161193 -2.494168944726823 11.414358719714272 185 178 133 255
-30.021112564900307 -4.792611585944542 10.728966698014460 213 174 150 255
-28.848604279147935 -4.541042985903346 10.521530517714240 216 171 148 255
-27.535608214175170 -4.432424167015313 10.288919665528361 205 159 139 255
-26.868724922812874 -3.699297898570251 10.172018059555363 195 148 128 255
-25.988481857271324 -3.177052379937322 10.016895933447778 176 128 108 255
-24.611939434670774 -3.148939430232303 9.772864287542745 148 103 82 255
-2.406502332382473 -22.565929531748736 5.799881302902740 211 177 150 255
-0.026042666567832 -23.677020764189535 5.375745810739836 210 179 152 255
1.852766419906487 -24.301195109917245 5.041452206170568 212 180 154 255
3.655063068677208 -24.862347517296740 4.720839586193293 211 180 153 255
5.030678227714759 -25.001685948255897 4.476656311193395 214 182 156 255
6.262391604572571 -25.002677826778239 4.258241351758457 215 184 157 255
7.351170260246164 -24.864019019174208 4.065425636706671 217 183 156 255
8.506922709156186 -24.801244922011620 3.860593943310626 217 183 156 255
9.659679528567978 -24.742510302071082 3.656284706997731 214 180 153 255
10.878765964790347 -24.760529119562875 3.440072203235935 210 176 149 255
11.887042774715752 -24.564227450261399 3.261631203951289 204 170 143 255
13.099977819339358 -24.590541207683145 3.046491776835403 199 162 136 255
14.378438285824899 -24.694692933689510 2.819589815504415 196 155 133 255
16.477435064990061 -25.686740467994611 2.445565326973018 188 147 124 255
17.541128138937751 -25.581908757815256 2.257125888749570 189 147 124 255
18.943947077632089 -25.850761276694641 2.007868156549797 189 147 127 255
19.796898052793182 -25.531517784774138 1.857187408960549 186 144 124 255
21.056370357865120 -25.661274928255892 1.633600168980905 172 132 113 255
21.361930279899298 -24.750594890552890 1.581062107175590 163 122 103 255
21.329776407862937 -23.464325812164077 1.589093024545065 149 110 90 255
21.097430228833531 -21.949418137049037 1.633038851292973 137 100 80 255
21.609864943674751 -21.258363895721288 1.543412729865295 131 94 74 255
22.256670226947847 -20.718509087018987 1.429682563421501 124 88 68 255
23.036882404935596 -20.331153298973902 1.292016928343116 130 94 73 255
23.280408630436000 -19.337924689017967 1.250622962834747 132 95 73 255
24.192646139595752 -19.104930840484769 1.089262550211011 141 104 82 255
24.370349734483852 -18.034264313046123 1.059679795885955 148 109 86 255
25.147444013254244 -17.651112349010248 0.922555630346629 149 101 80 255
25.194178500177401 -16.424658609256568 0.916479061876416 148 98 76 255
26.168609517065903 -16.273995528312469 0.743936594492197 165 115 92 255
26.876899157037258 -15.817426940079258 0.619144525518422 177 127 105 255
27.978869561317765 -15.827175496630730 0.423692265695507 171 121 99 255
28.684083858839784 -15.374753861723377 0.299436497763828 157 110 87 255
29.126367286031922 -14.612097131492988 0.222369628030769 177 132 109 255
29.568879020696556 -13.849132338754487 0.145262066473727 172 129 108 255
30.011619764090227 -13.085858543586255 0.068113715686700 170 128 105 255
30.779531025362530 -12.715088902567658 -0.067411409840979 171 130 106 255
30.768135517588632 -11.400821980360888 -0.063027496955847 170 129 104 255
31.147220730487248 -10.557187746038863 -0.128743820019871 170 130 105 255
31.784889039405527 -10.029651589559251 -0.240889902813556 170 129 106 255
32.228787541504289 -9.264815723490415 -0.318244037013521 168 126 105 255
32.929670068813010 -8.818234418288739 -0.441748146171186 166 124 102 255
33.373398502678839 -8.053627647487247 -0.519073644616945 162 122 99 255
34.456036428992064 -8.089445708514774 -0.711152046276219 160 123 99 255
35.344590512654463 -7.888387588364139 -0.868383446790759 159 125 100 255
36.104050059726319 -7.529014568810169 -1.002435198198803 158 129 103 255
36.101504260519107 -6.202812011989494 -0.999604284311680 154 128 100 255
36.670486566513716 -5.601698947351593 -1.099440311105191 157 129 102 255
37.176006211709336 -4.919965721413121 -1.187876398203734 157 129 102 255
37.995989552566670 -4.645175716162100 -1.332815892602866 157 130 101 255
38.877049736213110 -4.454223178569180 -1.488738640189553 155 129 102 255
39.630946084197660 -4.102352079545369 -1.621819318508159 154 127 103 255
40.945346950637600 -4.490436686406326 -1.855638307439314 155 130 105 255
40.947896450721430 -3.157362207908477 -1.853700989981711 153 131 104 255
41.449805348280847 -2.480497986519936 -1.941507046222576 149 130 102 255
42.199446525676080 -2.134365127273213 -2.073844170880477 140 120 93 255
42.638806010025462 -1.375649171931229 -2.150409990794358 133 118 85 255
43.324943695999792 -0.948951243029626 -2.271339908936469 125 113 79 255
44.071537190032700 -0.606928351441184 -2.403144194433743 114 110 73 255
-32.894193511668561 -3.253466292511689 12.279288625964398 172 173 126 255
-29.775021701807361 -4.861959999879559 11.713502566195103 211 176 149 255
-28.674758673271924 -4.541158505403246 11.517005050040261 214 173 151 255
-27.719920845955130 -4.084191396941037 11.347095571300159 207 161 142 255
-26.980914645408916 -3.419866154957560 11.216666221586259 197 150 132 255
-26.456288563285909 -2.546225316511084 11.125463120202497 180 132 114 255
-25.149873516657294 -2.445832414537506 10.891164581471379 149 104 85 255
-2.389357087501537 -22.424528720409228 6.734010588007258 212 179 154 255
0.131327563965272 -23.677136590578442 6.276928289708877 211 180 153 255
1.657202607584082 -23.945347039183815 6.001927535761936 213 182 155 255
2.827244829298564 -23.862719835313044 5.792049550015896 213 183 156 255
4.765211630236053 -24.572037965339319 5.441502350927571 214 183 156 255
6.347023884665646 -24.930952346307265 5.156134344305123 216 185 158 255
7.784383753492278 -25.152389385272699 4.897185024245850 219 185 158 255
8.869457552590973 -25.018205725288226 4.702738128640405 219 185 158 255
10.090736379781333 -25.032620707717399 4.483311351588732 215 181 154 255
11.655088486241112 -25.415079692328760 4.200990024474166 209 175 148 255
12.661575975872353 -25.220733389534843 4.020860340131556 203 169 142 255
13.734668785221373 -25.102705304070412 3.828501809696547 198 161 136 255
14.942679363010086 -25.135011899341919 3.611388884687422 195 154 132 255
16.147373872279843 -25.171790090345667 3.394854392203982 189 148 126 255
17.759593046223358 -25.655835805510208 3.103575737282739 187 144 125 255
19.298254311014091 -26.072938660289623 2.825738897821729 186 143 124 255
20.627538023718387 -26.273979801884764 2.586254201196951 179 136 117 255
21.476929157646140 -25.959205335091923 2.434745460571087 157 119 100 255
21.578484614990657 -24.825392863911873 2.420386329196127 144 105 88 255
21.072848009219626 -23.015155666921459 2.517422270540131 132 93 76 255
20.841970082505497 -21.498949031980771 2.564090119481847 124 87 69 255
21.018617092280152 -20.430009628114874 2.536014079802122 114 79 60 255
21.398334448636660 -19.585637066247386 2.470686501180481 98 65 47 255
21.376436245987293 -18.286027192629831 2.479065442575241 102 70 49 255
21.691339843477920 -17.362919179895187 2.425648166646575 103 71 50 255
22.407341789104123 -16.895745338709048 2.298612053051919 107 76 55 255
22.789557802768286 -16.048001797463314 2.232841485887207 101 68 46 255
23.172318355668153 -15.199523592705305 2.166974303814150 92 47 28 255
23.952967653094959 -14.811308073715821 2.028050255794071 83 33 16 255
24.798300218872100 -14.502003054488426 1.877234674951211 135 85 68 255
25.641932529849782 -14.194990744711049 1.726715582085227 149 100 82 255
26.681093897059952 -14.122715582948700 1.540265453205336 148 102 84 255
27.324100465236540 -13.587838802444281 1.426566357775236 151 107 88 255
27.770105699184398 -12.820209914912482 1.349053925418964 157 117 96 255
28.151076751160758 -11.974143276557470 1.283492290167921 157 120 99 255
28.793002815103279 -11.440723016455593 1.169979485546136 156 120 96 255
28.849724817835721 -10.201225083346401 1.164013457019642 154 119 95 255
28.714256016499974 -8.722487567883036 1.193392117730205 153 119 95 255
29.292731251957406 -8.108493895716038 1.091551438109796 153 120 95 255
30.644326514088164 -8.445582021341806 0.847565320015107 149 117 94 255
31.220063144043877 -7.835281344960777 0.746202727192696 144 112 89 255
31.153987954602002 -6.429101568572150 0.762863680658683 146 116 90 255
31.346631012814896 -5.338584768760768 0.731965399436596 139 117 86 255
31.987533673541833 -4.806543430352235 0.618626300680219 133 119 85 255
32.500392832523801 -4.114896175579474 0.528835754953086 127 118 81 255
33.076671294420407 -3.503864203518617 0.427375782353998 123 119 80 255
33.779231108412603 -3.054814418881222 0.302674972873035 122 122 82 255
33.533045653586043 -1.393102718450962 0.352563824271435 103 107 64 255
34.488013103359151 -1.268226472484969 0.181408651696472 96 101 57 255
-33.006277427810403 -2.977556069142906 13.339944300366916 163 167 116 255
-29.816304515231195 -4.654414379076741 12.751156639477401 212 176 149 255
-28.715897559126802 -4.332962034806087 12.552636263736069 215 173 151 255
-27.617845100408317 -4.014684057663317 12.354524029781246 208 162 144 255
-26.878783253699396 -3.350143663029542 12.223472153653283 196 149 131 255
-26.211629414720562 -2.616498276937762 12.105848524018789 179 130 113 255
-25.189874805519423 -2.235033696358300 11.921925235665313 143 98 79 255
0.147621847921926 -23.535346882545497 7.204486372366837 212 182 156 255
1.462072999315609 -23.589545199204252 6.965090140096031 213 183 157 255
2.843080981979853 -23.720063539914946 6.713195450155723 214 184 158 255
4.220125498802162 -23.855926340430528 6.461991563710640 211 181 155 255
5.942584634466925 -24.356358653567014 6.146097044315525 214 184 158 255
7.450326013042002 -24.648120928223165 5.870319822910595 221 187 162 255
8.953460332986253 -24.946095682167879 5.595346361822322 220 186 161 255
10.521380389109197 -25.322779084278181 5.308184989952508 215 181 156 255
11.807447493582742 -25.415251729439888 5.073737653173644 209 175 150 255
12.951734986880382 -25.366769249429865 4.865795413615722 201 167 142 255
13.610663083248625 -24.810286942840264 4.748724543641941 196 159 136 255
14.818836226114684 -24.841726455904791 4.528749698751874 194 155 132 255
16.366629908830788 -25.245549637538915 4.245099513953541 190 150 128 255
17.977925419011484 -25.729813095094585 3.949486793303102 188 146 126 255
19.447444430544323 -26.073117327967140 3.680379053891514 183 140 121 255
20.571838864788560 -26.051459655557039 3.475905745953717 169 126 108 255
21.081746023095917 -25.363785357543833 3.386596419596202 146 107 90 255
20.913724237821725 -23.929572458291489 3.424400595719874 122 83 68 255
20.681197560672103 -22.416270967405069 3.474338291195927 109 70 56 255
20.317185409572573 -20.748131576609865 3.548978833625185 97 60 46 255
20.495661273998394 -19.677026835128459 3.521899402341155 90 56 43 255
20.474224068933154 -18.377286381984590 3.532345656698347 87 54 40 255
20.723177424559708 -17.377214030686531 3.492080511115127 78 46 31 255
20.706040207574262 -16.071673616032797 3.501769765224623 67 38 21 255
20.091445816974840 -14.077149372721976 3.623640401240436 61 34 16 255
19.881199541011995 -12.533796772252344 3.669661857736664 61 35 16 255
20.536774433731097 -11.981828840077242 3.553143984709699 64 32 14 255
21.456317447946560 -11.738190597397534 3.387040098080249 76 36 18 255
22.637903972836682 -11.805477661061616 3.171687446230933 99 59 40 255
23.091765781751036 -11.027300983624514 3.093007988893625 118 79 60 255
23.677243686693771 -10.403785269015174 2.989599409412399 121 90 68 255
24.327840574643460 -9.858529193297784 2.873946371991181 131 106 82 255
23.670196012555380 -7.755979491343226 3.004181999609976 135 114 89 255
25.561610987170155 -8.692864046205614 2.655283529606024 131 115 86 255
26.210161647329073 -8.150366793304812 2.539985499343025 127 112 84 255
25.235617049212152 -5.644790385057831 2.729910168496126 122 113 83 255
25.433567007853185 -4.547416778747049 2.699395454819133 103 100 69 255
25.762175668782731 -3.605995427329674 2.644319853748989 96 95 63 255
27.057864081697886 -3.851561528575587 2.407296695918468 88 92 57 255
27.707082129305320 -3.308163211192152 2.291877364869656 78 84 47 255
27.522353586272345 -1.730392404561314 2.333410560574038 64 73 33 255
-33.693426901509667 -2.149556658856284 14.512445551113792 159 166 115 255
-30.287926564255258 -4.031506495208362 13.872523342619239 210 176 147 255
-28.756790004449044 -4.124810489296692 13.589874416035578 214 173 153 255
-27.730035835320450 -3.736212596847452 13.403366353624001 210 164 145 255
-26.634034311041773 -3.420242485415542 13.203609853829228 196 149 131 255
-26.180457431341267 -2.476502517652136 13.126402166788992 178 130 112 255
-25.371546588908359 -1.883637343318071 12.981379036586738 147 102 83 255
0.023121372030914 -23.251651974254372 8.160030834188355 212 182 156 255
1.900186731225745 -23.874525307694284 7.810067175632668 212 182 156 255
2.578464596829178 -23.291812748878556 7.689018353619410 212 182 156 255
3.815921248857592 -23.283117912515650 7.461107389866221 211 181 155 255
5.678516841622297 -23.925502994691271 7.113666881919485 218 187 161 255
7.743895854465734 -24.792461442282701 6.727361201912593 224 190 165 255
9.246038736791775 -25.090872328187714 6.448620948373474 222 188 163 255
10.535539133280963 -25.178004502971334 6.210465916521763 217 183 158 255
11.890584209691980 -25.342758404425012 5.959712800200357 211 177 152 255
13.034598152621811 -25.294060504972350 5.749262779264591 201 167 142 255
13.418131857616800 -24.444770329260223 5.684269283715437 193 158 134 255
14.832732320674978 -24.695221923727559 5.421961178538936 195 157 136 255
16.105970053872056 -24.804282879166067 5.186639312508127 192 153 133 255
18.059365731398827 -25.656241923647059 4.821038785682966 189 148 128 255
19.460157889161962 -25.925313995428155 4.561141443873815 180 137 120 255
20.516381648702406 -25.828990686145374 4.367165831127679 159 116 99 255
20.687273525308939 -24.768417625274992 4.342743064195105 122 80 67 255
20.114576631466178 -22.884471711240110 4.460817015540769 75 33 21 255
20.290256801060366 -21.817439654008496 4.435549562386186 73 33 23 255
20.130371697125611 -20.372870169478347 4.474626109344960 83 45 35 255
19.906347652579200 -18.848781675772358 4.526048119568287 73 39 29 255
19.417385171431590 -17.017924253646754 4.628328992662723 67 34 24 255
19.334739756783193 -15.635203072661625 4.652753742841313 60 31 19 255
18.587162564470333 -13.489047641652235 4.804782666813516 54 29 15 255
18.378481371194368 -11.944264700805917 4.853505719499189 49 27 11 255
18.239683460650923 -10.471252532827833 4.888871667654435 51 31 14 255
18.501740427033695 -9.453743324905815 4.847339346383713 60 37 21 255
19.360154282727649 -9.126131564295463 4.691324256329032 78 47 30 255
19.095377273886328 -7.490980860197141 4.750977111445010 89 59 41 255
18.044638161242318 -4.923584562980921 4.961659694303577 86 65 44 255
-30.687021245242647 -3.477877978672211 14.984769241313664 217 183 154 255
-28.654324819069188 -4.055608096212609 14.600865485273467 219 179 159 255
-27.199336787110440 -4.084815127882337 14.329278510382672 211 165 149 255
-26.603115802408752 -3.280724857331336 14.224803972299654 196 149 133 255
-26.006991862416953 -2.476764120875430 14.120340557719089 178 130 115 255
-25.552787048048572 -1.532289273509605 14.043512607133835 148 102 86 255
0.814504752994679 -23.890681924445289 8.939264353738565 210 182 158 255
2.900010454263736 -24.729092700986087 8.543291643220385 208 180 156 255
3.786559618746907 -24.363222977094267 8.380975632544221 209 181 157 255
5.161002403940927 -24.501046553603459 8.123457052457582 212 184 160 255
6.461700429389026 -24.572368978637542 7.880242774148208 219 190 166 255
8.594204957120951 -25.513346802619736 7.474631116322037 225 190 167 255
9.468931967979188 -25.163417015624276 7.314369409648357 223 188 165 255
10.619145754528432 -25.105775132433678 7.100284916751036 217 183 160 255
12.319463214409780 -25.633883250867797 6.778711816380024 211 176 153 255
13.255469152381323 -25.367262947236100 6.606314217646933 203 168 145 255
13.638923020381725 -24.518192846050852 6.541826323940185 196 161 139 255
14.640813341304380 -24.328671872848105 6.356490074269821 196 160 138 255
15.982820577069077 -24.510231638993361 6.104620807676596 191 154 132 255
17.799196974032384 -25.213725050030121 5.759921693782587 186 145 127 255
19.063988398094352 -25.333464476206359 5.522963185692909 174 131 114 255
19.577023229167594 -24.641543103944969 5.432979164603843 152 106 90 255
19.207908153162805 -22.981903593747859 5.515589807360691 121 78 66 255
18.978253940721828 -21.466091437132008 5.570986647460565 98 56 44 255
19.562381612788471 -20.844244406427180 5.467148554973548 68 28 18 255
19.674513330747573 -19.697261448548886 5.455717157577574 61 23 14 255
19.990096283625206 -18.773761494750488 5.404473812333741 59 25 16 255
19.032657748616259 -16.413955450447332 5.602631347914304 44 14 5 255
18.483503520065739 -14.499252459961468 5.720925704405950 36 11 1 255
17.939388499712379 -12.577752504363929 5.838333273652722 27 6 0 255
18.132525504037204 -11.487474073018348 5.811304534510974 25 5 0 255
17.729528299753696 -9.707566280488891 5.901205550003844 20 5 0 255
17.993364197174543 -8.687894591658733 5.860396603960488 20 5 0 255
17.729716506966099 -7.051963944842271 5.923101671734962 42 20 5 255
17.403896751922218 -5.333924823926623 5.998083755559357 49 32 12 255
14.648931255002651 -0.751574674496794 6.549990221164897 41 34 11 255
-29.651992015055953 -4.308979828288443 15.816854696051728 214 186 157 255
-27.765203572082839 -4.750422460034656 15.456242848325502 217 182 160 255
-26.740492098638015 -4.363792439811732 15.266650655164206 210 166 147 255
-26.216116419543425 -3.490690497029959 15.176371373248493 194 149 130 255
-25.691515051163549 -2.617282597978317 15.086045626837972 172 127 108 255
-25.166689370848530 -1.743570622256868 14.995673753696501 144 101 82 255
-23.793215202439058 -1.716038698542548 14.736622804190574 107 70 49 255
1.253108679959752 -24.174879480191578 9.783624295240990 212 186 161 255
4.039107475270242 -25.726088958880524 9.242112292560769 210 181 157 255
4.502809492997812 -24.934806120057601 9.162429266684136 214 184 160 255
5.805490923814602 -25.002744108641224 8.915764205435003 217 187 163 255
7.313736246518374 -25.291125198900147 8.628083034753985 220 191 167 255
9.026095522929182 -25.801904946333821 8.299640279351387 225 190 168 255
9.691692921819794 -25.236009258126728 8.179568798892610 223 188 166 255
10.772058982992803 -25.106090702820239 7.976832281674895 218 183 161 255
11.642480268487105 -24.761635145736477 7.815870098089199 212 177 155 255
12.924771271488623 -24.857066582991934 7.572751793738021 204 169 147 255
13.722043765002383 -24.445368508205178 7.426262322115122 197 162 140 255
14.655146151791172 -24.182267882133942 7.252640741848317 196 161 139 255
15.586219575667172 -23.921902715692795 7.079370797930501 192 156 134 255
17.061550349649110 -24.254665757299279 6.797421833204574 185 144 126 255
18.464153986214058 -24.519618840794777 6.529877038481558 173 130 113 255
18.775052540495722 -23.602615500671419 6.480237523015582 157 112 95 255
18.883407906076400 -22.461092832371065 6.471074434901603 133 91 77 255
18.249526143050900 -20.495766923634562 6.610261537076738 104 62 49 255
18.565755988818381 -19.571570570565768 6.559674731835813 88 49 38 255
18.882850862256191 -18.646206716370045 6.508932473931111 73 36 27 255
19.200810482500628 -17.719675766052831 6.458034927255959 62 28 19 255
18.313638089728329 -15.432374808004397 6.648238216327059 45 15 6 255
17.767307906505323 -13.514859858700930 6.770396844012197 40 16 4 255
17.426052275169440 -11.818448509283286 6.851627524347847 32 13 1 255
17.953605824753339 -11.106923576689326 6.758998966535607 25 6 0 255
18.082913857169757 -9.937134697314463 6.746127175867748 23 7 0 255
17.618274213844870 -8.075336799734430 6.852291483997298 41 24 9 255
17.224385266729399 -6.284012880348484 6.944391402894581 57 42 22 255
15.517364682999016 -2.945785221232597 7.299833904233793 54 44 24 255
-28.546503089516364 -5.209357600155897 16.627970382714047 215 186 156 255
-27.448754923602792 -4.889664194617581 16.421925981840282 221 176 157 255
-26.282060751851247 -4.642814172421140 16.201851405679108 208 164 145 255
-25.829437039502238 -3.700701533197787 16.126305853331310 193 148 129 255
-25.021375646093418 -3.108372075572163 15.978764123326080 170 125 106 255
-25.134995344240394 -1.603286293010456 16.017953094234926 140 97 78 255
1.339636774190808 -24.104245733686639 10.697142466038748 217 197 170 255
4.615482028369939 -26.153587200885028 10.047281241229392 211 183 157 255
5.428301549059853 -25.720663541907555 9.896938354829267 214 183 158 255
6.658831681918485 -25.719368720894238 9.661750085119408 221 185 163 255
7.676980281210035 -25.507013219930400 9.469594138697524 224 190 168 255
8.970884889034210 -25.586075314267106 9.221349866263083 224 192 169 255
9.498127054754320 -24.874973303092446 9.128788884209861 221 189 166 255
10.578909880832697 -24.743971871256235 8.923701494982538 216 184 161 255
11.864150044789966 -24.834715935820867 8.676961102516799 210 176 151 255
12.663572712374787 -24.419851430033816 8.528928796935723 204 170 145 255
13.805218217642448 -24.372593730853168 8.311222468019416 199 164 140 255
14.738186845764005 -24.109279064808987 8.135899208534838 196 160 136 255
15.669126498160381 -23.848699787995315 7.960927204165948 189 152 129 255
16.598037341831798 -23.590855711984517 7.786306586583954 185 147 124 255
17.592997650253892 -23.409762515054524 7.598168119938485 175 137 114 255
18.449773546126551 -23.083372038379537 7.438119993608034 157 118 96 255
18.559522155787192 -21.940335264355525 7.430308657442382 140 97 81 255
17.995144425936076 -20.048163316653159 7.560017701006927 116 76 59 255
18.177595720905686 -18.972903068436267 7.537516026558350 99 63 47 255
17.890634722724457 -17.369908260528348 7.610842546124012 82 49 33 255
18.345679817161681 -16.590330118962584 7.532805843096902 71 40 24 255
18.131416638143691 -15.055118553440536 7.591443550070757 52 23 9 255
17.920586983173962 -13.515275170365726 7.649474300268558 47 20 10 255
18.179612591266959 -12.502567141536048 7.611591378824698 42 17 6 255
18.639236288370682 -11.716810286132215 7.532735732448756 41 16 5 255
18.369662980149570 -10.090358818293083 7.602985510474099 58 35 21 255
17.971541161587737 -8.305613986043511 7.699634192513109 69 51 32 255
16.917914355208438 -5.746618640062337 7.930532608177096 71 56 31 255
15.279423775503858 -2.483931632700546 8.281360983479388 63 56 30 255
-29.088532508384674 -4.517392792932185 17.771564156016090 214 186 155 255
-27.918097906047478 -4.264979910070736 17.548567068028973 217 176 155 255
-26.679087372893548 -4.085845932757309 17.311326585464421 206 162 143 255
-25.727447299704068 -3.631209032020536 17.133306972623480 191 146 127 255
-24.990311013824396 -2.968563300631445 16.999521171219826 169 124 105 255
-25.598540762339383 -0.970792899828155 17.143620910336736 135 93 74 255
3.718641246929138 -25.086087702219231 11.153827309952085 212 192 163 255
4.743567412093000 -24.864137197777467 10.958496022648092 213 184 158 255
6.254757456083098 -25.146746776130783 10.662425692208821 224 188 164 255
7.413135201952628 -25.076345912782017 10.439262418774717 226 190 168 255
8.776956835783693 -25.226169653729272 10.173440583900664 222 190 167 255
9.582265869353108 -24.803102721463176 10.023223005382448 219 187 164 255
10.317032191037384 -24.309405909246664 9.887578309154179 212 180 157 255
11.326722186938980 -24.107995843730635 9.694882971356023 209 175 150 255
12.471732150156555 -24.055617317648910 9.474035636924476 205 171 146 255
13.476397352273494 -23.860981673611860 9.282210985968049 200 164 140 255
15.095335786250843 -24.329799596493302 8.962787355574299 197 159 136 255
16.162203621599900 -24.217038450338748 8.757837306778690 190 152 129 255
16.817247014607460 -23.665086996123790 8.638349574410924 186 148 125 255
17.199423965663101 -22.818071398107065 8.575539220579721 175 134 112 255
17.989368011699554 -22.415716062016031 8.427968911428195 160 119 97 255
18.845636647414864 -22.089677201218592 8.266555436916640 142 100 80 255
18.822063907629911 -20.795275669843988 8.288130058120451 122 82 62 255
18.666187708911309 -19.347771485319015 8.337315347401734 102 66 45 255
18.513426284844428 -17.896065116808728 8.385948457255587 95 61 41 255
18.632045834366124 -16.741424193508010 8.378155440937391 85 52 33 255
18.819399496284689 -15.659850016267626 8.356096434926762 60 29 11 255
18.741277284015865 -14.273243756140772 8.389416760291255 54 23 12 255
19.265210512650157 -13.566570546627872 8.297287859100543 41 12 2 255
19.257648500385216 -12.250567233304054 8.316017595224132 38 10 0 255
19.120027341199773 -10.778434400487839 8.361964353574436 43 16 2 255
18.258378357339950 -8.459330807542216 8.559151500567083 51 31 11 255
16.809881817859292 -5.439780283651260 8.879106205517182 58 45 20 255
14.647302343556646 -1.559845477252736 9.348552556677397 53 48 22 255
-29.200483448774833 -4.240877425049121 18.830334189975240 213 186 155 255
-28.529370852263469 -3.501438484420532 18.710028619745422 212 176 152 255
-26.719368250261596 -3.877271430601695 18.350215049350183 205 161 142 255
-25.625403138581873 -3.561762467744188 18.140820473714584 189 144 125 255
-25.100866677266538 -2.688592058956885 18.051161948114725 163 117 98 255
3.990003674180713 -23.936249841408085 12.041233480151675 211 187 157 255
6.269926048882780 -25.003935657456225 11.579073806545416 222 187 162 255
7.497784066577452 -25.004948989653116 11.338687329312336 221 185 163 255
8.514025073288337 -24.794250558387034 11.142861140497288 219 187 164 255
9.666458550881003 -24.731279920382917 10.918174398889029 216 183 160 255
10.539452886184932 -24.382363170125558 10.752426766525609 209 175 150 255
11.893388881621775 -24.544741457133256 10.484935912567195 206 172 147 255
13.174574694109680 -24.639530574800546 10.232682988481415 202 168 143 255
14.246237952522421 -24.519783228562602 10.024623248325327 200 163 137 255
15.246761492645788 -24.330274648850974 9.831518717053605 197 160 134 255
16.381546529287561 -24.291098616977649 9.609894426323827 190 152 126 255
17.377047307991887 -24.108361844884513 9.417660781566411 187 147 122 255
17.418417044999927 -22.892574212451819 9.427530163007560 187 147 122 255
18.072351783695808 -22.341974227928205 9.307608153658776 178 138 113 255
18.928533014621024 -22.015721772307984 9.144760243674781 153 111 89 255
19.850509984934035 -21.766435747992006 8.967885093397015 132 93 70 255
20.097046511736750 -20.771053001349799 8.934298490405894 118 81 60 255
19.941686179013715 -19.323469807585838 8.986090671807716 109 73 52 255
19.990500124486658 -18.097634095977156 8.994618501577058 100 65 45 255
20.041463843557551 -16.868897672210210 9.002763370655174 90 53 35 255
20.027878066772189 -15.561511580268416 9.024706181771265 75 37 26 255
20.083300388304224 -14.326759306053873 9.032057621167787 46 12 1 255
20.074493412629067 -13.012925549575186 9.053150982876794 47 13 2 255
20.068155452512457 -11.695760631670112 9.073805858031783 57 24 9 255
19.271606032198719 -9.455876275634466 9.262834364425785 57 30 11 255
17.163450894897039 -5.670825112975024 9.731535502076767 41 26 1 255
-33.638061520499662 -1.185448409728053 20.793724003339584 119 111 69 255
-29.669510930828608 -3.618237336054904 19.967721604504810 212 180 152 255
-28.069831818530247 -3.779717516998858 19.648320665494751 212 174 151 255
-26.759407112971019 -3.668742569498363 19.390688252655906 205 161 142 255
-25.523305134653924 -3.492361761872019 19.148842702256886 188 143 124 255
-24.927739188263047 -2.689086488918349 19.044183714935009 160 113 95 255
-25.463084358901369 -0.760787381211344 19.182046485142017 122 82 62 255
4.681950049581076 -23.213751001789433 12.841476986944642 204 181 149 255
6.330636564944854 -23.640401476671741 12.507884027738385 213 183 156 255
7.627140467047724 -23.713825815382762 12.249858620877944 214 180 155 255
9.266129183974442 -24.153552845954465 11.917954801070280 207 173 148 255
10.347355092042619 -24.020391585435760 11.705956931898008 204 170 145 255
11.908228385628348 -24.399827500926904 11.390503447767877 204 168 142 255
13.532916400096923 -24.858838048719804 11.061092172901205 201 165 139 255
14.672288625325848 -24.812893553138139 10.836118709988256 200 161 135 255
15.398145618941186 -24.330799064876629 10.700228003616360 198 158 132 255
16.327717028282194 -24.070881887914055 10.520320946919554 193 152 127 255
17.391456599819605 -23.961296455285236 10.311356436860500 192 151 126 255
17.841086675169436 -23.189173768742052 10.234935659855452 188 146 121 255
18.087609833885409 -22.194051322550251 10.202411014450774 183 141 116 255
19.011480174680258 -21.941817991618990 10.023481644835044 177 131 108 255
20.270598813708517 -22.065648700558455 9.771950029170121 153 109 88 255
20.920432513916012 -21.520434862871696 9.652113779919716 144 103 81 255
21.032454476798364 -20.375422985465491 9.648675068452327 134 93 74 255
21.280252199727101 -19.378574808738904 9.615897359274442 123 81 62 255
21.596048929760457 -18.455658024694912 9.568428112613816 111 65 49 255
21.379495045141198 -16.925577154371751 9.636395384723933 83 38 23 255
20.966900863113750 -15.162965145192402 9.747016055769187 54 12 1 255
20.558702981852548 -13.394422165677696 9.856857963502179 52 11 0 255
20.353411533784310 -11.849146891607745 9.922828219462680 73 37 21 255
19.821502175326543 -9.916164188221614 10.059870668346960 72 43 22 255
17.714241076099228 -6.132421508738133 10.539411515115987 58 39 15 255
-32.530376380096698 -2.083161334165368 21.605754119654819 164 130 100 255
-28.709017604200824 -4.380316979159488 20.798557162347912 219 176 152 255
-28.038353762659369 -3.641331046619314 20.677664541849119 219 172 153 255
-27.083656356257450 -3.181582833432742 20.494787771748221 203 157 139 255
-26.059717907662673 -2.794025730972692 20.296716583643132 187 140 122 255
-25.250184245300659 -2.198896271790659 20.145354810022646 159 112 94 255
-25.359893089688228 -0.691017158550494 20.194709648145931 121 81 61 255
2.608646691737960 -20.922232751986087 14.224090771839322 181 176 129 255
5.234729876236997 -22.347750691332124 13.672044048313573 206 177 143 255
7.504353109241549 -23.426128609369101 13.197703048083042 208 174 149 255
9.281577918577085 -24.009547839989295 12.830984585472784 204 170 145 255
10.845856390096372 -24.383428465179094 12.510722950694365 202 168 143 255
12.611775568177052 -24.982093128759089 12.145977473000698 201 165 139 255
13.959630771496563 -25.151123150538496 11.872776927725042 200 164 138 255
15.097922913925061 -25.106051307465009 11.645438524830617 198 160 134 255
15.412741159161413 -24.184643949513458 11.598970847861501 197 155 130 255
16.410551112072852 -23.997878564747737 11.402333479360983 196 154 129 255
16.929649905476765 -23.297693105131913 11.310910937173681 195 153 128 255
17.855994703463267 -23.041730479007697 11.129832921204631 192 148 123 255
18.373931783067036 -22.343108794215453 11.038600978652781 189 145 120 255
19.364754329652897 -22.165761973480926 10.843166285602983 190 143 118 255
20.555453025338920 -22.215579882082324 10.603561016278768 181 135 111 255
21.204857285322760 -21.670803716740807 10.483181187296658 173 127 104 255
21.182650194824987 -20.376032023666113 10.510952855708965 157 111 89 255
21.430620700585820 -19.379188782823206 10.479185621157612 149 101 81 255
21.613011919827471 -18.305211147005878 10.461949833140309 134 86 67 255
21.863515731884434 -17.304948308949719 10.429725278208153 76 29 13 255
21.450759323681041 -15.543425541197337 10.544181458848790 77 31 16 255
21.307535717744202 -14.080701143693631 10.599213122057428 85 42 26 255
21.035176372113028 -12.460980854607669 10.682957515750090 93 51 35 255
20.634643524192597 -10.682966775257626 10.795245231762095 89 56 36 255
18.988253049916949 -7.439221444952949 11.183704754640054 82 57 35 255
15.776935645306224 -2.332172454407271 11.919465040283185 66 52 26 255
-40.526552369634146 -1.354483344345397 24.286990689102630 171 145 110 255
-37.381023121545866 -2.905120921246919 23.619012610381709 184 151 118 255
-36.840144863456828 -2.010084443074732 23.527248101148068 186 148 115 255
-28.919689092535066 -5.396465985412533 21.855455478017078 196 152 127 255
-28.249317932896702 -4.657801864564760 21.734295249963765 219 172 152 255
-27.721818475385248 -3.780794271822231 21.644812260391596 218 171 153 255
-27.123025519256998 -2.973145803772070 21.539495502519458 205 155 140 255
-26.666138656905446 -2.025851544602801 21.465686533895841 186 135 117 255
-25.854987842567994 -1.428337373333818 21.313150261766332 154 108 89 255
6.688974946654497 -22.417867257898735 14.302350431652009 206 169 140 255
9.089778587920051 -23.648755285829338 13.791379629707670 206 168 145 255
10.723114754301889 -24.094049702183241 13.451474490851602 206 165 143 255
12.075963791311096 -24.255571669477064 13.174017399789314 204 164 139 255
13.424851713358123 -24.422434589837195 12.897249229694573 201 162 136 255
14.701291673215053 -24.521490652155791 12.636496589809333 199 159 134 255
15.290828610700800 -23.891810295528728 12.529356960512651 199 155 131 255
16.016276985951635 -23.409856683178674 12.391743755726509 199 156 131 255
16.400638150012924 -22.560344875321562 12.330516705786422 203 157 132 255
17.396139386777747 -22.376232444519360 12.132269011815900 198 153 127 255
18.389290635310658 -22.195288159378379 11.934428056226452 197 152 125 255
19.582659429284945 -22.240858047659600 11.691525121696742 194 147 119 255
20.233821746914600 -21.693570472506252 11.570223105152998 189 142 113 255
20.884242706092493 -21.147281370698352 11.449045065459480 181 135 108 255
21.265761449637182 -20.301593916895911 11.388276455706638 176 129 103 255
21.848463160640819 -19.681118629240501 11.282276715705649 165 117 92 255
22.163869241100429 -18.759077983998679 11.236403605107263 136 86 65 255
22.347023724387782 -17.684370669396770 11.220344829822601 124 74 56 255
22.199696228880100 -16.227800395912595 11.278804810742876 123 75 58 255
21.989243734861162 -14.690848439294200 11.351640295159449 124 77 60 255
21.716147108007931 -13.072866203338691 11.438766675359268 108 65 47 255
21.380887095494415 -11.373205250981130 11.540099361416779 101 64 43 255
20.720920452138898 -9.283891113369066 11.714932967373905 94 64 43 255
18.754718937559915 -5.645960603538924 12.185090881490396 84 61 37 255
16.080820462984661 -1.141813822865515 12.815782079684674 60 51 24 255
-56.714851390552838 -2.087408848181383 28.653687696533005 206 181 149 255
-54.226287551728888 -2.867382962111833 28.127289491631181 198 169 139 255
-54.622760327529420 -1.085767359363899 28.247062330721313 203 167 140 255
-48.925309491319183 -0.515985506145057 27.092706052198089 203 163 137 255
-43.981369584809840 -0.796989831307201 26.074061119654573 198 154 132 255
-41.835299891201885 -1.377042656833169 25.621963576592918 200 159 135 255
-38.394504825605054 -3.189036225610096 24.878078126125978 199 159 134 255
-34.749951199922350 -5.222574584304027 24.087662539579121 203 158 134 255
-34.142548072511261 -4.403320498029132 23.980865221964322 203 160 134 255
-32.386011735806278 -4.681463226403139 23.615005174128832 193 150 125 255
-28.986441289226150 -6.549045392073310 22.878305082174883 198 153 130 255
-28.602701468630244 -5.535079431822794 22.821475403442406 208 161 141 255
-28.503453336311338 -4.242994659229396 22.828901624721333 218 171 153 255
-27.903775349159616 -3.434142915794098 22.723387434597093 214 166 150 255
-27.304192920614923 -2.625416760517567 22.617875615172302 193 146 127 255
-26.988138610025544 -1.537272235339572 22.576450660895048 174 126 104 255
-26.458802442489912 -0.657828297511571 22.486823942337359 148 102 80 255
6.290340123591648 -21.842024462678353 15.320070410938236 196 172 136 255
9.105659454982629 -23.504846706107259 14.707304370785877 202 168 141 255
10.738552838265093 -23.949710985975685 14.362983781603688 205 166 143 255
11.747333859340074 -23.747239995622067 14.160445984607755 207 165 141 255
13.165372849879986 -23.985517418776851 13.864571827487360 207 162 139 255
14.305366913220126 -23.936981666890773 13.631824038196093 205 162 138 255
15.100968019213724 -23.525663235063149 13.477429157819124 204 159 136 255
15.622708619723227 -22.821887422110677 13.385423447003213 203 159 134 255
16.076392822966227 -22.044444475904726 13.308936595282738 204 158 132 255
17.004879892905592 -21.784803205879086 13.124030271403051 200 154 128 255
18.134247498297611 -21.750591721233633 12.893113704077614 200 155 126 255
19.260622395427589 -21.720415360545189 12.662717273200158 200 153 125 255
19.845486416845148 -21.096949681143116 12.556014095866665 197 150 118 255
20.497084503794781 -20.548931235953262 12.434009533742675 190 143 114 255
21.080947736056430 -19.926812291958584 12.327468717114471 182 135 106 255
21.864889647313362 -19.531205105746977 12.175060583029008 169 122 95 255
22.047398006957877 -18.457671928136449 12.160439135283148 157 109 86 255
22.497460580881352 -17.685099333465899 12.084525926624956 161 110 88 255
22.615990450685160 -16.532397415319082 12.084700206682790 147 96 74 255
22.736348549722834 -15.377228042372508 12.084546156230111 137 91 67 255
22.594414154942996 -13.913997721162048 12.144743611269995 128 84 60 255
22.389721556048926 -12.369954140666323 12.219528271848098 116 78 52 255
21.925623828157256 -10.513954834804878 12.354155220293514 108 75 51 255
21.007398670383481 -8.112261122791438 12.593539751141030 92 67 44 255
18.788362685564664 -4.155899274927890 13.132823593756321 77 63 36 255
-59.395541573153707 -0.992316943676315 30.338375484642221 160 137 101 255
-55.936647038234355 -2.612069076055036 29.584499815557756 204 167 141 255
-54.189378025513690 -2.736345611869979 29.219861854693939 200 165 142 255
-53.700257826159088 -1.745874735505254 29.141693634265813 204 164 142 255
-52.769218455022894 -1.151715386958927 28.962766607694000 205 163 139 255
-51.545964617474283 -0.824996973680243 28.717081939953793 209 169 144 255
-47.542484364653205 -3.033355278530564 27.836628724770854 202 165 139 255
-47.792148993743524 -1.385378800804290 27.926678511059613 204 165 142 255
-46.288158670346547 -1.341573757350261 27.616215610542064 206 164 144 255
-43.842393226626598 -2.177646739378702 27.090227338432520 205 167 148 255
-42.493601960808235 -2.012373426750116 26.814695102192260 207 168 149 255
-40.061741735920918 -2.867193189544651 26.291115337939715 207 169 150 255
-36.626349120242935 -4.683988894550737 25.537313022061809 207 170 151 255
-35.366722168030606 -4.473572072931915 25.281245648260438 209 168 150 255
-33.030975674786021 -5.292621930063206 24.778354196921249 212 167 144 255
-31.061968846243417 -5.779346258887244 24.359128295913571 211 166 145 255
-27.595210922486217 -7.719217138013164 23.595907513947139 211 166 145 255
-28.857593768719767 -5.121610572574582 23.917603314883991 213 168 149 255
-28.471886371293522 -4.105165229087277 23.861190661731875 214 169 150 255
-27.800769900478997 -3.365340735372513 23.739220985099664 213 166 148 255
-27.272016459743043 -2.486739849330434 23.649946376881019 184 137 118 255
-26.884659150449636 -1.468058431140264 23.593196809845494 168 122 99 255
5.615617035260016 -20.977988428796095 16.406079370581239 157 166 115 255
7.671892811040806 -21.843145972610330 15.959796649814805 197 172 138 255
10.065368680582509 -23.080467371459122 15.435024276843095 205 168 142 255
11.556748082635409 -23.384383939087229 15.118761484498101 207 166 141 255
13.112077117671674 -23.767439664369732 14.787408422482969 209 164 141 255
13.978541772668109 -23.425671217325799 14.615553804482701 208 163 140 255
14.979765044130886 -23.232930924237309 14.412319607672679 206 161 138 255
15.706349546975503 -22.749036283957821 14.272719387066658 204 160 135 255
16.499781642013062 -22.340371991593258 14.117518939896712 204 159 133 255
