ply
format ascii 1.0
element vertex 658
property float x
property float y
property float z
property uchar red
property uchar green
property uchar blue
property uchar alpha
end_header
-30.169450825859798 -7.708152380639561 -0.628978731394369 168 132 110 255
-28.955857024325809 -7.404954854488992 0.037932768916761 162 126 104 255
-27.831844660091718 -7.075139832900305 0.656377329233749 152 115 91 255
-26.977522783218433 -6.649341732426080 1.129106836077057 140 103 77 255
-28.103915972544172 -5.468775121594419 0.532267197815855 127 90 64 255
19.485525575785459 -20.052806482811860 26.285004756938605 186 154 138 255
21.160967179433641 -20.117892469940131 27.198586040162041 182 150 135 255
21.845070124702829 -19.789272591490700 27.577105282892475 180 148 132 255
22.168642658236251 -19.316854410622085 27.761055312906052 181 146 127 255
23.935653941886528 -19.442346364518201 28.723751004487809 178 142 123 255
25.432618427801231 -19.465880404425050 29.540625212274378 176 137 120 255
26.478908288781867 -19.309435632247002 30.114280105009470 175 135 119 255
26.261966367865085 -18.626393441353926 30.006503164977516 169 127 111 255
26.044934514107723 -17.942010777121098 29.898719386269022 167 123 107 255
26.369549413129278 -17.487899244197934 30.083079666466020 169 123 108 255
27.507021405059902 -17.385559550734925 30.705756839282003 170 124 109 255
28.825535123766826 -17.368290327937146 31.425968505913360 168 120 106 255
30.054172754706741 -17.319462911819642 32.097625242262112 168 120 106 255
30.650755970213169 -17.000118588813152 32.428451236596629 171 123 109 255
30.976426030324006 -16.564390568995464 32.613209134816913 173 124 110 255
31.031035192993301 -16.009823507347718 32.651857445336603 173 124 110 255
31.718475094893421 -15.739022272313221 33.031595994154245 179 130 116 255
32.677407905394404 -15.594583177070589 33.557606495492323 184 135 121 255
33.094050013809181 -15.209491986058211 33.791330439914233 181 132 118 255
33.601277857940289 -14.868102877689054 34.073850451979055 180 132 118 255
33.837261713220016 -14.404839636219791 34.210210380949846 180 132 118 255
34.073311255774456 -13.942847369804738 34.346610183746222 179 131 117 255
34.852441167027052 -13.734976001498126 34.775559564244887 177 128 114 255
34.545604889715520 -13.022640953843180 34.619529536206002 178 129 115 255
34.872383250086415 -12.607099283710482 34.804809875449592 181 131 117 255
35.018153679630529 -12.107413167764051 34.892608751438289 183 131 118 255
36.250776677372102 -12.127260195224849 35.565676425794479 182 130 117 255
36.396803929212297 -11.632212400385100 35.653591658646278 181 129 117 255
36.542859419070282 -11.137826517342589 35.741537838728831 180 128 117 255
37.232652280207390 -10.908458633652970 36.122215513215565 175 123 112 255
38.557115656872412 -10.993381074623301 36.844494011853897 173 119 107 255
39.066173631222028 -10.684590119081619 37.127788845456195 171 117 105 255
38.578040374861416 -9.884880447897174 36.874384208194414 170 116 104 255
-49.893899050222188 -16.056674530830563 -10.556317805887858 183 137 124 255
-49.224977736916088 -15.451149819000136 -10.185001597383433 99 52 42 255
-48.286271771733396 -14.936553639407151 -9.668734876561274 173 133 121 255
-48.245838147134833 -14.136339806030961 -9.635269892991772 148 111 101 255
-47.306605754368178 -13.630828275721271 -9.118815195953829 53 17 6 255
-45.288306318943199 -13.487466975643869 -8.022623304483545 48 12 1 255
-43.179369712393367 -13.386397083075863 -6.877891611805552 117 84 65 255
-43.587596592183360 -12.451813301082595 -7.085630135318752 177 145 127 255
-44.895382758729596 -11.210038595465548 -7.776553966195905 151 120 102 255
-45.394010093395735 -10.237547640439701 -8.032712014111524 135 104 84 255
-48.682005723839296 -8.300174673546806 -9.786996591903858 115 86 68 255
-46.301797915190633 -8.315537847825794 -8.496801389088745 92 68 50 255
-46.170890777725816 -7.555987541732961 -8.414712081219903 57 39 21 255
-30.648735830995207 -10.723446180862780 -0.045547902840894 183 161 137 255
-29.524156858795010 -10.372190490919223 0.569368541032105 160 131 109 255
-30.110822464867141 -9.402294353497993 0.265603074916925 146 111 90 255
-30.247185628611845 -8.594980057641195 0.203612683090682 146 109 89 255
-30.473718562809864 -7.753515795062626 0.093258402276660 152 117 96 255
-29.168040518783954 -7.484241725321866 0.805242465942399 150 115 94 255
-28.583107584952671 -6.950888106054563 1.130359939243249 142 106 83 255
-28.268471203829421 -6.318325401191544 1.310410239660541 133 95 69 255
-28.675194347959092 -5.411413528872245 1.103414399717650 136 95 69 255
-28.721270568517554 -4.641391396659245 1.089963584969240 136 95 68 255
-28.496722476007648 -3.976408930994708 1.221717814993809 142 100 74 255
-26.918622416820142 -3.843097484176297 2.079536860917699 131 90 65 255
-25.971700840147520 -3.469945503028939 2.598697294105818 112 75 49 255
17.737593887452391 -18.257043075073483 26.080323637431775 187 169 147 255
17.699718713245232 -17.625328849620004 26.069416602134027 185 165 146 255
18.836309368380739 -17.477557357663230 26.688167678986218 178 161 137 255
22.684146278016726 -18.462038378244543 28.760219915832366 178 155 131 255
23.279752920697860 -18.109280277491806 29.088718273666800 176 149 126 255
23.965956118898816 -17.798122720540661 29.465743130238081 175 144 124 255
24.652393839242393 -17.491044529175042 29.842855574748612 176 139 120 255
25.429492380784779 -17.226639067787247 30.268513061685155 169 131 113 255
26.568629313523957 -17.122327372333245 30.888115795326314 166 124 110 255
28.341378098778478 -17.298789928963004 31.847119460412515 167 122 108 255
29.571897716428168 -17.249343124070009 32.515493313539636 166 120 105 255
30.259894036891183 -16.969092848721431 32.893154043373215 167 120 106 255
30.314564094009882 -16.413182192837041 32.931537975121771 166 118 105 255
31.002910112856540 -16.139112416736964 33.309340984583770 165 116 103 255
31.872569834944812 -15.950079864179443 33.784210783196812 170 121 108 255
32.833083725482084 -15.806938120530432 34.307680498844192 174 125 111 255
32.435317649066008 -15.053742465038439 34.103780584736299 173 124 110 255
32.943291304689126 -14.711217078373593 34.384893177281214 172 124 110 255
33.542035739094530 -14.413200154748310 34.714582688280842 174 126 112 255
33.959730016142998 -14.034905771826018 34.947324814668633 176 128 114 255
34.286914585188896 -13.616827159497234 35.131609401619585 175 126 112 255
34.160914449947626 -12.988485779626004 35.073335727199762 174 125 111 255
34.760227164436344 -12.700690620590592 35.403277732184293 175 126 112 255
35.450423552404175 -12.459281149886351 35.781828481804723 178 127 114 255
36.322258624538080 -12.308306663710667 36.257536912264214 180 128 115 255
36.105717942458796 -11.640291196677154 36.150871441284153 180 128 117 255
35.889071930448608 -10.970743082362674 36.044202420767391 178 126 115 255
36.579875314158897 -10.740222006761584 36.423019310620930 173 120 112 255
37.633992574799464 -10.690967787783535 36.996136738952501 172 120 109 255
37.599001780019336 -10.112561784577878 36.986681706849168 172 120 109 255
37.473163394227015 -9.488796653058131 36.928679075377119 172 120 109 255
-51.848704868804845 -15.588129916536289 -10.645728355973574 190 160 139 255
-48.749827172771774 -15.750404025218231 -8.979129128657348 134 96 83 255
-48.529287674158041 -15.007417146853697 -8.849861106011673 87 51 39 255
-47.678669566546517 -14.470041497777046 -8.384149324403523 169 134 127 255
-47.277815691198640 -13.790932753154451 -8.158638994995357 164 130 121 255
-46.876812384779413 -13.114471390374320 -7.933067106671785 140 108 95 255
-46.655754243808843 -12.380741659933406 -7.803577221153603 102 71 55 255
-47.245179550076472 -11.376555693722722 -8.106734695718188 113 84 69 255
-47.474493928607643 -10.491043006975971 -8.217610000999514 142 114 100 255
-48.064266774749200 -9.481329669666323 -8.520835390843359 136 110 94 255
-48.924580310251628 -8.375207229220607 -8.968377109552165 111 90 73 255
-48.974052326132636 -7.545853292349747 -8.983127721074368 87 71 56 255
-48.753109921272511 -6.811110855231306 -8.853561512468815 30 20 5 255
-46.097782308523307 -6.937548727798315 -7.425105126614824 13 6 0 255
-32.533234257526743 -9.437341815911140 -0.154502285472802 193 173 155 255
-31.587370383786578 -9.019235031305044 0.361089761681711 157 129 111 255
-31.182610557396771 -8.407793569250373 0.588026087060456 148 114 95 255
-30.236172830174979 -7.999641483765942 1.103829212667904 147 113 93 255
-29.740761434863856 -7.428630759718075 1.379058452082916 151 119 98 255
-29.425753920276435 -6.792697374124160 1.558073178477997 140 105 83 255
-28.749421127101215 -6.295813536422202 1.929734388348862 142 104 80 255
-29.156699172895372 -5.388626407040192 1.723651788677017 154 113 86 255
-28.660762106441638 -4.827150984801051 1.999124144214164 163 119 92 255
-28.616419289114418 -4.093330900376287 2.033857417283826 165 121 92 255
-27.578008955132560 -3.748653048524915 2.598454581975147 158 114 87 255
-26.991161753439940 -3.232154598802154 2.922322231009360 131 91 63 255
-26.313712415520598 -2.755097524691692 3.294448856420246 103 66 40 255
-26.721042018710335 -1.848235777318635 3.088493045478998 86 52 27 255
-27.761565437480868 -0.683964758294834 2.545215499831642 67 39 14 255
21.030190427017772 -16.703655819673656 28.597799243904674 155 154 118 255
22.079440911940594 -16.541956318189108 29.165778235449011 165 154 121 255
24.360191846076816 -16.315006919543123 30.398570349074745 178 151 129 255
27.131897397972722 -16.916189254406063 31.883352812183375 179 144 126 255
28.273555243088822 -16.824537577667343 32.500170071841112 176 136 119 255
28.962462410279784 -16.541243182422974 32.875914014750919 168 126 112 255
29.107727752150396 -16.022268372879935 32.962269209963381 166 123 111 255
30.250308551069651 -15.946554031180412 33.579417204002027 162 117 104 255
31.574640303191444 -15.958590094085807 34.293210664827015 161 115 102 255
32.536653040146831 -15.815382058424049 34.814116859893019 164 118 105 255
32.229038452351205 -15.103221920353903 34.659434786075380 166 118 104 255
32.193474450950305 -14.513025092135123 34.649548167104882 170 121 106 255
32.793084183752370 -14.213592441386822 34.977593135777695 173 124 109 255
33.483649833484975 -13.959475462332051 35.353995810568620 175 126 111 255
33.629781723306763 -13.456539578642278 35.440790054084758 174 125 110 255
33.503562815161331 -12.827083457636689 35.382756192544491 171 122 107 255
34.466993307666229 -12.708871542600633 35.904231931103041 169 121 106 255
35.339923008965258 -12.553318547863412 36.377526867707118 170 122 108 255
36.303988141982501 -12.446058563799923 36.899229203086037 171 123 109 255
35.451185892359689 -11.474316448600391 36.454938014515022 172 122 111 255
35.506807242938891 -10.934988525575449 36.493681481259102 171 121 112 255
36.107777790992174 -10.660082677415161 36.822336998587033 170 120 112 255
36.981667678788227 -10.521550394085878 37.296028642848015 168 120 110 255
36.764734644895583 -9.852810551981236 37.189945590714046 168 120 110 255
36.729577219220829 -9.272248748032737 37.180517066998291 167 119 109 255
-51.245357292523551 -15.105692611243782 -9.355791431126079 178 161 141 255
-51.295109402671784 -14.269865161785091 -9.370838013608335 180 158 143 255
-48.821059484389849 -14.249994064274631 -8.046831401533666 98 72 65 255
-47.698405772913276 -13.803985862887799 -7.439954632172402 88 60 53 255
-47.567197237895442 -13.038442817331244 -7.359095315044499 98 71 60 255
-49.149437715595894 -11.704872521271028 -8.187111291670362 89 65 51 255
-49.830233459146854 -10.664281047520433 -8.536854988371289 112 89 75 255
-49.969969365910600 -9.802783644494653 -8.599569245217822 121 99 85 255
-49.207427693368601 -9.248251369857826 -8.183759984231500 124 104 89 255
-49.437345056900341 -8.357183361224443 -8.294270999553220 68 54 38 255
-50.028400415724178 -7.339759850380702 -8.596230966045255 28 21 5 255
-52.876679576633279 -5.529852780400432 -10.094887054452045 10 5 0 255
-46.606010088664704 -6.918515767657013 -6.758855324330995 7 5 0 255
-51.170635847530974 -4.492193139353304 -9.167228294386319 2 2 0 255
-35.687676119180111 -7.681811401970350 -0.926613217900780 183 165 149 255
-32.210055314333005 -8.187502645034300 0.927354966195423 159 132 114 255
-30.719849253547380 -7.978112622230512 1.727919626713515 157 124 104 255
-30.314028242951366 -7.373062157019703 1.953810270220373 165 129 110 255
-29.546365773897463 -6.906512552573332 2.371401723150314 154 118 96 255
-29.321084831236220 -6.239070143263874 2.501612463632767 157 117 95 255
-29.457561028692709 -5.434933327841847 2.440194488173177 163 119 95 255
-29.141723887893733 -4.804074670767093 2.618401063487084 172 128 101 255
-28.282841797691759 -4.385608270136302 3.084231297909866 168 122 96 255
-27.423661695297824 -3.972332710355118 3.550173681242455 163 116 90 255
-26.926273648642308 -3.421789356597031 3.824478365061736 140 95 69 255
-26.519256689408394 -2.838376580685420 4.050915431200110 115 75 50 255
-26.655433877516657 -2.040507105836312 3.989736539396830 95 59 33 255
-27.335097579738715 -1.023303492149608 3.640857364492717 76 46 22 255
25.755916562524504 -15.280227909620251 31.855680899311835 178 148 130 255
26.445620976530876 -14.992218155959279 32.229502045663054 177 144 129 255
27.952746726699928 -15.070241846635724 33.035562021049984 171 136 119 255
30.459366944393452 -15.602633234853798 34.370026730552382 163 124 109 255
31.513562452461287 -15.497672354545273 34.936354148150457 164 120 107 255
31.477938611402436 -14.906436563208970 34.926445408876560 167 121 106 255
31.169686024056347 -14.190913478325939 34.772449301390481 168 121 105 255
31.315705358789216 -13.681318472319646 34.858639733080395 169 121 105 255
31.916242755315295 -13.381736064263151 35.185085099223897 170 122 106 255
33.062459008958740 -13.338387390404890 35.799901976577615 171 122 107 255
33.481621462138889 -12.962517873523666 36.030430554280883 165 116 101 255
34.264699672420193 -12.759700481841520 36.453251829579841 165 117 102 255
35.229964125111138 -12.647308328642765 36.972296010225037 166 118 104 255
35.740651768264371 -12.324394909673188 37.251124641303051 168 120 106 255
35.705516783183953 -11.743342134838556 37.241599187455549 168 118 107 255
35.852367679794753 -11.249403720356455 37.328242633697627 167 117 108 255
36.363363507736523 -10.932315700383526 37.607241894665464 165 115 106 255
36.419282545393230 -10.396445428763784 37.645890959423468 166 116 105 255
36.202001160347749 -9.726858706404954 37.540300664474699 163 113 102 255
36.622169196360460 -9.369815962925472 37.771364360126398 163 113 102 255
-53.436258540389332 -13.734669891435075 -9.546542557312648 122 120 97 255
-52.132199163149011 -13.330749886069626 -8.847887937426918 162 150 135 255
-47.445647986998864 -13.229576697751341 -6.355343183229564 136 117 105 255
-51.378462176959403 -11.119083391342926 -8.417056798844442 97 80 66 255
-51.970179621837957 -10.103331530949035 -8.717688127768611 75 61 45 255
-50.755032171075044 -9.693967291465498 -8.066111921823875 37 23 11 255
-49.900929073290200 -9.169052430991840 -7.604853216013112 20 5 0 255
-50.402305897331047 -8.184094529039527 -7.857812985241338 14 5 0 255
-49.095824968111430 -7.822199268292607 -7.158265525556573 10 6 0 255
-51.134337771634904 -6.300498427582539 -8.220930571615156 5 5 0 255
-49.284919262135617 -6.135578322088165 -7.235418630302604 3 4 0 255
-53.314090033579674 -3.895310866837477 -9.346373837764759 1 2 0 255
-42.375495552941601 -6.197594904718926 -3.562803975853825 1 3 0 255
-33.826346425731884 -8.516782978832012 0.950176832186060 41 33 20 255
-33.329931136048828 -7.934119514369002 1.222301958377699 176 156 138 255
-31.656448611102206 -7.789374961376183 2.114150128072538 169 138 118 255
-30.616201175586497 -7.418691173097727 2.672507408073926 169 132 113 255
-29.666151931644009 -7.020326569023382 3.183322281168302 166 125 105 255
-29.259243536548496 -6.422173359124926 3.408183064851016 171 126 105 255
-29.305172078607512 -5.653893689044665 3.394688665020311 177 130 107 255
-29.169903114690300 -4.955016769024283 3.476590954609662 177 129 107 255
-28.218950119900711 -4.572632114683458 3.987774396157732 171 123 101 255
-27.902171193950409 -3.948609224261403 4.165192017435800 162 112 87 255
-27.494630199984414 -3.362135858140903 4.390369860027164 142 95 72 255
-27.631009330947251 -2.562860805550216 4.329367331984031 122 80 56 255
-27.041913951824171 -2.052000715016177 4.650075487999885 102 64 41 255
-27.178285926989929 -1.253317769964767 4.589131512132184 83 51 28 255
5.752728853212034 -8.638836295781530 21.998590828369771 103 67 41 255
4.713121059087513 -7.542461961604602 21.461865328922840 76 38 19 255
28.068282729391512 -14.679861120461979 33.782053060439424 179 147 129 255
29.396643305531057 -14.690849709592570 34.488852032492971 173 135 120 255
30.270534127080992 -14.504491501650648 34.956827187674619 173 130 114 255
30.416702646004779 -13.992767038658201 35.042508797046096 170 126 109 255
30.289845403581552 -13.357027721010652 34.984812521086823 166 123 106 255
30.709127199913894 -12.971496499663502 35.213983100588138 165 122 105 255
32.221152304939551 -13.093847689400747 36.016986317489739 164 119 102 255
33.551564325196097 -13.140301361222797 36.724525341219348 164 118 102 255
33.425082319944181 -12.511767158942931 36.667050235309262 162 116 100 255
33.754032107803880 -12.097020598656854 36.848723205748186 165 118 104 255
34.629778875271541 -11.943383344678850 37.317443839526803 167 119 105 255
35.050145193539009 -11.577317149328280 37.547091209500849 166 118 106 255
35.835238279673206 -11.388642539013318 37.968167006164023 165 115 106 255
36.164750790304623 -10.984233571312927 38.150115786765255 164 114 105 255
36.311984684377052 -10.492924385644642 38.236420381776142 166 116 105 255
36.641642053038339 -10.091439365700452 38.418471566416031 165 115 104 255
37.609909215038044 -10.005776220858706 38.935589943822265 161 111 100 255
-52.658564230353392 -11.670040762923477 -8.148856622099572 31 22 11 255
-53.522509222480693 -10.563453170620178 -8.590262130171737 21 13 1 255
-50.364804293049730 -9.981470570729400 -6.914873307506781 21 13 0 255
-53.400958856085794 -8.136688751490013 -8.493414099734593 17 8 0 255
-50.784755755263205 -7.397194379348278 -7.101722152583704 7 3 0 255
-49.838178422379457 -6.913191918904289 -6.595220703199715 4 5 0 255
-51.246114010031846 -5.607505333747341 -7.321049040792417 2 3 0 255
-33.092225824851226 -8.178454800104518 2.232386738410668 23 17 11 255
-32.322687719608751 -7.701047618280896 2.645482736935378 182 161 136 255
-31.099463851263607 -7.396907868529595 3.295861959749999 179 141 118 255
-29.603712602055253 -7.202107285845400 4.088715176250645 175 133 109 255
-29.377459914843001 -6.536748471958461 4.217518026049248 178 132 109 255
-29.151135033897418 -5.872824432930628 4.346369228920992 183 139 114 255
-29.287731471746184 -5.071150154601881 4.285450526305823 181 134 110 255
-27.972156753993460 -4.829759913507203 4.983892267771296 178 126 104 255
-27.654709809217962 -4.207584075677389 5.160391598714540 165 115 88 255
-27.246364470461771 -3.622953832008875 5.384418239574529 149 99 75 255
-27.382762982806611 -2.825546672795198 5.323671959143212 130 83 61 255
-26.883419701293718 -2.280376546909920 5.595284948399183 111 69 45 255
-26.838138414481051 -1.556123123439491 5.629561245470910 90 56 32 255
-27.247163000692439 -0.648718935625851 5.426430636954507 70 42 18 255
1.999368756498995 -7.848050416341550 20.778729866357821 150 109 81 255
3.869571673610437 -7.988035390752685 21.765237716085565 142 84 68 255
4.921354117676771 -7.786971205500905 22.324195773905743 117 62 49 255
4.881202004887541 -7.119323792359509 22.312877229317323 84 35 23 255
4.841014014992510 -6.451343698086546 22.301580103471693 61 23 8 255
4.345504153825232 -5.583309024912907 22.052588494311010 50 21 5 255
27.092019204960906 -13.802645132358947 33.955617275175655 186 151 135 255
27.784662958872786 -13.528158007741325 34.326042586698492 180 139 122 255
30.756010832824671 -14.290291548039164 35.885711980340758 174 136 117 255
30.173339880979597 -13.448549257775184 35.590449031144445 170 132 113 255
29.134572643492277 -12.393904946950798 35.057276820793859 168 130 111 255
30.010363458232575 -12.217467379391792 35.523197858060200 168 127 109 255
32.528136486222223 -12.809256368965791 36.845744174732332 168 125 108 255
33.313583840847741 -12.605216059617689 37.264379823700338 166 122 106 255
32.639476915132832 -11.718577195441824 36.921627766140659 166 120 107 255
33.790191747750043 -11.692061065098287 37.530785751384315 166 120 107 255
34.484938432498296 -11.454778216761099 37.902071150148799 164 116 104 255
34.632179556657348 -10.958841291189358 37.987810431751086 162 114 102 255
34.505529112780437 -10.331427087730191 37.930756353919236 162 114 102 255
35.200692052692176 -10.101857237848080 38.302253674083587 163 115 103 255
36.261427898692943 -10.054586104305500 38.864323089338455 162 113 101 255
37.322517928693770 -10.013441231684766 39.426520654909666 159 110 98 255
-54.584610407078429 -10.367279146969238 -8.188960698905333 10 7 0 255
-52.097538882044859 -10.371555951700472 -6.884270977050534 13 10 0 255
-56.235530586293777 -6.504568486586564 -9.004064508212622 9 7 0 255
-52.930902069433074 -6.815928312420453 -7.274411460758614 5 6 0 255
-31.127611597602680 -9.053002180058655 4.135827782130718 2 4 0 255
-32.626527029949301 -7.746532958491287 3.367003953747599 164 154 127 255
-31.764639063457167 -7.307736733391806 3.825279750741487 189 155 128 255
-30.902452903262343 -6.874168104653634 4.283671779213677 185 143 119 255
-29.767409847091841 -6.548569807979433 4.883812396436241 188 142 119 255
-29.540665024130448 -5.884605294637609 5.011942743264740 186 142 118 255
-29.313849577738182 -5.222066554544526 5.140123044965407 185 137 114 255
-28.541555214231749 -4.771305381936912 5.551703532253356 181 129 107 255
-28.314503775458576 -4.113213137986293 5.680012784863038 169 119 93 255
-27.814582374578237 -3.563322354415135 5.950075966273204 153 103 80 255
-27.678296255905963 -2.872961046530975 6.031261524298230 134 86 64 255
-27.087144507549283 -2.364147469349533 6.348708025740933 116 74 50 255
-26.768744178458121 -1.749635383670920 6.524497564618599 94 59 34 255
-27.269233581567050 -0.806886496270522 6.275068415235381 75 47 24 255
2.933434336351212 -8.398074213432892 22.024203864108571 189 134 114 255
3.804323342249091 -8.114382998657817 22.485666565349433 168 112 97 255
4.584358451184841 -7.796686324283144 22.899949111098266 141 88 73 255
4.908844367683685 -7.286584757256733 23.077838855483293 97 48 33 255
5.598135585328663 -6.936990496049816 23.445005558758595 96 54 36 255
5.010932426554490 -6.032268344459240 23.149944524776117 77 38 20 255
4.605915306643737 -5.204348757880439 22.949478919452702 77 42 24 255
4.656862458010210 -4.576300765555771 22.985590611651872 80 42 25 255
27.866349652028305 -12.542262326371500 35.059087899326002 177 136 118 255
24.816890883189558 -10.560989434564803 33.486921539339832 175 132 115 255
28.159107554483398 -11.509698797247793 35.228644387681868 177 132 115 255
30.680424647623482 -12.096699639238594 36.544575763806805 177 130 114 255
31.649525547911935 -11.973274583154776 37.055760270009770 174 128 112 255
32.527573076776406 -11.812519801757745 37.519707504625785 171 125 112 255
32.035028757955502 -11.008596309878484 37.273320397925517 168 122 109 255
33.279038737698016 -11.027798095309436 37.926895664497962 166 118 106 255
32.329262953291931 -10.003908124201743 37.443690670053144 164 116 104 255
32.567853698499619 -9.546574270465214 37.576314261490595 164 116 104 255
33.538166666295524 -9.444932132294994 38.088035060848526 162 116 101 255
35.149126514871938 -9.660986272245609 38.931573708601036 159 113 98 255
36.303179954772844 -9.662147774153681 39.538346524361401 154 108 93 255
-57.100355240368032 -9.692283854833278 -8.534774758038822 5 13 0 255
-67.548437748105556 -4.523007935262612 -13.913063728482172 6 11 0 255
-59.611955846967277 -6.349627473347155 -9.800503445647195 5 7 0 255
-53.034631332458474 -7.758411030837806 -6.390847920389518 8 10 0 255
-56.444455265201526 -5.765668507609163 -8.142052804573524 7 9 0 255
-34.249793807350187 -6.544493802306732 3.416763205551177 201 171 145 255
-32.294907310914738 -6.512358568291504 4.436341153852425 195 156 131 255
-30.521317856478817 -6.423428410463217 5.362198681919949 193 148 125 255
-29.839186150316351 -5.930920795657386 5.724495421046271 193 147 124 255
-29.520913366632527 -5.303395418312803 5.898947424004348 190 141 118 255
-29.202539257492134 -4.677826994470379 6.073460506226951 183 132 110 255
-28.519845283073238 -4.195511532638520 6.436016451365759 171 121 96 255
-28.019064058744078 -3.646105173804088 6.704671481664320 155 105 83 255
-27.518118939918821 -3.099711567436046 6.973407069592923 136 89 67 255
-27.472527377344505 -2.375636330276365 7.007175624979141 116 74 50 255
-27.426935290701891 -1.651851859467541 7.040978031554857 93 57 33 255
-27.563615076469176 -0.854991593676544 6.980776685008891 78 48 24 255
0.809545564648374 -8.313765076447936 21.674921082303086 168 138 100 255
3.050090302874452 -8.600798536996621 22.839657636481604 196 134 117 255
3.466096439777573 -8.124156314767546 23.063526168284895 184 125 114 255
4.247358722955482 -7.806390584442454 23.475708076194778 157 100 87 255
4.937579576754473 -7.453801528080334 23.840931849744138 124 71 57 255
5.536709436693457 -7.065566748809843 24.159183727304125 119 72 54 255
4.857390915410406 -6.121715015635630 23.818481091773307 99 53 36 255
4.451846741273386 -5.294320114273319 23.618976833681032 100 58 39 255
4.777044225247806 -4.788214010993855 23.796130756977391 147 104 87 255
3.823003316396097 -3.713391593463982 23.314111880616352 158 111 96 255
7.255649472474573 -4.601886485440019 25.092479837213091 159 111 97 255
25.516684507766939 -11.029746392793058 34.528048825798663 164 122 106 255
25.571474557701293 -10.465099343917842 34.565184220538129 172 130 114 255
28.462121067287029 -11.214681247109922 36.062926540590013 175 133 117 255
30.255830363237777 -11.469403851230751 36.995543195651237 174 130 115 255
28.755702105518736 -10.188917920741360 36.231892127653481 175 129 114 255
30.366994044069742 -10.368425864901170 37.070497506999587 173 127 112 255
29.873282761534938 -9.557196675887653 36.825227139958955 169 123 108 255
31.027484709257266 -9.530459344461818 37.428413008352578 167 121 106 255
31.632597345431094 -9.246195249556663 37.748887831565099 167 121 106 255
32.512683311598522 -9.098241155898819 38.210889042494060 163 120 104 255
33.576279885119988 -9.044481339866167 38.767305434713620 159 115 99 255
34.365340497167068 -8.862261588124909 39.182387740069515 154 110 94 255
-61.229429431292175 -5.963693084927840 -9.663102459572741 1 11 0 255
-56.188164745363366 -6.841533066914423 -7.064294108383649 4 10 0 255
-55.055999288776121 -6.404608170916745 -6.472549885196059 6 8 0 255
-45.802282911123569 -3.223933366047092 -1.639793538562657 0 6 0 255
-35.010445907638967 -6.421801726025265 3.906941141283909 204 182 158 255
-33.234819391047068 -6.320521028955568 4.827849577021482 199 158 136 255
-31.094065287627785 -6.366823476539835 5.935941104461733 196 149 129 255
-30.593147966840633 -5.804688140826997 6.202843051685903 196 149 127 255
-29.909745649322559 -5.315160956564171 6.563329485226518 195 144 123 255
-29.590816990755087 -4.689543811635673 6.736891214408587 186 135 114 255
-28.815828784476736 -4.242484683267847 7.144320952208517 174 122 98 255
-28.222996200621793 -3.728883103140973 7.458329418940053 161 109 88 255
-27.812416892053790 -3.147109351113741 7.678888375733010 141 92 70 255
-27.857910153665301 -2.387133285669705 7.665644032077182 120 75 52 255
-28.085949617199361 -1.554099129224440 7.558865794705525 96 60 36 255
-28.222814717078933 -0.756395876703124 7.498879685267411 80 50 26 255
-0.081010066752668 -8.093915858235306 21.978927369012695 171 147 109 255
2.437020191363843 -8.494901904439672 23.278235346127218 186 130 114 255
2.945059527270416 -8.056233626762250 23.547747480519490 177 123 110 255
3.636096488495070 -7.698738942923555 23.910993563384650 163 112 97 255
4.784535922659131 -7.542200402700630 24.508494343469792 160 111 96 255
5.293196991130344 -7.114787407530741 24.778291331900633 141 96 78 255
4.612924132337497 -6.171198503313619 24.439247290227897 144 100 79 255
4.298321034438459 -5.384256944796320 24.287545024592518 128 86 64 255
3.983578007271774 -4.595316616143151 24.135842504064755 174 129 110 255
6.597263197793410 -5.108288348694842 25.483462806270609 171 124 106 255
5.367421072050178 -3.913835885300699 24.863322275476236 170 121 104 255
7.524483182680626 -4.239739642275566 25.977018529688095 168 120 106 255
23.655145371479790 -10.326893650623660 34.251616131372984 168 122 107 255
21.694569244483404 -8.831083092133568 33.257185957478256 171 125 110 255
28.070381260110821 -11.180510475326415 36.528750349427597 174 130 114 255
29.408632991207867 -11.221548290456170 37.222275160380789 174 129 114 255
27.447939660525918 -9.724772638696720 36.227929501356058 176 130 113 255
26.586501736824061 -8.734551417941475 35.796154380311137 172 127 109 255
27.833430534820053 -8.739037673895496 36.442994520155111 168 122 105 255
29.722676242033884 -9.057050263910710 37.418306754343917 167 121 105 255
31.704289966495111 -9.430167966845076 38.440738778082334 168 122 106 255
33.870055446436311 -9.903523762624431 39.557214995221955 164 121 105 255
33.284076179659934 -9.052169403149676 39.266444286798560 161 118 102 255
32.789612458941747 -8.241883132083757 39.022569532733669 159 116 100 255
-37.231908666100622 -5.760003724158196 3.655020016074246 150 139 110 255
-32.898895510568224 -6.604299797842415 5.873207231731811 204 164 141 255
-31.393564471577207 -6.412966808635190 6.650140840668854 205 157 137 255
-30.709239482938784 -5.920058550224880 7.008650062263939 200 152 131 255
-29.933388336976662 -5.466052536434717 7.413778340841191 199 148 127 255
-29.522528028572566 -4.876513259323858 7.632930249174052 189 140 118 255
-28.472232724872441 -4.536687371350055 8.177842796616602 177 126 104 255
-27.969652332051652 -3.989596373955550 8.443706836580191 164 112 91 255
-27.649632689301455 -3.373800913881965 8.616582019244589 144 93 72 255
-27.969159867580203 -2.507024767507204 8.463735796560258 121 77 53 255
-28.562999454888853 -1.529175724643522 8.171251962013855 98 61 35 255
-28.517197765859834 -0.804509378739240 8.204591608773029 83 52 26 255
0.084168902713884 -7.656234360088391 22.833149430491844 180 136 116 255
1.416527208596364 -7.561085010853745 23.520449281772756 170 125 108 255
2.108440961172363 -7.199990061530571 23.881770187732243 163 121 103 255
3.807879602277609 -7.276125671673810 24.755755826453267 168 127 109 255
4.317239121040444 -6.846747781331658 25.024127133793300 167 129 106 255
4.368726072229947 -6.220656597813274 25.059552269875866 164 124 99 255
4.145337978297391 -5.474158693486700 24.955183780132216 167 122 101 255
4.929865690548837 -5.171389861952051 25.363590022787946 177 132 111 255
3.606581377195766 -3.936043666945821 24.699859380806913 176 129 109 255
5.491292329265463 -4.128251555121608 25.667870701989429 174 126 109 255
8.843656497863066 -4.992147247845338 27.382156921098328 174 126 111 255
17.753212161227395 -7.783381385441160 31.931115087070822 177 129 115 255
20.559075846084596 -8.460592945696959 33.366741444200187 178 130 116 255
22.356625416913374 -8.688140456843868 34.289563009016433 180 131 117 255
23.328855997094195 -8.542309338358081 34.792733889834636 177 128 113 255
24.393191654995860 -8.445003709829990 35.342686660133012 175 128 110 255
23.621802013259099 -7.489755853554755 34.959580962144585 175 128 110 255
24.502865490826395 -7.312280969326125 35.416387924441835 174 127 109 255
27.496465894810456 -8.146150861372305 36.946687817650215 170 123 105 255
30.215555497942688 -8.865598539575416 38.337288143439565 168 121 103 255
31.373798146642770 -8.847923385561742 38.934667312011740 165 119 103 255
31.613552275213266 -8.391144111147540 39.065373552356846 160 114 98 255
31.577643077730869 -7.800967751066835 39.056077953710144 157 111 95 255
-34.022942944851962 -6.344618692996718 6.174514438647066 205 174 150 255
-31.966991153945031 -6.356420531438303 7.225048425540393 205 160 141 255
-31.190176540757903 -5.897407745396137 7.627935672326487 202 157 137 255
-30.413101228770273 -5.443059308327705 8.030935776531436 201 152 131 255
-29.635765815000951 -4.993367813046703 8.434048870986260 193 142 123 255
-28.766704629651230 -4.583639575720369 8.883567455746743 182 130 109 255
-28.080317065170931 -4.107925899161899 9.240614539076319 168 115 95 255
-27.759697954523773 -3.492888283952354 9.412558160287062 146 96 75 255
-27.805042189138504 -2.735273215258488 9.399341843295616 123 78 55 255
-28.216544956527088 -1.831824992395326 9.200909355658297 99 63 37 255
-28.353571280694638 -1.035948750087243 9.141416456948065 84 53 27 255
-3.374654086427057 -6.354967455381498 21.842196907179996 187 164 134 255
-1.215704404871616 -6.600004909883992 22.943011755702685 163 131 108 255
0.027052064082426 -6.466689119291232 23.580499422902264 149 117 91 255
1.728776544732824 -6.537546282884094 24.449956863463527 164 135 108 255
2.605543494101141 -6.261540924845690 24.902315823922109 172 143 114 255
3.666082084325865 -6.070474783231660 25.447538970497618 177 141 117 255
4.084656653221657 -5.604219783071756 25.668269420386551 174 132 110 255
5.512884966030924 -5.585463513018240 26.399261792688165 178 133 112 255
9.288873488128843 -5.983107265300674 28.325668722325076 176 130 112 255
19.496362335919201 -9.334113368122800 33.500855452154397 177 131 116 255
19.642472232372683 -8.795990766448412 33.583482603987832 179 131 117 255
20.431725140511134 -8.553293802558500 33.991010389820801 181 133 119 255
22.599598099262948 -8.950785873327206 35.094828025170500 183 134 120 255
24.400588056953609 -9.190384807427790 36.013223648179689 178 129 114 255
23.904082918358995 -8.367354506077191 35.771306770019791 177 128 111 255
23.094341703358936 -6.798693284968735 35.380293155752852 177 129 112 255
26.736068821722824 -7.935349374860024 37.227875791148591 176 129 111 255
27.803328947317624 -7.860838711864915 37.775566070248161 174 127 109 255
29.146961688512420 -7.925346368750738 38.462720520557809 168 122 106 255
30.491043908757831 -7.997622760181471 39.150036904189761 162 116 100 255
-36.338976897903791 -5.643555947570974 5.881122862656781 199 184 154 255
-32.540963003782991 -6.299908836822866 7.800889677340763 202 162 143 255
-31.122054975281941 -6.081776060705820 8.523949306895076 203 160 142 255
-30.618372554927163 -5.524396523933362 8.786704925713536 202 155 135 255
-30.206114981923321 -4.935013514820355 9.003493109456230 195 143 127 255
-29.244107514652939 -4.559975454522956 9.496706060697790 186 133 115 255
-28.190157836613452 -4.226240131810627 10.036115523288885 170 117 99 255
-27.685668230511595 -3.683659403373198 10.299263219342805 147 96 77 255
-27.822582516066092 -2.891236821787004 10.239991980586666 124 80 59 255
-28.234569049346049 -1.988847483794657 10.042510865161120 100 66 41 255
-28.463352955074157 -1.157355435211926 9.937186206675250 81 54 27 255
-1.641406199847097 -5.247852618086071 23.507278361333718 163 148 114 255
-0.580091702802804 -5.042085105981243 24.049421831388997 178 166 129 255
1.400373439546883 -5.241683761029250 25.053077804032526 170 146 115 255
3.289620033032634 -5.412707682728083 26.010824306331273 169 135 110 255
3.433166470476777 -4.825994833598713 26.092016039829403 165 128 105 255
13.021472490741616 -6.558526919510570 30.941379622489464 177 135 119 255
19.698402842486388 -8.971830657672655 34.301236651290310 179 134 119 255
20.580950000594356 -8.772251041695142 34.752872496649971 184 137 122 255
22.568122684443892 -9.086227774515436 35.758759276284962 185 137 123 255
24.279841557345776 -9.283881034174243 36.626327173691095 182 133 117 255
23.782661648281476 -8.461372318626829 36.385623135097489 180 132 112 255
23.377343928246347 -7.678881380428209 36.191098503780665 178 130 110 255
25.366312247673648 -8.023994052703543 37.197644194538242 178 130 110 255
26.250622376246412 -7.855777302745949 37.650021762771928 179 131 111 255
26.766700556349804 -7.516505049345568 37.917704513370566 179 131 111 255
28.849393520979078 -7.933075658225619 38.971010942823682 177 130 113 255
30.656317459928033 -8.228104800860010 39.885912427706188 170 124 106 255
-34.490620313253629 -5.730057949575183 7.690595230622847 203 167 144 255
-31.602711679589589 -6.059148502988492 9.142759679766556 208 159 142 255
-30.823092702766616 -5.605730839453088 9.541533945066533 206 158 138 255
-30.226664195582742 -5.086899183871040 9.848786243174942 195 146 129 255
-29.630042548259979 -4.571635495873764 10.156135578517734 187 136 117 255
-28.390931359316056 -4.308962485259812 10.784381234899740 172 119 101 255
-28.069130948272374 -3.695165224252037 10.954458901469138 151 100 81 255
-27.930814658988112 -3.011056130243688 11.032930029466797 125 81 60 255
-28.343301658205547 -2.109453431818338 10.836396228966265 103 67 43 255
-28.572312650006808 -1.278739368995858 10.731551726630471 82 55 28 255
0.519776401260344 -3.702511113460275 25.380480014530008 150 124 97 255
-0.257524511353267 -2.701502153659050 25.001985129662216 162 133 108 255
19.810046123522596 -8.570161923813046 35.053016106535580 177 138 120 255
22.998289628597661 -9.433468524377616 36.651011667359910 182 135 119 255
23.698722114834396 -9.164101141805261 37.008768624459847 180 132 115 255
23.661778727636971 -8.555336794018146 36.999015217245955 178 130 110 255
24.731371907328025 -8.464450997358355 37.540770811027599 176 128 108 255
26.631403952218335 -8.770907321635363 38.496310963776537 172 124 104 255
27.148349658466230 -8.432306038985672 38.762594720903039 174 126 106 255
27.204114224150089 -7.876451767732121 38.799119204990177 176 128 108 255
28.920942427166352 -8.117924323928293 39.663211599852900 174 127 109 255
30.730652004414225 -8.413934667763897 40.573480696215455 171 124 106 255
-32.359127436727334 -5.933071785807115 9.625310020711140 210 160 141 255
-30.843570778956661 -5.756583130589021 10.386582304112352 208 160 140 255
-29.970529420727502 -5.343856019735384 10.828956172444265 196 148 131 255
-29.556587424827313 -4.759811749077230 11.043510286666674 190 139 120 255
-28.683049076024105 -4.356104542181612 11.486114585952862 178 126 107 255
-28.360683039072711 -3.742519331324445 11.655253174116325 156 105 86 255
-27.854371383553627 -3.203080531078442 11.915669636374844 131 87 65 255
-27.807614773337292 -2.484720259829444 11.948134636718720 107 71 47 255
-27.760863904815864 -1.766639297184682 11.980642802525580 83 56 29 255
-28.265969015207901 -0.827279182755987 11.739488574227011 65 45 17 255
-5.443485391371865 -1.244173035014754 23.174724681343520 152 160 112 255
20.846158485350713 -8.594324705221950 36.259685378111044 177 139 120 255
21.270376302425632 -8.191479832289545 36.478370952628126 178 134 116 255
21.602372609747306 -7.748026066690116 36.651419142955675 175 130 112 255
25.813271714708094 -9.120280516192807 38.744850672539684 175 128 110 255
26.885086157750294 -9.039552560527582 39.284032712624011 173 124 106 255
27.957248156529232 -8.964958404128836 39.823355105289949 169 122 103 255
28.382936340468632 -8.588401066109796 40.042674834571898 171 125 105 255
28.957340243870021 -7.708414259218870 40.344324283803218 167 122 103 255
-33.484502984882994 -5.669096327542405 9.928368572018655 206 165 142 255
-31.138896711302635 -5.803144141381054 11.093716372657411 210 162 142 255
-29.896469854750165 -5.530711278280009 11.715142428906859 199 151 133 255
-29.757803794224429 -4.842063803889531 11.792474873653006 189 141 121 255
-28.974891422864999 -4.403245406054339 12.187378276702205 177 126 107 255
-28.559913094464406 -3.825708543924932 12.400942992768549 155 105 86 255
-27.868620006741395 -3.358958980058944 12.750697098139440 132 87 66 255
-27.545424215407451 -2.750769706761488 12.919065699143317 107 71 47 255
-27.406329368712306 -2.071183999530518 12.996749868744189 85 55 29 255
-27.911993835285472 -1.133964387065348 12.756805143863062 67 45 16 255
16.986567701848656 -6.366234707677208 35.049203615885872 174 157 127 255
20.370000179069706 -7.327017904434271 36.722094448507733 175 144 119 255
23.754611612136614 -8.307639847270849 38.395345714826476 172 135 114 255
26.492855399996159 -9.003889179668704 39.750515256411902 171 129 109 255
27.104004360964979 -8.710251188609959 40.059577758612903 166 124 104 255
27.345171010664302 -8.243955300313573 40.186738412808168 166 124 104 255
27.308710693053570 -7.645978591170490 40.177450405613911 161 121 103 255
28.475654151756402 -7.626795649467724 40.759814139092796 158 117 100 255
-34.243655299654762 -5.543130340330762 10.415598095692218 203 170 144 255
-31.710304819541449 -5.745450625237780 11.665045111973313 211 165 144 255
-30.465987665982851 -5.472375497167704 12.283171382018978 203 154 137 255
-30.234925995184284 -4.818428138113376 12.405138300204158 193 145 125 255
-29.635131093159458 -4.308130618683762 12.707670522521639 177 127 108 255
-29.035147086043736 -3.801384165619865 13.010304642418390 157 106 87 255
-28.158373091864775 -3.406494067468032 13.448445612949200 134 88 68 255
-27.742397851862876 -2.834887544020347 13.661019189012521 109 72 49 255
-27.326300455140739 -2.265725306217533 13.873676559242810 86 56 30 255
-27.740324329881702 -1.366748769619690 13.680077008953660 69 45 17 255
25.785794946461010 -8.236883199470526 40.072325619622362 160 133 106 255
24.080930321011834 -6.843366900849773 39.248199431597740 158 130 103 255
25.434321274611534 -6.900752660310900 39.917864678405465 154 123 97 255
24.841220472511765 -6.030211958533940 39.636943853956595 143 112 87 255
-35.741827468848982 -5.141385103762488 10.545722231636887 203 171 145 255
-32.374515691014921 -5.653035961270376 12.192431078317739 209 166 149 255
-30.666959933042591 -5.554139262755285 13.031661416288529 206 157 142 255
-30.066296873669302 -5.041829832647352 13.332472981457926 196 145 128 255
-29.465444833076134 -4.533079334951836 13.633387595355217 180 128 111 255
-29.049047497440455 -3.956220364599957 13.844613845439994 158 106 88 255
-28.817202716002981 -3.309621519548145 13.966123626697211 137 91 68 255
-28.954716271154012 -2.518908287721260 13.908078425513310 115 75 53 255
-28.907563085879048 -1.800672814703816 13.939882160533358 88 54 29 255
-28.768033171547273 -1.119617158034359 14.016648870961120 68 43 13 255
19.786920681389290 -4.958921404418319 37.829351243506991 120 126 77 255
-36.411886869150209 -5.050017305294702 11.083205290849264 202 174 147 255
-33.224334780581131 -5.491167719485716 12.631934739907152 211 166 150 255
-31.052201814508152 -5.565865399964181 13.689916977242589 207 158 143 255
-29.988446782271950 -5.229903054682154 14.212341764240136 198 147 130 255
-29.663881715411122 -4.615762297909356 14.377664525394181 181 130 112 255
-29.709060813559148 -3.860246899882199 14.364417540889747 159 107 89 255
-29.661805091833543 -3.140582103312923 14.395875651580340 137 91 68 255
-29.614557994299929 -2.421203137776743 14.427382621907455 116 75 53 255
-29.659827765600738 -1.665462544392000 14.414263329690812 91 57 30 255
-29.520093668702060 -0.983263426493721 14.490545263436289 70 47 16 255
-33.797929193141414 -5.433569681644371 13.207002633360830 212 167 148 255
-31.159799769841783 -5.682628933732374 14.481408562532536 207 160 144 255
-30.279477548075789 -5.276817669792052 14.912194638302637 201 150 133 255
-29.398871146863229 -4.876187030803777 15.343115227686695 183 131 114 255
-29.536534734474031 -4.086693390219395 15.285471571927175 160 107 89 255
-29.952107455639265 -3.188136361927690 15.094563001554249 137 89 67 255
-29.997339020883686 -2.432609126974796 15.081404061319930 114 74 51 255
-30.320546796906655 -1.566914802039165 14.934962690615862 93 59 34 255
-30.087932270573702 -0.920745629229728 15.055211366080670 71 48 17 255
-34.557406169897291 -5.306524567476146 13.694656771125295 212 169 149 255
-31.729995053013880 -5.624343209561147 15.050598616604361 209 163 147 255
-30.755633822462613 -5.253175361333049 15.523210323780262 201 151 134 255
-29.688240273285970 -4.923275212937270 16.040155673647121 183 132 114 255
-29.547828608734591 -4.241456374299858 16.115327765705189 162 109 91 255
-29.778390411020240 -3.416121404119295 16.013770231208341 137 91 68 255
-29.916294515545616 -2.625805926966265 15.956438463075088 114 73 51 255
-30.054274964694656 -1.834682233892934 15.899140289169068 93 59 32 255
-29.913939524043911 -1.153441195538832 15.974511389829303 73 50 19 255
-34.482728740332760 -5.492103205808846 14.579636994900568 211 171 149 255
-31.743807530300245 -5.776089995271576 15.884388722656240 210 161 146 255
-30.582199013078053 -5.476450045320959 16.442335918770056 202 151 135 255
-29.698772791955065 -5.076984618621097 16.868587826649033 183 132 114 255
-29.465155233126808 -4.431999326688796 16.987267753882321 162 109 91 255
-29.603028220900143 -3.644055143694246 16.930166285045118 138 91 69 255
-29.462269883161042 -2.964376601870981 17.005003036060671 115 74 52 255
-29.600247520361251 -2.175638053769546 16.947985077470847 93 60 34 255
-29.645368540629846 -1.422977139437748 16.934980160462430 75 51 21 255
-30.062341331426722 -0.521359080380464 16.746092996513539 56 43 13 255
-35.336103286015344 -5.330372204366810 15.025219264991790 207 173 148 255
-31.942438506190996 -5.857811815346707 16.628881740224145 212 160 146 255
-30.500092198705232 -5.664408809139616 17.314933124515662 203 152 136 255
-29.801198683838805 -5.195122711247933 17.651425067280911 184 132 115 255
-29.567124971282936 -4.550881443716847 17.769416138567749 163 110 92 255
-29.426021049998695 -3.871936539740631 17.843751319536125 140 92 70 255
-29.284896874582699 -3.193817221357136 17.918150618600876 116 75 53 255
-29.609032705475187 -2.333406969178000 17.773923035728387 94 61 35 255
-29.933312740678303 -1.471093716467621 17.629713930965053 76 51 21 255
-30.071561537229314 -0.681193087793602 17.573019449686740 54 40 11 255
-36.097767157659263 -5.203410729161007 15.516612149109335 201 175 147 255
-32.885286148503866 -5.659571903426013 17.024630382868068 214 162 147 255
-30.975285028614081 -5.640743589806775 17.924303357054598 203 151 138 255
-30.554698624460372 -5.064494403888645 18.128459926368407 186 133 118 255
-30.040849594496848 -4.526516375394095 18.376199386530203 164 111 93 255
-29.806332442416334 -3.883310359738005 18.493558079996433 141 93 73 255
-29.385410032940996 -3.314163470628898 18.697990425218990 115 74 52 255
-29.896302005700221 -2.381283549217329 18.467477394201779 93 59 34 255
-30.500613391112012 -1.408527565643368 18.193457024787790 72 46 19 255
-30.732266791950764 -0.580867498958881 18.093482879463693 55 41 12 255
-36.301224699429525 -5.284799592581706 16.269294887681269 196 178 145 255
-33.177146910129778 -5.706308713161789 17.725877189710118 211 164 147 255
-31.916997078059495 -5.440787938836877 18.317910743867074 203 151 137 255
-30.936234240199639 -5.076018475104135 18.780371995541799 187 134 119 255
-30.328285993615197 -4.573757774841951 19.069962755887317 168 115 97 255
-30.093347309813822 -3.930750474187093 19.186626464410836 144 97 74 255
-30.044985706277458 -3.216423772923932 19.216836866739897 118 76 52 255
-30.649950356090159 -2.246076601465731 18.944218179765258 93 60 34 255
-31.161812342933814 -1.309082465167037 18.714867442664399 73 47 20 255
-36.690839603201056 -5.296744352796779 16.935032768185238 191 180 143 255
-33.748842451801039 -5.648082300159800 18.297632337856754 210 165 148 255
-32.300036356815070 -5.452414380566921 18.972398857287658 203 151 137 255
-31.878184691199266 -4.874382847818836 19.174185120899324 191 138 122 255
-31.175960744729338 -4.406205652298055 19.505131038071497 171 117 99 255
-31.034133294699387 -3.725703457442918 19.578046484229034 149 99 78 255
-30.611935325748078 -3.155038614679967 19.780122558503038 123 78 55 255
-30.656960259902320 -2.403765981546528 19.767119701306854 96 61 35 255
