ply
format ascii 1.0
element vertex 657
property float x
property float y
property float z
property uchar red
property uchar green
property uchar blue
property uchar alpha
end_header
12.744713855235887 -25.711285168495280 5.125254116608470 206 171 149 255
9.550037646121893 -25.843979055423731 5.276851939962992 204 167 144 255
7.344724761241821 -25.710489397861565 5.380512460893973 205 164 141 255
4.942180617682425 -25.646297576832850 5.493801800745342 206 164 140 255
3.133230245723212 -25.421787836666240 5.578327873399841 206 164 140 255
1.917679039877669 -25.032086236722733 5.634078634639611 204 161 137 255
0.109451064348036 -24.825662972905818 5.718652755865371 204 159 136 255
-0.710257029553190 -24.331931742405843 5.755237483847932 202 157 134 255
-1.529787839414212 -23.842637062091100 5.791835134207012 199 153 128 255
-2.052768295335795 -23.267006721936255 5.814037122556241 196 150 123 255
-1.686614029611803 -22.419445140098233 5.793016017465352 195 150 121 255
-2.505775560780194 -21.939386663188856 5.829643332835964 191 146 115 255
-3.324760267708825 -21.463751950044113 5.866284236084113 186 141 108 255
-3.847324572348612 -20.898525725558216 5.888522079874466 181 137 107 255
-3.777354334049051 -20.146450952791312 5.881932190335228 174 129 102 255
-4.003580778023945 -19.489559890500431 5.889765171443226 166 123 95 255
-4.427191404040570 -18.898132818430796 5.907219606630782 157 116 86 255
-3.764959680479990 -17.952357749220141 5.871792158953532 152 112 81 255
-3.398957284518417 -17.100947655213460 5.850786176122428 147 108 77 255
-3.033037670937972 -16.247456963038857 5.829779053435782 139 102 73 255
-2.963218224748346 -15.491565401316478 5.823201767784235 133 96 68 255
-2.696093807411899 -14.668211771774878 5.807005893134050 122 87 56 255
-2.922285319867001 -14.012144964669091 5.814868679104478 112 79 47 255
-2.457950058512665 -13.118962538021961 5.789053465366274 96 65 37 255
0.077496165856587 -11.502694096755178 5.662166444919091 74 47 21 255
4.288900342683576 -9.284644612699807 5.453420955954758 24 4 0 255
8.499380749323507 -7.043446292613694 5.244625281105822 17 9 0 255
-21.933495429143534 -6.210326409960786 6.681623285104056 197 153 130 255
-23.830188070321043 -6.292465240675980 6.771814901237171 199 148 126 255
-25.037649922320782 -6.105016310689848 6.828255899291378 197 146 123 255
-25.556107256815466 -5.642309692149865 6.850933859119014 194 141 119 255
-25.976076501981510 -5.141741352400061 6.868799638048344 189 132 112 255
-26.199219244007992 -4.561715436652193 6.877023858515452 185 128 108 255
-26.717401074835436 -4.105861112072063 6.899744954558880 173 116 96 255
-27.235477138440615 -3.652639438328663 6.922481506877585 155 101 80 255
-27.065077333102636 -2.910911045131215 6.911427164669604 136 88 65 255
-27.288034363766911 -2.335466728231509 6.919700884339278 122 74 54 255
-26.822731392239007 -1.466104910356151 6.894172723818134 105 58 38 255
-26.947376805315741 -0.848354844489037 6.897636585708335 94 50 29 255
19.901453027361242 -26.069510680905381 3.995607294723362 190 159 131 255
18.881164516524450 -25.556143572682501 4.044373456499173 198 163 141 255
16.674545847626746 -25.378928149531959 4.153973016652751 203 169 144 255
10.384454840522892 -25.594366717985181 4.469584164811245 203 165 142 255
6.696780323297617 -25.883847019247909 4.655339909388097 204 162 138 255
4.986632229359543 -25.620823814657896 4.739726918818015 204 162 138 255
2.881555131931464 -25.482733247014352 4.844423976728809 203 161 137 255
1.172194441834449 -25.239428112343589 4.928861164245079 204 159 136 255
-0.437990687135937 -24.975990510852128 5.008249433187475 202 157 134 255
-1.356275379106478 -24.513318104877456 5.052145660605877 201 157 133 255
-1.681668575232209 -23.875713869258320 5.065610458362155 201 155 129 255
-1.611907296542768 -23.118818906450954 5.058781932914705 198 153 124 255
-1.147121129004518 -22.239387049686798 5.031652422115968 197 152 121 255
-2.756183053537256 -22.004065756159150 5.111118188279276 193 148 117 255
-4.266156623962047 -21.746426092176065 5.185530612469428 189 144 111 255
-5.084705384364213 -21.277636537486998 5.224423139842568 186 142 113 255
-4.619751702674137 -20.402382381399960 5.197313680600736 180 136 107 255
-4.845848169316696 -19.747652778520560 5.205752127959016 172 131 101 255
-5.466681007324382 -19.222677605063765 5.234514034095302 164 123 93 255
-5.495270632846200 -18.506529560416155 5.232806917216728 159 120 89 255
-5.425182475495149 -17.757777166503146 5.226022754529927 154 115 84 255
-5.157785506281073 -16.942650849876415 5.209078472771022 147 111 79 255
-4.989102598851957 -16.159206908728805 5.197216288133928 140 104 72 255
-4.919101538379834 -15.408251979084667 5.190438299268394 134 99 67 255
-5.539537024291633 -14.893189768348492 5.219245996946281 126 93 60 255
-5.272256910095848 -14.075106552271009 5.202310997710706 126 93 62 255
-4.216161799223983 -12.981018208031713 5.144700859723944 120 92 63 255
0.093460532086908 -10.740050845549277 4.919272340466886 100 73 46 255
-21.884169873497598 -6.173927536804030 6.000486495591669 199 157 132 255
-24.174073230090670 -6.414583927502647 6.116255746834616 200 148 126 255
-25.873181159933665 -6.427789525782472 6.201476083694267 199 147 125 255
-26.391451021794666 -5.967243455811442 6.225550030622443 195 145 121 255
-26.516166550556193 -5.347307585814548 6.229244260975053 191 139 115 255
-26.444159612664919 -4.646298089715501 6.222750028843290 185 131 107 255
-26.962218761841655 -4.190986349650558 6.246860512412681 172 117 96 255
-27.381842515570185 -3.696988094265819 6.265885238003959 156 104 83 255
-27.408106602145210 -3.038720129923988 6.264520631708020 137 88 67 255
-27.630989445183559 -2.464092785427297 6.273367538627639 119 74 51 255
-27.165750139114294 -1.595557012651540 6.246513417835768 104 61 37 255
-27.388627795888169 -1.021024974365730 6.255379534773319 90 52 27 255
22.711633233183079 -25.289692032559358 3.050562450007250 191 161 130 255
18.725122436252207 -25.586801916619450 3.262290035639747 199 165 140 255
15.233779650082113 -25.767966568304715 3.447366924340010 202 168 143 255
11.644349987391877 -25.996035396153374 3.637830272914730 200 166 141 255
7.956865613665798 -26.271813946743734 3.833682097012719 201 164 139 255
5.653765845245118 -26.170694843045425 3.954788898777126 204 162 138 255
3.845249684888984 -25.938989785620649 4.049211137842864 203 161 137 255
2.037127236994365 -25.717145631032992 4.143657590626781 203 159 136 255
1.316140546455131 -25.184261147183847 4.179341412915203 202 157 134 255
-0.392529768157544 -24.949708074267519 4.268484767270543 200 155 132 255
-1.113096870313939 -24.427329511051283 4.304196070982602 199 155 130 255
-2.228557786592148 -24.028781617510404 4.361302801514100 201 155 129 255
-2.257509550335669 -23.303495177495336 4.359610715324953 198 153 125 255
-2.582679311676372 -22.669887096339963 4.373963104775472 196 151 121 255
-4.290000024348672 -22.469127086428500 4.463194376730852 192 147 116 255
-5.700792210270379 -22.184460416573515 4.536403438049966 189 144 111 255
-6.025485698761656 -21.562771625778765 4.550790261360570 189 145 116 255
-5.659227059119416 -20.721562164650706 4.527734032674157 184 140 111 255
-5.687798286463249 -20.005783582007055 4.526077932611726 175 134 104 255
-6.209746186271843 -19.450819495469673 4.551180790666942 168 127 97 255
-6.238256166891858 -18.736564710457984 4.549534019887378 162 123 92 255
-6.365417167889575 -18.055077283536122 4.553242999956232 157 118 87 255
-6.689840724075339 -17.440119244360162 4.567662787164039 153 116 87 255
-7.014196362465498 -16.826856500240467 4.582089903122537 148 111 82 255
-7.042617619085718 -16.114800013807894 4.580461630408863 144 108 78 255
-7.071035864693954 -15.402812127592625 4.578837264120558 138 105 74 255
-7.099451229868748 -14.690889281873922 4.577216954209156 139 106 73 255
-6.339144772809561 -13.704589747871097 4.532751834434244 129 95 67 255
-4.987533330609949 -12.506583087358223 4.456140868933943 129 95 67 255
-3.143379204310293 -11.126853800690100 4.352730631345096 120 92 63 255
9.133142243700206 -0.646525120269970 3.658863142752010 28 16 0 255
-22.326809307836044 -6.334717079611806 5.345640042160234 192 152 127 255
-24.517839042344917 -6.536732038772556 5.462320435525285 199 149 126 255
-25.921485461595154 -6.430826075154428 5.536084652768407 198 148 125 255
-26.734713223069434 -6.090997948447338 5.577657321252868 195 145 121 255
-27.056058584368344 -5.552895234652951 5.592398041110677 191 139 115 255
-27.377340946476124 -5.016357753292525 5.607149540173724 185 131 107 255
-27.698560525173093 -4.481379841498580 5.621911946324349 173 118 97 255
-28.019717539371385 -3.947955757686401 5.636685387402956 158 106 85 255
-27.751016736932087 -3.166551529593121 5.619238894489751 140 91 70 255
-27.777248469595861 -2.509024197369030 5.617914346798091 120 74 51 255
-27.508649813442247 -1.725029351821135 5.600479194610283 105 62 38 255
-27.829720382205153 -1.193711699690979 5.615289999030230 90 51 25 255
-28.150729548053107 -0.663917386140568 5.630112529618586 79 47 22 255
22.258242125769641 -25.401206259547521 2.274893242883813 191 162 131 255
19.755328778881676 -25.290198706412880 2.413394665267113 198 165 140 255
12.014451989370741 -26.652892193832216 2.849396769995984 199 165 138 255
15.739429488839846 -24.831022995933608 2.634359790647949 199 163 139 255
8.099499286411572 -26.218950996436945 3.064870299123811 204 165 141 255
5.599221976690330 -26.173983221114199 3.203524161766595 204 162 138 255
4.087455588806222 -25.856366824126965 3.286059133238226 205 160 137 255
2.279660697917166 -25.633690541258545 3.385460912698040 204 159 136 255
1.657559257214700 -25.070816035939629 3.417490574373918 202 157 134 255
0.047950074732910 -24.805720376952081 3.505698296967999 202 156 133 255
-1.067542043887272 -24.400831205818761 3.565839654736592 198 152 129 255
-1.787821738570074 -23.882071345715843 3.603523726870346 200 154 128 255
-2.211750444645872 -23.276446090160377 3.624362047489154 195 149 123 255
-3.129193699852010 -22.825704426611992 3.673304047247818 191 146 117 255
-5.033541098201056 -22.687863881841196 3.778458733428856 190 145 114 255
-5.950479822470470 -22.249756164406193 3.827433133644675 190 145 114 255
-6.571154358053263 -21.722607431269907 3.859557336348153 186 142 114 255
-6.402272343792617 -20.945963443190749 3.846717131620693 182 138 111 255
-6.430763892653715 -20.232077991633517 3.845121909291024 175 134 106 255
-6.853877125790063 -19.646856905758526 3.866021373971400 171 130 102 255
-6.980963830866813 -18.966639114651372 3.870057801555745 164 125 96 255
-7.206660299018722 -18.319727452630715 3.879722626036061 159 120 91 255
-7.629558346914223 -17.739882661569041 3.900642547329987 155 115 89 255
-8.446819955268495 -17.295169028420148 3.944072027817690 151 112 85 255
-8.475086302283898 -16.586894701110126 3.942506641829851 148 111 82 255
-8.207574566283370 -15.777397263842232 3.924065048645936 148 111 82 255
-7.940124608848748 -14.966345444474911 3.905623522407460 147 111 79 255
-8.165587377711859 -14.325253560394017 3.915320984884726 139 105 73 255
-7.701088727393369 -13.443284950574864 3.885626277133309 136 103 70 255
-7.532341208183368 -12.663201536854103 3.872816506952180 135 100 70 255
-6.575331565243687 -11.601185103403481 3.814972350951281 125 95 63 255
-4.337682827135382 -10.073843570752118 3.683929328512585 123 98 65 255
6.941633916115734 -2.214832564998119 3.022749635470451 36 14 4 255
6.517822865264975 -1.611994798558740 3.043682194507575 30 5 1 255
6.389454190167953 -0.899517630479750 3.047722369910167 33 6 0 255
-23.654580933034822 -6.850389966024508 4.743708769346258 189 150 125 255
-24.763130536496931 -6.619211554013020 4.804370564843257 194 147 124 255
-26.068132684929651 -6.473866317874410 4.876330237274690 193 145 122 255
-26.881189314931675 -6.134304630882824 4.920108845740364 192 142 118 255
-27.300784687568523 -5.636982157664519 4.941339109374029 187 135 111 255
-27.720295599817689 -5.141764692905909 4.962580237794253 182 128 104 255
-28.336324451496466 -4.730740674443624 4.995116238927807 170 115 94 255
-28.559064905078117 -4.157622370839462 5.005095489404571 156 104 83 255
-28.683485053363995 -3.543925866351529 5.009440734970617 139 90 69 255
-28.414811047085976 -2.763265409156915 4.991219825346890 121 75 52 255
-28.244462469456948 -2.023028528990778 4.978646972130885 106 63 39 255
-28.270654521553780 -1.366415092445237 4.977368526069025 89 49 24 255
-28.296849865122084 -0.709705246073256 4.976097508448284 78 45 20 255
19.729336235262224 -26.079877096268405 1.624947241613995 194 166 134 255
20.587440488664754 -25.048237004982042 1.570269519576417 199 167 141 255
6.888841214453635 -27.310220544500297 2.379005048407880 197 161 137 255
9.230040043606834 -25.885276051231784 2.236101014187255 207 168 143 255
5.643467503972431 -26.148973969102954 2.446363846222379 206 161 138 255
3.638106878343706 -25.974214673475814 2.562475940851915 204 159 136 255
1.929481165031746 -25.723700035283969 2.660949754863267 202 157 134 255
1.406290254495275 -25.132460688899869 2.688785011744397 203 157 134 255
-0.202976980283040 -24.867887623266839 2.781405900549794 199 153 130 255
-1.120758613926625 -24.404105338266490 2.832820655655192 200 154 131 255
-1.643450000873599 -23.825375786568642 2.860687315594163 198 152 128 255
-2.067316976849213 -23.219206478068244 2.882670989840200 195 149 123 255
-4.267716705690589 -23.164699279904767 3.010704259738876 191 146 118 255
-6.467637662540369 -23.122186399349985 3.138765326291857 190 145 116 255
-7.088204322804359 -22.594665453704735 3.172575095576530 188 143 112 255
-7.511299703298789 -22.007818210112703 3.194608013699106 184 140 114 255
-7.441014095018488 -21.265212573747675 3.187179828626922 180 136 111 255
-7.469393651895871 -20.554030303354821 3.185647073882826 174 132 107 255
-8.188225840725863 -20.067935761779992 3.225380259722995 173 131 106 255
-8.512400240068530 -19.456055340949717 3.241542746655270 167 127 101 255
-8.442046283741035 -18.715145247165594 3.234127667086190 163 123 97 255
-8.568919134756300 -18.039679387263021 3.238507263986330 161 121 95 255
-8.892954279615878 -17.431274291688808 3.254685107092746 159 119 93 255
-9.216921722341908 -16.824560640294521 3.270869418814517 157 118 91 255
-8.752245756156242 -15.949433928355987 3.239874360058849 158 119 90 255
-8.780480726453163 -15.241835682870956 3.238370860350377 157 118 87 255
-9.104364352874086 -14.637205680540902 3.254568852439416 150 117 82 255
-9.625260199355580 -14.103396461062800 3.282573622451714 145 114 80 255
-9.653401436295098 -13.398129192002486 3.281084989025274 142 108 76 255
-9.287467843886702 -12.552464616773463 3.255995613084753 139 105 73 255
-8.527588741444333 -11.563161501212207 3.207298802462224 134 100 70 255
-7.964873159718024 -10.640886401317729 3.170401266108897 137 104 74 255
-6.121968792662244 -9.248439010970358 3.056764663040738 142 105 79 255
3.352157484513327 -1.279694734436021 2.469088027560623 154 116 96 255
3.420989808154786 -0.500518498195888 2.461664242663979 152 117 96 255
-21.021067813436247 -6.464087676968703 3.913782045632322 159 129 103 255
-23.801687462190216 -6.892943284221857 4.077909128684698 178 136 113 255
-24.910006727241353 -6.662026301640182 4.141593143001662 188 143 120 255
-26.214739237824347 -6.516940060285179 4.217116364188890 190 142 120 255
-27.027624766481409 -6.177643807521179 4.263101047825344 187 137 114 255
-27.545430801446088 -5.721098078082491 4.291363446420288 182 130 108 255
-27.964838750499041 -5.226421194448164 4.313724111965900 176 121 100 255
-28.580725335721127 -4.815935368468914 4.347921007548294 165 110 89 255
-29.098214264708048 -4.367307305203084 4.376216319210339 154 102 80 255
-29.320818295882503 -3.796550863631253 4.386780143122920 137 88 65 255
-28.953887216880617 -2.975664955677672 4.361863712434012 119 74 51 255
-28.783521817756963 -2.236787138241667 4.348779728559695 102 60 36 255
-28.613202598345424 -1.496739872870620 4.335699913570682 86 47 21 255
-28.541146620205410 -0.798181784117219 4.328540660061419 72 41 16 255
20.166077110546553 -25.948441804862668 0.803929235646414 193 170 134 255
18.850110285846085 -25.515496649109110 0.882303310729743 207 171 147 255
26.130054308411502 -22.693296487878158 0.425037318545591 195 160 135 255
8.582092369979080 -26.057250636345586 1.511639364798235 207 167 142 255
5.193836031103331 -26.265814128718887 1.719445674111554 208 163 140 255
3.583946432465723 -25.977602100089470 1.816425587845970 205 160 137 255
1.875660909457906 -25.727067332496219 1.919584835056742 204 158 135 255
1.155102154015026 -25.194160389503011 1.961161034312223 203 157 134 255
-0.355098438734501 -24.900670242021079 2.052034211544104 201 155 132 255
-1.371401119295967 -24.466858045608433 2.112118402303608 199 153 130 255
-1.696561600250050 -23.828704223862289 2.129081023422454 200 154 130 255
-2.317729953527987 -23.283032008947387 2.164536676183182 198 152 126 255
-4.418987928741785 -23.198518931694991 2.292448977661529 193 148 120 255
-7.309154987683826 -23.371786764018822 2.469696984440052 189 144 115 255
-8.028172726870935 -22.877482755721331 2.511364288771816 187 142 112 255
-8.253789494970363 -22.230401267210510 2.522216997429517 183 139 112 255
-8.183443971021063 -21.489689625480651 2.514577664350188 180 136 111 255
-8.902137519837083 -21.003500525930093 2.556267499492275 175 133 108 255
-9.719293442135154 -20.553321827423446 2.604133989879919 175 133 108 255
-10.043242892113881 -19.945490318101847 2.621176065899437 169 129 103 255
-9.972742945497203 -19.208633740045656 2.613553110971996 166 126 100 255
-9.902261255364294 -18.471315367620093 2.605931514675831 164 124 99 255
-10.226093124143745 -17.866418235461410 2.622986587208260 163 123 97 255
-10.155605229934565 -17.129246436783660 2.615370185929141 162 122 95 255
-9.986583705413238 -16.357841662140501 2.601585482354750 160 120 92 255
-10.014685457524365 -15.653484538827684 2.600142309052778 159 119 88 255
-10.633968925860700 -15.154994943077682 2.635728147662427 155 120 86 255
-11.745720521328280 -14.832655082338249 2.702181424458079 149 119 83 255
-12.069159385217830 -14.237578763646397 2.719272883518688 146 116 82 255
-12.097036180443638 -13.538839040427277 2.717852753009712 143 114 80 255
-11.041546559360540 -12.450961901285524 2.648530458466041 145 114 81 255
-10.675630185185810 -11.606741427970150 2.622415778325532 144 110 80 255
-10.703662768797983 -10.904079162628591 2.620997357981707 147 105 80 255
-11.125515342375593 -10.346207628183322 2.644281817618527 153 113 87 255
-10.661278792536507 -9.462389773309638 2.611995664614145 152 113 88 255
-10.590884094316550 -8.722814302587693 2.604411484468283 155 114 92 255
-12.095279623274223 -8.574695860627187 2.695653495320862 156 112 92 255
-12.319990970758170 -7.950195406563736 2.706614366570006 158 113 94 255
-19.666563908838384 -6.597944614205446 3.149501473655040 173 142 116 255
-21.463709855715138 -6.623906317109885 3.259430028003329 175 134 112 255
-23.752100624619686 -6.856680665039150 3.400288108428434 180 133 113 255
-25.155157676028097 -6.744571246318685 3.485538723280856 183 137 114 255
-27.246047943269161 -6.919734913107987 3.614084475090205 182 134 112 255
-27.960371556369751 -6.542895891930613 3.656097198861808 178 127 106 255
-28.477979577683300 -6.088776786290339 3.685755104781199 175 123 101 255
-28.209301889098214 -5.311105764386355 3.665952075043929 170 115 94 255
-28.726784522996496 -4.860112649933100 3.695625587640524 164 109 88 255
-29.047659830823932 -4.329124731116011 3.712939318199453 151 99 77 255
-29.564953388091084 -3.882853807334527 3.742631785032586 134 85 62 255
-29.296306558962129 -3.104372568850778 3.722847235912834 120 75 52 255
-29.224164572144559 -2.408436919836376 3.715437520154431 102 61 37 255
-29.053839400246744 -1.669478006324624 3.701845079285683 83 46 20 255
-28.883560729925279 -0.929343206196847 3.688255901241636 69 40 14 255
19.713403334819589 -26.060104241089832 0.038035692944501 194 178 140 255
18.496532593677500 -25.600953253669601 0.113585819329689 208 170 147 255
17.181146107246491 -25.175981544700747 0.195579327600896 192 157 133 255
16.754973378120212 -24.507851497008389 0.219721064010056 197 159 138 255
8.033142757967653 -26.201186633197878 0.784007863460211 206 166 144 255
4.151875877923658 -26.552840948062482 1.033284022362899 208 163 140 255
2.641152042585759 -26.238688845263013 1.128252286249747 206 161 138 255
1.821842700610318 -25.730494826252695 1.178215161525330 204 158 135 255
0.805279345214899 -25.285082650525922 1.241052981715228 203 157 135 255
-0.507178363913681 -24.933509970143518 1.323202026111943 203 156 136 255
-1.918045123852096 -24.618790274870079 1.411800226642161 197 150 130 255
-3.131238566652144 -24.251794561740368 1.487547104203880 197 152 129 255
-4.541513959553583 -23.951893296559760 1.576177807289177 197 152 129 255
-5.951483115541748 -23.659665660744494 1.664825359073927 194 149 125 255
-8.150354494154328 -23.621424604363256 1.804975213080059 190 146 121 255
-8.967783869124446 -23.160334688138349 1.855043581216833 186 141 117 255
-9.193259958748570 -22.515683714772351 1.866501848738629 184 138 112 255
-9.320070395771211 -21.840606416522661 1.871526837282133 181 135 109 255
-10.235718971297956 -21.421121732004181 1.928057530447120 179 135 110 255
-10.953975684811155 -20.942305218230459 1.971723141063549 177 133 108 255
-11.376318938487515 -20.370122490881329 1.996081569193414 170 128 103 255
-11.404270205916731 -19.669459465929052 1.994688576741918 168 126 102 255
-11.629347903779063 -19.034774948248270 2.006177705649858 167 128 98 255
-11.657271255714761 -18.334804302092337 2.004790139168442 168 129 97 255
-11.685191609327916 -17.634904936340348 2.003404840934397 169 130 99 255
-11.910174170541467 -17.002593628112251 2.014905052176566 169 130 96 255
-12.430676253485416 -16.473516043480345 2.045736151541401 165 126 93 255
-12.852557091423222 -15.912897846921823 2.070132364056025 163 125 89 255
-13.175849131113864 -15.319925551428852 2.088092145936262 162 126 90 255
-13.597563780248180 -14.763464571428770 2.112501386504050 159 125 90 255
-13.625275310603968 -14.068774175583272 2.111140513619034 156 121 89 255
-12.372901385601352 -12.914202255961200 2.026000321201533 155 120 88 255
-12.105377383429385 -12.109145111772321 2.005302151750751 150 115 85 255
-11.837916260018602 -11.302506625448032 1.984603656397816 150 113 87 255
-13.342360416717526 -11.145669830047893 2.079939127681435 150 113 86 255
-13.665381412905930 -10.559458157161586 2.097930827622164 150 114 87 255
-14.480407512457987 -10.158526469847260 2.148165617424006 153 114 88 255
-14.311226444394208 -9.391956250972783 2.133932694355838 151 109 84 255
-15.224406734877959 -9.034258492839712 2.190633550852759 156 112 87 255
-15.842247104251840 -8.568814821061153 2.228000077166040 156 111 87 255
-18.033896110233115 -8.711513683038632 2.368567499602271 156 111 86 255
-19.536548936551327 -8.599546304871950 2.464011039473711 156 110 87 255
-21.432277500577698 -8.649047203872854 2.585275326163661 164 121 97 255
-22.835903142442135 -8.515709106794560 2.674307440915804 169 129 105 255
-23.649259305084882 -8.156596642019096 2.724648174849882 187 144 123 255
-24.265809211671609 -7.723469433250486 2.762096471312532 186 139 119 255
-25.373763749379464 -7.490675714026722 2.831817083186420 182 134 114 255
-26.383186749947896 -7.224090743264100 2.895099377873469 181 135 113 255
-27.392395762598397 -6.962864254856456 2.958395405662102 179 130 108 255
-28.204842355625061 -6.626523685616178 3.008797071026061 174 123 101 255
-28.820591288457081 -6.213445273476339 3.046301374618036 170 120 97 255
-29.043201738070991 -5.640458347328604 3.057995211963444 166 111 90 255
-29.265771191450426 -5.068492177111850 3.069694866015215 159 104 83 255
-29.586531146895140 -4.538853973869138 3.087856450406594 146 94 72 255
-29.710788016313671 -3.927598893302658 3.093111841174169 131 83 60 255
-29.540396870808820 -3.191248825710133 3.079001067401183 116 71 48 255
-29.370051778600072 -2.453736300435551 3.064892381738332 98 60 34 255
-29.297941207820145 -1.757447449206936 3.057243894694526 77 42 16 255
-28.734968452041755 -0.847209244689282 3.017305998690329 62 35 10 255
20.019735502040874 -25.168299964645442 -0.780816822470893 205 171 146 255
15.050289377171168 -25.758058472097332 -0.447281256978012 185 151 126 255
14.130677252891132 -25.234675844738561 -0.388467179361591 199 162 141 255
7.484392914107218 -26.345171595953573 0.059094565005399 206 164 143 255
4.591238610829464 -26.414583200188915 0.252018240178106 209 164 141 255
2.389738441426232 -26.299436507779376 0.398049748171719 208 163 140 255
1.274492726842595 -25.878461484947920 0.470362348942114 206 161 138 255
0.949057217624556 -25.230225952018827 0.489052152776743 205 158 138 255
0.130265092558204 -24.730913073131788 0.541271384033497 202 155 135 255
-1.675094091712367 -24.533112081190211 0.660555428776927 200 153 133 255
-4.269369640552895 -24.584975763154091 0.833507918790545 199 154 131 255
-5.876551452755848 -24.348526827896222 0.939423544700826 198 153 130 255
-7.582026053207414 -24.151350366899948 1.052064416820954 195 150 127 255
-8.498079573024143 -23.717157756458164 1.111063825764095 191 146 123 255
-9.315314513205919 -23.256869430378643 1.163366057726556 186 141 118 255
-10.132373088932184 -22.801000025531977 1.215678204638049 185 139 113 255
-10.259062646259736 -22.128354005431106 1.221036287018237 182 136 110 255
-10.977256128884619 -21.647552145107269 1.266655053596967 179 135 110 255
-11.399562930558915 -21.074201470732277 1.292152245154345 175 131 106 255
-11.624646784788638 -20.438277113402691 1.304233935430752 175 132 107 255
-12.046795977373904 -19.868871927421679 1.329741902084841 176 135 108 255
-12.863036257107836 -19.433500554666821 1.382102719539439 175 136 105 255
-13.087895073826388 -18.803208903968283 1.394200200603660 175 136 105 255
-13.017137118604779 -18.073601214146422 1.386163383271025 175 136 103 255
-13.340449134999602 -17.478556510575359 1.404980543624283 174 135 102 255
-14.254706195041848 -17.089367127443595 1.464085420364260 172 133 100 255
-14.774801809782218 -16.567901367472487 1.496344367914514 166 130 96 255
-14.900865291107948 -15.910917107642646 1.501751281614549 165 129 96 255
-14.633025931701383 -15.115172673065160 1.480300075938334 164 128 96 255
-14.759085064096666 -14.458290088881412 1.485711215386843 156 119 90 255
-13.506845264671341 -13.306704534567913 1.397097008291130 151 116 87 255
-13.140820805285955 -12.468973293639124 1.368923314905729 152 117 89 255
-13.168587699075289 -11.772789795306608 1.367617188491774 155 119 93 255
-14.869424662493003 -11.691816043945906 1.480516691813172 154 118 92 255
-15.782652858130035 -11.328388084574883 1.539688920908763 145 110 82 255
-16.006925102754167 -10.712754433373973 1.551840640027407 142 105 78 255
-15.542467466843902 -9.839246770966511 1.516961315073218 138 98 72 255
-15.471608424683211 -9.112119401130016 1.508958841234520 143 99 75 255
-17.269651953495185 -9.097634235675372 1.628644590097466 138 94 69 255
-19.362362205112163 -9.206277656723600 1.768513419081920 144 100 73 255
-21.651301897509825 -9.402397124422123 1.921848449394140 176 130 104 255
-23.546427148624190 -9.457539397869326 2.048321546473645 183 137 113 255
-24.949548051468526 -9.329849310143430 2.141204377553770 185 138 118 255
-25.664209310390618 -8.937509065936737 2.187043811602020 189 141 121 255
-25.887232310058891 -8.353157029902391 2.199276135750086 188 140 120 255
-26.306786898137830 -7.848704877887684 2.224960769300498 188 137 118 255
-26.726256455140117 -7.346379800316072 2.250652057667399 185 135 115 255
-27.538702733809970 -7.006027181439336 2.303249273549753 181 130 111 255
-28.252723709918257 -6.629716599234385 2.349131815762593 174 123 104 255
-28.868351865221968 -6.216633519493243 2.388298231565056 168 117 96 255
-29.287386577298491 -5.725191244277781 2.414020797659770 161 109 88 255
-29.509892621437047 -5.153765427050189 2.426296615988605 154 102 81 255
-29.634146375116700 -4.542043027415275 2.431850051214209 143 91 70 255
-29.758381182155603 -3.930790099661351 2.437407417851919 132 81 60 255
-29.882597280172661 -3.320000597172751 2.442968753295705 115 67 45 255
-29.614077718092148 -2.541182757057385 2.421619310133185 95 56 34 255
-29.247457530712438 -1.718264723541026 2.393540894166094 73 42 20 255
-28.782769287915158 -0.850429617830983 2.358732122287993 58 34 12 255
18.085995312827151 -25.690223059396857 -1.439876636488503 205 173 148 255
18.351020379244801 -24.825369629147062 -1.462253343362384 184 150 125 255
11.013759752270460 -26.100556515851750 -0.947634686447302 200 162 141 255
8.219195404321397 -26.124129588923410 -0.753766851663826 206 164 143 255
5.523949298950754 -26.134632490118364 -0.566844558792873 208 166 142 255
3.026686672385097 -26.102623988903659 -0.393844829669288 208 164 141 255
1.418151870215866 -25.824214100410430 -0.283602679745872 207 162 141 255
0.895405921455506 -25.233764452806895 -0.250084658281406 204 158 137 255
0.274107093233226 -24.675571193841066 -0.209583292669667 199 152 132 255
-1.925532635941465 -24.596030121713696 -0.057434562696002 201 154 136 255
-4.913844594218858 -24.768306315169454 0.150561530132165 200 155 134 255
-7.506972784659752 -24.835924505181197 0.330674960256925 199 154 133 255
-8.620201046937268 -24.459950653916735 0.406130734815356 196 151 130 255
-8.747072422027884 -23.782153468157716 0.411803894645683 194 149 128 255
-9.268321364004862 -23.229224426822938 0.445399429190715 190 145 124 255
-10.085228667283957 -22.773075487584251 0.499942830553525 189 143 118 255
-10.901959782201402 -22.321342012334682 0.554495615436998 185 139 113 255
-11.225672519746240 -21.714682144176194 0.574150370044862 181 137 110 255
-11.647874757698474 -21.141867558794004 0.600791544443716 180 136 109 255
-12.365628167206211 -20.668520659389984 0.648385585990159 183 140 115 255
-12.886155179063650 -20.133679282882056 0.682022112597554 184 142 117 255
-13.406571324927285 -19.601615317353335 0.715665093404795 181 142 113 255
-13.434303620066032 -18.906236733813785 0.714394761008673 179 140 110 255
-13.954552289629419 -18.378367049009810 0.748048217867016 177 138 109 255
-14.277704331138978 -17.785748833273061 0.767738282058094 177 138 107 255
-15.388647824315996 -17.467032599479580 0.843316328462198 175 136 105 255
-15.514636313868408 -16.811341228567684 0.849047551174728 170 133 103 255
-15.443679296204124 -16.087111865267701 0.840808542923828 169 132 105 255
-15.077391425025979 -15.257885087343411 0.811609482647807 171 135 107 255
-15.695580513383931 -14.777614902401226 0.852282065450723 181 145 118 255
-15.919924448206189 -14.159121387078741 0.865010664468599 182 146 122 255
-15.947388048749190 -13.470455465652648 0.863766168829869 183 147 122 255
-16.171664113317320 -12.853657904871284 0.876501083159734 174 139 114 255
-17.379858403998696 -12.599827334067058 0.959133053105415 170 136 110 255
-17.505552694671906 -11.951489844429517 0.964890348402964 156 122 96 255
-17.926348677810040 -11.413890237099864 0.991621291598964 149 112 86 255
-17.560145731040734 -10.582509853022302 0.962431532817519 141 101 76 255
-17.784147594653234 -9.972572518616445 0.975187350858295 129 88 63 255
-18.303133396871942 -9.476325757465247 1.008922183462381 123 80 55 255
-20.591982595895672 -9.663247700026503 1.168523995748053 156 113 86 255
-22.487053032761025 -9.710281366417036 1.300178893862046 174 129 102 255
-24.578335326160840 -9.844244203417986 1.445840295634152 182 136 112 255
-25.981069876877456 -9.719234535129942 1.542567915333876 183 136 116 255
-27.088637600389291 -9.485113919087965 1.618328310805364 188 138 118 255
-26.820077873783646 -8.708776336650885 1.596176130995023 186 135 116 255
-26.944652381462703 -8.088482815267966 1.602003419857926 187 136 117 255
-26.970950002010198 -7.429006565580039 1.600837954792418 186 134 116 255
-27.586723100332335 -7.009262369218547 1.641650809959920 183 130 112 255
-28.104133688641383 -6.552482575617518 1.675474743631256 176 123 105 255
-28.817886799947217 -6.179355170032693 1.723299393305243 165 112 94 255
-29.531491250085764 -5.809952158022824 1.771132621425291 159 103 86 255
-29.655731258068215 -5.198025227608824 1.776986638642555 150 94 77 255
-29.878144059305129 -4.627884129343343 1.789842010655128 137 84 66 255
-30.100516460999216 -4.058752329331398 1.802701258192354 127 75 57 255
-30.421019080161471 -3.532474005872402 1.822563772591494 112 65 45 255
-30.054342922891919 -2.712892389885425 1.793432193715915 90 53 30 255
-29.197012001969625 -1.679111998216143 1.729297324867556 69 41 19 255
-28.928707034645186 -0.896336372867225 1.707160802009458 54 31 9 255
15.430971587557337 -25.627856236775514 -2.039255761562650 189 153 129 255
11.451646081651745 -25.965231174966988 -1.750788798083310 203 165 144 255
7.966687731359968 -26.183984557481878 -1.498515102333108 204 162 141 255
5.173312119748459 -26.223345783560646 -1.296936142882604 205 163 141 255
2.676580062826076 -26.192116699453351 -1.117071725122820 204 162 140 255
1.068398018539312 -25.914498012353718 -1.002414573632528 203 161 139 255
0.447131057556419 -25.354017652281769 -0.960226202270878 202 157 138 255
0.121935405487079 -24.708596772162096 -0.939777860736314 200 155 136 255
-2.077254823855412 -24.629297774995834 -0.781584918700975 200 154 136 255
-5.558080239876688 -24.951679695789636 -0.529119999948271 204 159 139 255
-7.361719196749846 -24.778924730961819 -0.399878096279206 202 157 137 255
-8.869158079609235 -24.524458432628037 -0.292370565569762 200 155 134 255
-9.390351266283517 -23.970344110954287 -0.257361560702215 199 154 133 255
-10.108594797304249 -23.481142387818721 -0.207842802059034 195 150 129 255
-10.826683599264243 -22.995818988875314 -0.158316159239046 191 145 120 255
-11.347498794154234 -22.451178055196110 -0.123287307058540 187 141 115 255
-11.868202616878449 -21.909328164655065 -0.088252490914243 183 139 112 255
-12.191719265514166 -21.305993194584929 -0.067719279935925 181 137 112 255
-12.810749481576750 -20.801581674005760 -0.025419254706875 187 144 119 255
-13.331130764755613 -20.267814613828833 0.009632928822498 186 144 119 255
-13.949906892364652 -19.769771262855897 0.051946241664439 183 144 115 255
-14.076076293478906 -19.108959728278435 0.057988061505213 182 143 114 255
-14.596157831644291 -18.582703888063705 0.093056592673314 179 140 111 255
-14.722235469311329 -17.924189715167429 0.099104570042233 179 139 112 255
-15.537527289675154 -17.504461254408184 0.155954273263063 181 141 115 255
-15.565029605546300 -16.814743561554607 0.154752241576013 180 143 117 255
-15.592529593842301 -16.125082268974083 0.153551388593804 187 150 124 255
-16.309039790977380 -15.679322056611483 0.203161174668224 197 159 135 255
-18.501691115265885 -15.763966638363343 0.361663152785233 196 160 136 255
-19.906596666740171 -15.577525318769005 0.462111453490998 192 156 134 255
-20.130422507613702 -14.970939968516049 0.475455212088868 184 148 127 255
-20.550978440061613 -14.437298686789987 0.503322721184698 177 142 120 255
-20.774693859970199 -13.833478626625578 0.516673438969864 168 133 111 255
-20.801633468450746 -13.157857143335093 0.515504557151154 160 125 103 255
-20.435151859117127 -12.335364348503234 0.485289737958979 151 115 91 255
-20.855509842187388 -11.806679494939900 0.513170186950731 142 104 81 255
-20.882446965421934 -11.131114336030635 0.512004691787393 135 94 72 255
-21.302674795586341 -10.605689604138064 0.539892971401891 131 89 65 255
-22.312688564415112 -10.309241489094347 0.611367849792526 147 104 78 255
-23.322487191540944 -10.018187002647267 0.682853119493906 168 124 97 255
-24.823523540220606 -9.924229997875827 0.790671538345151 178 132 108 255
-26.127678046593445 -9.761130821279323 0.883974908508783 177 131 108 255
-27.038477371282823 -9.449504218038740 0.948229469244577 183 132 112 255
-26.966501113968832 -8.751203932514144 0.939833996520761 183 132 111 255
-27.091042326339561 -8.131180125581650 0.945971476973661 185 132 114 255
-27.510273460084363 -7.630736021189691 0.973911541227938 184 131 114 255
-28.322323944418656 -7.292253861082344 1.030925658039475 183 130 113 255
-28.741342893159839 -6.797127291878880 1.058877045969659 177 123 106 255
-29.160277580778683 -6.304111960080363 1.086833158632359 164 108 91 255
-29.579128225785183 -5.813202386181942 1.114793986256416 158 102 85 255
-29.801529085659070 -5.242314720973653 1.128221187343421 145 89 72 255
-30.023889385069310 -4.672442261323013 1.141651248765136 134 80 62 255
-30.246209357401824 -4.103579149194999 1.155084163082904 123 71 53 255
-30.468489239556533 -3.535719438300035 1.168519922777659 105 59 41 255
-30.101889645442725 -2.716144751610457 1.138332531094353 82 46 26 255
-29.440992097520052 -1.767155456728361 1.086328119230252 62 36 16 255
-29.270841024120159 -1.027584230872449 1.070677872148906 44 23 3 255
12.314668324638887 -26.485406169322559 -2.585433300295019 198 162 138 255
9.718142055858095 -26.441788584362413 -2.391258900355073 206 168 147 255
7.516901915948495 -26.300056083228370 -2.227134243835792 200 159 137 255
4.921465218282208 -26.283761519775524 -2.032911227418360 199 157 135 255
2.819886253023469 -26.138555625062722 -1.876261400229847 199 157 135 255
0.916060360167535 -25.947050516326073 -1.734631312153876 200 158 136 255
-0.494167063068119 -25.620131692458912 -1.630585496881700 201 156 137 255
-1.904087850573433 -25.300901716637327 -1.526525664771132 200 155 136 255
-3.905393362744121 -25.167575622145336 -1.377322895804372 200 155 136 255
-6.399285304517832 -25.195042537458207 -1.190490975294111 205 160 141 255
-7.906697548005752 -24.933695106482674 -1.078859185453474 206 161 142 255
-9.315199399381754 -24.650046589339880 -0.974735492880104 207 162 143 255
-10.033390797456036 -24.158575925669126 -0.923261182920179 204 159 140 255
-10.751427376979564 -23.670986691776719 -0.871779455285957 196 151 132 255
-11.075107083885484 -23.061976584536467 -0.850387225456494 192 146 122 255
-11.891417291189697 -22.612654476744112 -0.791367890676558 188 142 118 255
-12.313435516453353 -22.040284027309966 -0.762440830903707 185 140 117 255
-12.636845838196393 -21.438025932652792 -0.741034767218437 185 140 116 255
-12.861680688324071 -20.805066785295793 -0.727151082742196 185 143 119 255
-13.381959331471023 -20.271293618747109 -0.690685222369432 185 143 120 255
-14.197585026140075 -19.839132915298848 -0.631633147716343 185 145 119 255
-14.914560323168303 -19.378150551990089 -0.580100373125234 187 147 121 255
-15.434453244174165 -18.854047920052466 -0.543616119324533 187 147 121 255
-15.757328509265534 -18.265201758557765 -0.522183119063200 190 150 124 255
-15.784807926901522 -17.575964372402566 -0.523332839394296 194 154 129 255
-15.910717047678105 -16.921081490379223 -0.516952603634547 203 162 139 255
-16.331866517174092 -16.370487610268839 -0.487981811794111 212 171 149 255
-17.835444712087224 -16.205280223004522 -0.376175750755664 207 168 147 255
-20.814696344781822 -16.574773695738230 -0.151397487140109 204 166 145 255
-22.514242312948198 -16.500639618793087 -0.024494430777889 199 161 142 255
-22.934502262451360 -15.972352420746660 0.004515879589015 191 154 135 255
-22.961204277019789 -15.302606181366073 0.003402857028657 181 146 126 255
-22.692834425644378 -14.524342869521391 -0.020306572563889 172 137 117 255
-22.621220170905559 -13.817393836844261 -0.028952578217176 162 127 105 255
-22.451291114560064 -13.073206192341743 -0.045132171401281 155 119 97 255
-22.674702682370452 -12.475926370383576 -0.031178358103070 146 108 87 255
-22.701442950803681 -11.805216128248034 -0.032290511858285 141 100 78 255
-22.826485901409427 -11.172046776607345 -0.025867642332937 134 94 69 255
-23.442968839847140 -10.728426761800449 0.018231617840318 139 97 71 255
-24.354167500937535 -10.402255055398626 0.084943022763877 156 112 85 255
-25.363443635780982 -10.119273132641382 0.159198749681334 171 125 99 255
-26.470765185442730 -9.880285153120866 0.241000107698582 177 129 107 255
-27.184853414845776 -9.491696420192937 0.292664410720718 179 128 107 255
-27.407598968691389 -8.911116143803525 0.306649029896104 179 128 107 255
-27.532074662085563 -8.292170356430262 0.313098010468735 179 128 109 255
-27.951181272044778 -7.792800251794901 0.342162535323300 178 126 109 255
-28.468409584588926 -7.335510782147523 0.378769424233251 176 123 107 255
-28.887336414717339 -6.840649066796814 0.407841929451294 171 117 101 255
-29.404363868094947 -6.388396782390913 0.444457634188588 162 106 89 255
-29.921285839613432 -5.938789867785843 0.481077927502444 152 96 79 255
-30.045449353656352 -5.327671675340682 0.487541319580114 141 85 68 255
-30.365898974602004 -4.799644354040552 0.509087301477440 130 77 59 255
-30.588145040621498 -4.231588672488442 0.523094749009093 119 69 49 255
-30.810351088601635 -3.664536485833139 0.537103999530455 99 55 38 255
-30.443795809933846 -2.845777572448071 0.505862139589702 79 46 27 255
-29.881111172288456 -1.939995581638286 0.459531493498787 57 31 14 255
-29.710954421834941 -1.201507663467098 0.443367590849945 37 18 1 255
-29.835108687748942 -0.590619793008869 0.449832265089821 21 10 0 255
9.693001406164910 -27.205248009536589 -3.153680924057642 200 168 143 255
7.491957681613712 -27.057402160222011 -2.983518509387213 208 171 148 255
6.771296438120203 -26.500414515366288 -2.930198587314244 203 159 138 255
5.754843243156017 -26.032390304194678 -2.853497244356639 182 137 116 255
3.259031996053693 -25.999200882353179 -2.659909629061172 190 146 126 255
1.256903968313338 -25.835208291671748 -2.505259876669335 202 158 139 255
-1.533724073901510 -25.915442048583728 -2.288250544058354 198 154 135 255
-3.534893727488281 -25.775486302046232 -2.133560121175083 203 158 140 255
-5.437032154331007 -25.616758170499168 -1.986644692210053 206 161 143 255
-6.747248465616451 -25.288581213735824 -1.886475229154179 211 166 147 255
-8.352901974625240 -25.058267260964115 -1.762910406162604 210 165 146 255
-9.859643341138735 -24.806194007672460 -1.647125532016922 209 164 145 255
-10.577638550735230 -24.316065508397159 -1.593688502761928 204 159 140 255
-10.999854225432387 -23.736658618871687 -1.563631488812661 197 152 133 255
-11.224918248883824 -23.096861845582680 -1.549162342185060 195 149 127 255
-12.336615883470529 -22.742579876214251 -1.464522025459512 192 146 123 255
-13.054035887050816 -22.266875587228938 -1.411059248668831 190 145 122 255
-13.475806125726223 -21.698637916396379 -1.380981858205317 188 143 120 255
-13.306560378358881 -20.938221839136332 -1.397687206312124 189 146 124 255
-13.728216359812563 -20.372848460907420 -1.367604215423540 190 148 125 255
-14.543648020996670 -19.941487022558064 -1.306322521264274 189 149 123 255
-15.654270910151155 -19.614159696898696 -1.221636108581759 192 152 127 255
-16.469320128635957 -19.192390525240427 -1.160338335685680 192 152 127 255
-16.595156900414366 -18.538732519988812 -1.153632958704588 200 160 138 255
-16.917815983259118 -17.953724177623258 -1.131325544592368 207 166 144 255
-17.732470270734041 -17.541860385148382 -1.070011105631387 216 174 152 255
-19.038958577605115 -17.307184623055107 -0.969683247740150 216 174 152 255
-20.837119746598063 -17.253739674326042 -0.830335580069082 213 172 151 255
-22.241371170336436 -17.069644796944402 -0.722180671342841 210 169 149 255
-23.546950319679297 -16.857774929193994 -0.621816113254575 199 159 141 255
-24.360455012908403 -16.474747989471183 -0.560455098235312 190 151 132 255
-24.288655105586429 -15.772866252482459 -0.569317681749652 176 141 122 255
-23.921863995808735 -14.961931916804389 -0.601592557512660 167 135 114 255
-23.653484219873718 -14.185318314157257 -0.626066626401411 159 127 106 255
-23.680114992783587 -13.517272201125039 -0.627129286812263 152 116 96 255
-23.706745035211185 -12.849244658807550 -0.628192052542310 147 109 88 255
-23.438492085115428 -12.069450306911492 -0.652671586204089 141 103 81 255
-23.465153468605422 -11.400637269457533 -0.653735990828569 133 96 70 255
-24.277995855832302 -11.034226284411403 -0.592349465574785 136 96 69 255
-24.992404360690557 -10.634060836181973 -0.538763190922104 152 108 81 255
-25.706662577218140 -10.237666040154224 -0.485171244251646 165 119 94 255
-26.322530308600790 -9.806428280027490 -0.439381356296511 171 123 100 255
-26.938269652156123 -9.378411925475405 -0.393586745782542 172 124 101 255
-27.553880810774729 -8.953611954611731 -0.347787457793633 171 123 101 255
-27.874739566314730 -8.413769853193244 -0.325410465401269 172 122 102 255
-28.293732451329532 -7.915203130539794 -0.295222061871421 170 120 101 255
-28.614454149876735 -7.378801141832483 -0.272840676502469 168 117 100 255
-29.033288902673661 -6.884203347537053 -0.242647111768537 163 112 95 255
-29.550204667102065 -6.432213610358247 -0.204640120613259 160 105 90 255
-30.165169398328032 -6.023635845392150 -0.158818454148026 150 94 79 255
-30.289289350140450 -5.413055504712105 -0.152050242739509 135 82 66 255
-30.413390397432153 -4.802950784015010 -0.145282036538845 122 71 54 255
-30.733716980668078 -4.276468043965124 -0.122889027667892 112 64 46 255
-30.955870762207866 -3.709682537586616 -0.108307252530405 92 50 33 255
-30.687481946310044 -2.933314530315982 -0.132791241349040 71 38 20 255
-30.124891853403568 -2.028080178884395 -0.180720094635241 48 24 7 255
-30.150909109560985 -1.375446461999886 -0.181770302768093 32 14 0 255
-30.373067075838463 -0.808562934109489 -0.167192493014227 17 9 0 255
-31.477704046682362 -0.631416646536906 -0.082278863357537 10 11 0 255
-39.741511400466237 -1.080330233708182 0.561295382097533 10 14 0 255
-41.726391907981309 -1.349007174819008 0.716629572285125 9 13 0 255
-41.457259313749006 -0.591318716664375 0.692163519418958 8 12 0 255
12.400112320201117 -26.438139653420095 -4.143125565574270 204 175 149 255
8.127530241877594 -26.866623826458195 -3.797611356012325 206 172 147 255
6.519172495311182 -26.560428509844613 -3.669760986452943 204 164 140 255
5.305683590150693 -26.149628348869172 -3.574149610075338 178 133 112 255
5.473122377416587 -25.344787353062273 -3.591420557960188 95 50 30 255
2.780889237381757 -25.376768757823285 -3.374828886221930 200 155 136 255
-0.699535064902591 -25.656753175033629 -3.093696473586590 198 155 136 255
-1.320191580871779 -25.102316443668144 -3.046420988242986 202 159 142 255
-4.799410078325309 -25.412549346231614 -2.765240609803755 208 165 148 255
-7.785045019935694 -25.591965038929075 -2.524359868104177 217 172 153 255
-9.587379102442299 -25.424814663474123 -2.380249146060063 217 172 153 255
-11.192234366259470 -25.206475709033086 -2.252256202355760 211 164 146 255
-11.811414622372297 -24.689069416613606 -2.204920569390289 204 157 139 255
-11.740808713046960 -23.957640722986795 -2.214052033689377 199 152 134 255
-11.965753776853461 -23.319732634917159 -2.198979832074123 199 152 133 255
-12.880154292564839 -22.904142295452942 -2.127426918654258 200 153 133 255
-13.794357424609530 -22.493503372387849 -2.055866101343625 196 151 130 255
-13.822054221721629 -21.798621609715156 -2.056920012353469 191 146 124 255
-13.751279652856851 -21.071420824818588 -2.066043108470435 193 150 126 255
-13.975895184668275 -20.441777294105279 -2.050956711064629 194 152 128 255
-14.692697102480025 -19.978002365989909 -1.995516397454256 195 154 129 255
-15.803088407538979 -19.650929616826133 -1.907786906608326 195 155 130 255
-17.011665199319879 -19.363347738311205 -1.811977055681794 197 160 135 255
-18.416809607003813 -19.149814221248732 -1.700014054694787 202 168 143 255
-18.640808659705584 -18.535637187583944 -1.684904048150813 212 176 152 255
-20.537438521121146 -18.505558615218078 -1.532560859552646 221 180 159 255
-22.040129656809313 -18.347542588880415 -1.412493671022375 201 156 135 255
-22.657155267918768 -17.884189784650914 -1.365073781927158 140 95 73 255
-23.372410427254124 -17.459223033471673 -1.309575556954215 129 83 61 255
-24.185863047471031 -17.073447474259837 -1.245997831499242 146 101 81 255
-24.900803144599507 -16.656386764678274 -1.190488427312538 165 123 104 255
-25.025622148528015 -16.027675373082189 -1.183423153246697 170 133 115 255
