ply
format ascii 1.0
element vertex 650
property float x
property float y
property float z
property uchar red
property uchar green
property uchar blue
property uchar alpha
end_header
-21.026773943959242 -18.378400275797887 -2.777389905433097 203 160 141 255
-21.158802820792985 -17.924848451452803 -1.998468163061204 197 154 135 255
-21.241456175275800 -17.376192747248453 -1.518338936621831 186 144 122 255
-21.241809260669783 -16.663210635790662 -1.536341858076696 176 134 112 255
-21.176327541303493 -15.815515522787166 -1.952933443610277 166 124 102 255
-21.209641705271046 -15.169207588497670 -1.771668788435591 154 112 90 255
-21.193585313285695 -14.421298866793421 -1.889361081691391 146 104 80 255
-21.210472901828922 -13.741724017553167 -1.807740312907697 135 93 68 255
-21.145067416187793 -12.888889884588437 -2.224477857842885 132 89 57 255
-21.161993828177302 -12.208876364883977 -2.142876651978554 129 86 54 255
-21.162477933877298 -11.494024358666692 -2.160955385919351 127 83 52 255
-21.278215289765093 -11.027942390156426 -1.481185867967554 125 80 49 255
-21.393970897071149 -10.565530269800618 -0.801328097241480 134 89 58 255
-21.526206485284803 -10.142874627213132 -0.021675023586624 154 107 77 255
-21.576154553076485 -9.542600469519058 0.259508918722133 164 117 87 255
-21.626123599908325 -8.943816131064693 0.540725705430873 166 121 92 255
-21.659653300657823 -8.309611102510644 0.722247264259238 159 113 84 255
-21.660284294227282 -7.601994040216567 0.704318137422263 136 90 64 255
-21.644478772517111 -6.856779653720224 0.586638436999465 125 79 54 255
-21.645157992528262 -6.148577077492092 0.568683988439602 112 71 47 255
-21.695241121110897 -5.554157897494576 0.849985443517539 93 53 29 255
-21.794726158384407 -5.075947770839846 1.430604226050946 68 28 6 255
-22.009447549277304 -4.870474961707629 2.709677543557177 141 103 84 255
-22.454611357495111 -5.214986185932958 5.385779961529522 204 165 148 255
-22.949160713420227 -5.691110918811205 8.361590591656494 203 161 144 255
-23.443717727849155 -6.183271610270694 11.337802703341282 208 162 146 255
-23.658497656892479 -6.018127955094045 12.617877080866350 211 164 149 255
-23.889753460396150 -5.899686117834506 13.997922278967991 206 157 142 255
-24.038740908547510 -5.587853191750327 14.879097589650314 199 150 134 255
-24.204206546947070 -5.321084952865888 15.860202052237469 190 143 123 255
-24.468431809587436 -5.303650716097565 17.440376172086900 183 135 115 255
-24.765585568050227 -5.376573038118934 19.220420437067389 172 124 104 255
-25.128576755027218 -5.623946512915353 21.400051858660817 167 119 99 255
-25.359936959111799 -5.550946238858700 22.781216567983932 182 133 116 255
-25.657134293411168 -5.652390536088632 24.561968334024868 204 155 141 255
-25.970800258917372 -5.805385849746642 26.442814428070335 208 161 146 255
-25.971853796525174 -5.164306668659378 26.426465267304764 203 157 142 255
-26.071658811863088 -4.778494348190918 27.009336714418168 189 141 126 255
-26.006958586588723 -3.966980953002093 26.593482996776117 175 129 113 255
-26.139724258188707 -3.670633888123305 27.376195110981797 158 114 95 255
-26.140897335929957 -3.031033963865227 27.359856863368776 137 96 76 255
-26.125651143920443 -2.347416232612545 27.243602831892787 125 90 66 255
-26.044634726368059 -1.487084635129008 26.727689983663510 104 74 48 255
-25.963657051395955 -0.623669436305406 26.211691093256519 93 66 40 255
-18.943459405208792 -21.169518717258327 -19.865228477659514 189 181 146 255
-19.024589699863370 -20.556268591755241 -19.386388440833286 203 168 147 255
-19.931874330798003 -21.483759344885826 -13.827078885822914 205 172 153 255
-20.644780109772171 -22.076333729150221 -9.462482036064102 216 181 162 255
-20.904129025873857 -21.833136246374494 -7.886911982339825 213 176 158 255
-20.985304071646055 -21.257940638274633 -7.407125042178848 216 177 159 255
-21.082691141106118 -20.716673782584905 -6.827630413412464 214 173 155 255
-21.212488934283897 -20.241644273525935 -6.048758211533311 212 170 151 255
-21.342300448148691 -19.770914382210634 -5.269780927700538 214 171 150 255
-21.488324388782274 -19.336523057812798 -4.391035457967462 212 169 150 255
-21.569569512806254 -18.777703115695275 -3.910852216664466 209 166 147 255
-21.699424477378948 -18.319299479697207 -3.131574585924170 206 163 146 255
-21.829294554334879 -17.865173044796165 -2.352192742736861 200 157 140 255
-21.910586264317288 -17.315949141399528 -1.871778484946276 191 150 130 255
-21.943301025367063 -16.669195012318923 -1.690393286975507 179 138 118 255
-21.959835756377750 -15.989802167903420 -1.608690377226822 170 129 107 255
-21.992586425600173 -15.344819321815621 -1.427268540209013 159 118 96 255
-21.944368598336801 -14.529838513068796 -1.744414191619512 150 109 87 255
-21.896171292069972 -13.713164582234185 -2.061606921266332 139 99 73 255
-21.799403752448569 -12.790566459763255 -2.678041222274032 134 90 61 255
-21.832234414176774 -12.144731499169893 -2.496658392482118 128 84 55 255
-21.832692077054013 -11.429318368055604 -2.514745421179555 122 78 49 255
-21.946547598100707 -10.962659290603057 -1.834576747665210 122 77 48 255
-22.028029909842921 -10.428027813988976 -1.353837515178498 120 75 46 255
-22.125729143644534 -9.932070210566593 -0.773272372280530 137 92 61 255
-22.174861079596923 -9.330146130740943 -0.491950509120727 152 107 76 255
-22.272602699909690 -8.839604156269090 0.088741472397544 161 116 87 255
-22.370365751377854 -8.352164877531862 0.669506748764206 156 111 82 255
-22.419564621759903 -7.756307454522627 0.950966422117403 143 99 72 255
-22.452592012428269 -7.124475930870545 1.132658071751280 128 84 57 255
-22.469449121330904 -6.455851882679156 1.214560858081938 109 67 42 255
-22.502526329476488 -5.825580994500001 1.396280793265021 95 55 30 255
-22.648989042468536 -5.463983008892825 2.276759932176503 137 96 74 255
-23.022189793713288 -5.646393740947033 4.554932240692438 204 161 144 255
-23.460179368397903 -5.996233080811976 7.232745654136153 198 156 138 255
-23.898180278636900 -6.360487723911476 9.910918995445769 205 159 142 255
-24.222840556083462 -6.463808553596920 11.890517840115194 206 161 144 255
-24.482744984156369 -6.419324462402216 13.470961696749470 207 159 144 255
-24.532165687741831 -5.864887342070517 13.753413967522562 202 153 138 255
-24.694957717145058 -5.592884509840204 14.734974538154688 194 145 127 255
-24.760621681442416 -5.083551856447755 15.117408603146146 185 138 118 255
-25.101565156231224 -5.267880764772926 17.197883127096134 176 129 109 255
-25.393949870989402 -5.340466069431713 18.978967249961954 166 119 99 255
-25.621588620410890 -5.257629273438127 20.360702706185208 153 106 86 255
-26.027338223057392 -5.638678776454270 22.841550970209681 141 94 75 255
-26.255011022365622 -5.573495219644258 24.223722767195767 205 158 142 255
-26.596027920740809 -5.809975350550047 26.305492301373391 210 163 148 255
-26.629470070557602 -5.253505022968753 26.488987458071250 207 161 146 255
-26.727695834503287 -4.868193610517622 27.072218649630287 195 148 133 255
-26.680257516419935 -4.100064239338280 26.756079553195718 180 133 117 255
-26.713792080541296 -3.545667819653886 26.939606536152866 168 123 104 255
-26.698797570907765 -2.861808842075433 26.823291114620559 145 102 83 255
-26.716210912108153 -2.264432023625645 26.906862878880531 131 91 70 255
-26.701286200281757 -1.579346612800919 26.790501280255995 111 78 50 255
-26.670212515175429 -0.849132541292988 26.574136552892043 94 67 40 255
-19.328222670223596 -19.726127618790784 -22.341719099367651 203 173 153 255
-20.905730075881763 -21.942590083670765 -12.493340177228788 204 168 152 255
-21.336042933668608 -22.021872434752140 -9.820641426136376 210 175 156 255
-21.559234619584934 -21.716695408094552 -8.443518341913602 214 177 158 255
-21.670906683546598 -21.202322423647473 -7.764069291231863 215 177 157 255
-21.910058405706636 -20.941587411303516 -6.286918809331041 212 174 153 255
-22.005825558996811 -20.405404664790026 -5.706940269496044 213 172 152 255
-22.149406910985476 -19.967760482384818 -4.827739651171896 217 176 156 255
-22.213338341441471 -19.374738393974496 -4.447028802938462 217 176 158 255
-22.309151710087072 -18.848471137740674 -3.866811133718329 210 169 151 255
-22.420914115577915 -18.357989312534841 -3.186781286800681 209 168 150 255
-22.580491109539842 -17.969798189903443 -2.207435113387248 201 159 143 255
-22.708219064948786 -17.520715404764104 -1.427455585174584 192 151 132 255
-22.692571361552638 -16.775384634651587 -1.545172903247988 179 138 119 255
-22.676943010057535 -16.029458973782852 -1.662909431589867 172 131 111 255
-22.661334551518479 -15.282931966626791 -1.780665451435482 165 124 103 255
-22.613882245050874 -14.467397958161470 -2.097993287755401 155 114 94 255
-22.582383480207042 -13.684639527064547 -2.315585608290178 145 105 82 255
-22.534974700947487 -12.865980833319185 -2.633001571448631 136 94 68 255
-22.630973991542170 -12.360694800860983 -2.052297276073318 129 87 59 255
-22.647335986610962 -11.682157147138767 -1.970534894902016 121 79 49 255
-22.727445968259381 -11.146251392262016 -1.489526033912227 111 67 38 255
-22.759783956093173 -10.505479031863004 -1.307907624155121 110 66 37 255
-22.808076060370027 -9.901758151330938 -1.026446323167704 134 90 61 255
-22.888252974012353 -9.372250443669685 -0.545291319859473 147 104 74 255
-22.984383314250863 -8.881940518629776 0.035760687190020 155 112 83 255
-23.160188335398807 -8.579227848814227 1.116107058460216 152 111 83 255
-23.208573059366685 -7.984959263463807 1.397785642901226 145 103 76 255
-23.256982696289043 -7.392158063642185 1.679495642976235 124 83 56 255
-23.193910060163745 -6.536848340250856 1.262183051586192 117 75 52 255
-23.258302111010480 -5.983046875630151 1.643778704237377 144 104 80 255
-23.482011345607653 -5.813736894301812 3.024203896813049 204 163 141 255
-23.896887501969047 -6.114069129113020 5.603435025632848 202 159 140 255
-24.168420332676064 -6.079152902207554 7.283981677512173 206 160 144 255
-24.503685089034185 -6.209489113550134 9.364347049777848 203 158 139 255
-24.870822073803303 -6.429656029431200 11.644801535156972 203 158 139 255
-25.142408170791128 -6.424442820901646 13.326083250919453 202 155 137 255
-25.254740055562849 -6.029469849600176 14.008389132895900 198 151 133 255
-25.287462834730562 -5.437332228490135 14.191145699031949 189 142 122 255
-25.336141668354635 -4.886459161184547 14.473850652593910 179 133 110 255
-25.591890259051560 -4.865916654868442 16.055809968061368 170 125 104 255
-25.815806796372030 -4.771882453681073 17.438082123293213 161 116 93 255
-26.071595244521809 -4.767648433335125 19.020442694043481 149 103 80 255
-26.375178106711417 -4.896341869766090 20.902894274250826 129 83 64 255
-26.838023375742729 -5.452824344317762 23.785275992806760 197 150 134 255
-27.221255752577896 -5.814554238008299 26.168169870470621 205 160 145 255
-27.286026460434506 -5.342683352049050 26.551742129058198 207 161 146 255
-27.318980748580287 -4.787510906571526 26.735377157943589 199 153 137 255
-27.256431078690539 -3.975946941469999 26.319049433932463 185 138 122 255
-27.337220045629365 -3.550099136792952 26.802676041755660 173 128 109 255
-27.306587397451004 -2.822800247497781 26.586287657184357 150 107 88 255
-27.339677402602604 -2.268793152676793 26.769922151209755 134 93 73 255
-27.261357387762509 -1.407864666171164 26.253401573300067 116 82 55 255
-27.278600351410901 -0.809201658112556 26.336978453449660 102 72 45 255
-20.712113401763034 -20.928215001724297 -18.518967776588113 202 175 152 255
-20.853179830991728 -20.441473077274352 -17.640448709758459 204 171 152 255
-21.605308023027646 -21.146064243526510 -12.871983874087391 200 165 146 255
-22.044091398914617 -21.262706558506466 -10.097789431864612 216 179 160 255
-22.482888231222290 -21.394447691191047 -7.323218343533654 216 178 158 255
-22.702349691600318 -21.104047817160364 -5.944903764307469 214 176 155 255
-22.796484194805032 -20.569182370905978 -5.364533216756001 216 177 155 255
-22.921970065388336 -20.101077846689620 -4.584539065062131 220 179 159 255
-22.969134053993031 -19.477067455969603 -4.303339886666038 220 179 161 255
-23.031982832170115 -18.886958129492413 -3.922317819205091 214 173 155 255
-23.110516654412265 -18.331552991549117 -3.441452727022806 212 171 153 255
-23.267405308602314 -17.943050136549161 -2.461523440258588 204 162 146 255
-23.392976766647614 -17.493659819498660 -1.681077602661219 191 150 132 255
-23.393228657531367 -16.781429784978243 -1.699039371342565 179 138 120 255
-23.409167780475258 -16.102801496595220 -1.617186313116633 171 130 112 255
-23.393793356598543 -15.356795190244910 -1.734980687347957 165 124 106 255
-23.347106621157856 -14.541785919673984 -2.052463618852528 157 116 96 255
-23.300442411543798 -13.725082392689146 -2.369994097813503 146 105 85 255
-23.269467970489217 -12.941414450351104 -2.587724541483453 137 97 73 255
-23.395181736905784 -12.506644863590438 -1.806942401752337 129 87 62 255
-23.426918643573131 -11.864437384918915 -1.625227943121217 118 77 48 255
-23.458678887174692 -11.223206330786880 -1.443494065819038 103 62 32 255
-23.459131005834259 -10.511311763995991 -1.461491414460738 106 62 34 255
-23.522271413115249 -9.943645490623297 -1.079969205077589 123 82 56 255
-23.632432775469816 -9.487084173550102 -0.398734610836129 134 94 68 255
-23.726952090136926 -8.997545180923083 0.182690914025329 143 103 77 255
-23.837160750935659 -8.548005072096316 0.864091633517546 141 104 78 255
-23.853403620862863 -7.879098515852903 0.946122339205147 139 102 76 255
-23.916667959380341 -7.322889601268301 1.327905359070655 129 92 66 255
-23.854642564688120 -6.467019506159730 0.910348474641523 151 111 89 255
-23.996283265791412 -6.102530064777184 1.791814892966840 187 146 124 255
-24.231932539149653 -5.972220982837172 3.273014362090350 202 159 138 255
-24.671231662823025 -6.350588955094295 6.053675559262444 204 158 140 255
-24.922583891733602 -6.278441118882952 7.635303857015913 204 157 139 255
-25.220946453231285 -6.331935942569885 9.517012371614896 202 155 135 255
-25.488002484959068 -6.316849981591233 11.199041672135110 200 153 133 255
-25.849053700513061 -6.548370298802126 13.481119370406589 196 149 127 255
-25.881215950166649 -5.954799736375236 13.663963126086117 191 145 122 255
-26.007379551025544 -5.602948246923532 14.446731053049234 184 138 115 255
-25.992616934064358 -4.891460785823853 14.329670040536740 176 131 107 255
-26.181481830000791 -4.708107798644306 15.512564851357212 165 123 99 255
-26.339049616800281 -4.449096230890177 16.495600432175422 151 106 83 255
-26.559284401875971 -4.360167046520289 17.878810256822533 142 97 74 255
-26.669923019103820 -3.988064757017668 18.562063351747923 134 91 72 255
-27.203394651461508 -4.747341718369668 21.946110513586518 157 114 97 255
-27.689894349594930 -5.398679810226568 25.030514114384744 203 159 144 255
-27.894547750988551 -5.304892712171593 26.314608502220494 205 162 147 255
-27.958302054808598 -4.834585749551337 26.698443505777362 201 155 140 255
-27.959458223831525 -4.194707370585732 26.682101974321057 190 142 127 255
-27.991964935329968 -3.640777625107447 26.865866632591519 175 129 111 255
-27.961880592204629 -2.913990720480726 26.649370591598142 158 113 94 255
-28.010115885441252 -2.404165568661043 26.933205042666003 138 97 76 255
-28.011419870648048 -1.763778785013798 26.916818236302589 120 84 59 255
-27.997107834038097 -1.078812026542622 26.800324942519040 105 74 46 255
-21.335418055911774 -20.695886718303854 -19.481170823553555 206 180 151 255
-21.027379095791638 -19.332593063898884 -21.496100736180040 206 174 153 255
-21.551087695825984 -19.601200601972707 -18.122243538495638 198 163 143 255
-22.459872079879062 -20.655384393548189 -12.252823225483780 206 169 150 255
-23.060622514596282 -21.122200472420431 -8.378826129806100 216 178 159 255
-23.430351984364691 -21.141610881803231 -6.001570405010341 218 177 159 255
-23.553659460935556 -20.669980005563119 -5.221186055974727 216 176 157 255
-23.707788412499617 -20.266183341802659 -4.241034637948815 218 180 159 255
-23.723314121021829 -19.579420548036424 -4.159295215129646 218 180 161 255
-23.785064832275310 -18.990091789533778 -3.778012146149877 212 174 155 255
-23.862236252937421 -18.435464444161710 -3.296828016195377 210 172 153 255
-24.016436960464688 -18.047727367507918 -2.316288612459800 200 161 144 255
-24.093646263454524 -17.499758812850231 -1.834945399056892 193 150 134 255
-24.109267659216229 -16.820893595356011 -1.753028454766820 183 140 124 255
-24.094106341766661 -16.075200209385272 -1.870861806812968 173 130 114 255
-24.109770361586342 -15.396754856625535 -1.788943676190570 167 124 108 255
-24.094653188341006 -14.650389540823554 -1.906803625211467 158 115 98 255
-24.110362082600503 -13.972338119670951 -1.824885454928392 148 105 86 255
-24.079890004055905 -13.190539651402560 -2.042679326867471 139 99 74 255
-24.157251153885390 -12.652603295907014 -1.561117269772524 130 88 63 255
-24.142228848766713 -11.905622975869619 -1.679013534713988 117 76 48 255
-24.173434812860471 -11.264631979212083 -1.497151780358649 104 63 35 255
-24.158463490713608 -10.517167163707242 -1.615071433226433 117 73 47 255
-24.251323082499781 -10.021634072661655 -1.033431767668844 126 87 62 255
-24.375008225396968 -9.601924766369663 -0.251825060797785 129 92 66 255
-24.467917227813793 -9.113155419127708 0.329973792715748 133 96 70 255
-24.530051657011917 -8.553698594820048 0.711923532476192 138 102 78 255
-24.515213760015754 -7.810431574198248 0.594080088172518 147 111 87 255
-24.531204522525449 -7.141338879496658 0.676161532334618 155 119 95 255
-24.516425749321876 -6.397212417843846 0.558283483966136 182 141 119 255
-24.748063357589231 -6.259988072635267 2.040190938309024 198 157 135 255
-25.010521683453156 -6.207191078940326 3.722282801430822 200 157 136 255
-25.473183420408517 -6.664125992324784 6.704620509081991 206 159 141 255
-25.735682053563586 -6.632865767082237 8.387244974488141 204 157 139 255
-26.105988402660699 -6.884016949843755 10.770200156957145 200 152 133 255
-26.383926123185134 -6.911983737483709 12.553338249269103 197 150 130 255
-26.461719244902561 -6.434688149984467 13.036329938838605 190 144 121 255
-26.477953930212976 -5.800396866637087 13.119232717069707 186 140 117 255
-26.463428115417237 -5.086133729244224 13.002049866571554 178 132 109 255
-26.510522359850135 -4.532741966499529 13.285039821139037 169 125 100 255
-26.634628706585360 -4.184151659309165 14.068341964001945 157 115 91 255
-26.743368573018913 -3.798690459694512 14.751676581693147 144 101 77 255
-26.913719075810050 -3.581673258462729 15.835376461486675 132 90 66 255
-26.914754914823327 -2.913870160112282 15.818359316863763 119 79 58 255
-27.500809726561059 -3.833062689329921 19.604541739998808 101 64 45 255
-28.240805819677881 -5.193043585803736 24.392150811209774 203 162 147 255
-28.472814033278858 -5.182463972448190 25.877160813917442 203 159 146 255
-28.550916438619282 -4.753882757148190 26.361309260043043 206 159 145 255
-28.613659201959607 -4.284856563797476 26.745398820597387 195 146 132 255
-28.722611651976827 -3.947083778022673 27.429885657502467 182 135 119 255
-28.723856209556175 -3.308975896358135 27.413569209104537 166 120 103 255
-28.755921617600364 -2.757883806875455 27.597502217074748 148 106 84 255
-28.711073651569151 -1.987793661177975 27.280744413138649 127 89 66 255
-28.697048955026119 -1.304153048515531 27.164221297322825 110 78 53 255
-22.053761344220092 -20.642912684225536 -19.845245648256537 196 178 143 255
-21.978041583453255 -19.731329613520714 -20.363611336627230 203 173 149 255
-22.023434050394769 -19.060401731082237 -20.083202309761589 197 165 142 255
-22.689460578086710 -19.649268092011582 -15.708393689948366 197 160 141 255
-23.506874075067067 -20.571427148747404 -10.334299515599525 216 177 159 255
-24.066975309449916 -20.991851638954003 -6.657370063116900 220 179 161 255
-24.309216886478517 -20.770802739209685 -5.077482630536338 220 180 161 255
-24.415243548061596 -20.272475917954850 -4.396389186184251 215 177 156 255
-24.460740966410185 -19.649761755609148 -4.114791073516415 215 177 158 255
-24.521394399378444 -19.060943005024669 -3.733253978611344 213 175 156 255
-24.521520108976901 -18.343950675297734 -3.751307740482105 208 170 151 255
-24.642760461353262 -17.889672168683546 -2.970032734959830 200 161 144 255
-24.688337373133841 -17.274094616170004 -2.688272672794483 194 151 135 255
-24.794482009252938 -16.793618061774580 -2.006756382457240 184 141 125 255
-24.840101499387131 -16.182247492069052 -1.724899910792999 175 132 116 255
-24.870606712608861 -15.538508884823244 -1.542953195953714 165 122 106 255
-24.855725717304068 -14.793201240606848 -1.660838470345368 157 114 97 255
-24.856005064047380 -14.081739943646085 -1.678786947300921 148 105 86 255
-24.841172739179832 -13.335462980280155 -1.796707290381505 141 101 76 255
-24.886909837659275 -12.728564913532281 -1.514764226782177 133 91 66 255
-24.887264158952334 -12.017372741553274 -1.532722418484070 114 72 45 255
-24.917916245728392 -11.377160478996302 -1.350719332447341 131 89 64 255
-24.903187832919578 -10.630480657632802 -1.468672645850290 141 97 72 255
-25.009570631712378 -10.171798610331095 -0.786660765901104 135 98 71 255
-25.191655326843829 -9.898532171225327 0.395463926100604 132 97 69 255
-25.282953824464997 -9.411881824176945 0.977670075142896 132 96 70 255
-25.344009365120343 -8.854548332745750 1.359910359503715 143 107 81 255
-25.268881034739444 -7.964764718144735 0.841962729879185 154 120 93 255
-25.345129537825713 -7.446452428413124 1.324262743699194 164 129 103 255
-25.376004075049607 -6.817569879906443 1.506501774573906 191 150 126 255
-25.603650613668592 -6.683256381116607 2.989359728143825 199 157 134 255
-25.876722686102795 -6.671610763466617 4.772571479101373 203 159 138 255
-26.255751656385897 -6.939122334033016 7.256438978503326 204 157 139 255
-26.513734319665076 -6.909688078532255 8.940102051453863 203 154 137 255
-26.832271650601285 -7.045482415165608 11.024281669958555 196 148 128 255
-27.044901922124623 -6.917153576852499 12.408172559365738 191 143 123 255
-27.075970584078824 -6.321020141903801 12.591192273458091 182 136 113 255
-26.986017334495003 -5.406797364898082 11.973470622741075 175 129 106 255
-27.047418735407376 -4.890490261099956 12.356666337359854 166 121 97 255
-27.033197206013718 -4.174056529387244 12.239362027269436 157 113 88 255
-27.109797584046547 -3.700925444142570 12.722720606748567 141 99 75 255
-27.186431091462062 -3.230249663287410 13.206133633303921 130 90 65 255
-27.232838179203902 -2.679570982946956 13.489342849073466 115 78 52 255
-27.264151377198104 -2.088748879518477 13.672442343112749 101 68 45 255
-28.067086753905706 -3.628923110790083 18.962838408451574 64 37 15 255
-28.658211914055848 -4.609050924712051 22.851856662357875 203 170 153 255
-28.916519268966724 -4.679221830290402 24.537952566115592 202 159 146 255
-29.099210753927707 -4.545418342272541 25.723450155276709 209 162 149 255
-29.281929728666043 -4.417837187997748 26.909098139274903 197 149 135 255
-29.389042860866041 -4.080828796685267 27.594008512809154 184 138 122 255
-29.360053743609342 -3.356695457537285 27.377338433440627 172 126 110 255
-29.361359043379686 -2.718483573797286 27.361006017948654 155 113 91 255
-29.423206066258714 -2.255712334367985 27.745449737878289 135 94 72 255
-29.469966313142152 -1.750547939056005 28.029725611097319 117 83 58 255
-29.365527907214577 -0.801727387871253 27.311899851797790 100 69 41 255
-22.594676288823152 -20.231483880358041 -21.408351024371257 183 183 138 255
-22.698697902597580 -19.677866676367600 -20.728206903315822 204 174 148 255
-22.579663263220155 -18.671808821401967 -21.546681541728049 199 167 144 255
-22.594490422076021 -17.937604762261302 -21.465981299446241 190 155 135 255
-23.605733407152997 -19.277877704667759 -14.690125161017420 198 157 140 255
-24.691353766286511 -20.810931938564195 -7.413679871168256 227 185 169 255
-24.973926171567435 -20.682688610684806 -5.533069500939348 225 182 166 255
-25.063186741607865 -20.151753470875633 -4.951528752584466 218 175 156 255
-25.152466826681305 -19.624031821740502 -4.369911502649188 202 160 143 255
-25.256638442458403 -19.131820494247393 -3.688256530681201 215 173 155 255
-25.286472895311071 -18.480490297774352 -3.506353231850767 210 168 151 255
-25.346071536033854 -17.895882777009760 -3.124478396722111 207 164 148 255
-25.390820372960015 -17.280275750792256 -2.842537048192071 194 153 136 255
-25.509948240623373 -16.833141020789469 -2.060618072465843 183 142 126 255
-25.554741763701671 -16.222009646732829 -1.778574023072792 173 133 114 255
-25.584687350218026 -15.578512019445114 -1.596498232567171 165 124 106 255
-25.614656922258192 -14.936022937592639 -1.414402358401901 155 115 96 255
-25.614908985236163 -14.225615517261730 -1.432318341999633 147 106 86 255
-25.630057513141708 -13.549854345991847 -1.350219412124659 139 99 74 255
-25.630361168803496 -12.839542329921429 -1.368144338235140 130 88 63 255
-25.645562296981062 -12.164402567054395 -1.286041347926300 130 88 63 255
-25.690531671472030 -11.560777624884807 -1.003847232630221 158 116 91 255
-25.705787412367187 -10.887041211628087 -0.921720965234726 170 125 102 255
-25.840033444162849 -10.502364507691709 -0.039136585360040 159 120 94 255
-25.989175802075806 -10.158772870428436 0.943624618827812 149 112 85 255
-26.138344388791111 -9.820450465853710 1.926512532828554 141 104 77 255
-26.183451578828908 -9.229159461939233 2.208986444917116 142 106 80 255
-26.213718936855813 -8.602181582346248 2.391406831768904 157 121 95 255
-26.258886217256034 -8.013560207947435 2.673934652787636 177 141 115 255
-26.318953312567970 -7.464098859650264 3.056590133165969 193 152 127 255
-26.483132931049838 -7.182431114776833 4.140021096897556 198 156 132 255
-26.751420247936281 -7.174230265504221 5.924371238574935 201 156 134 255
-26.989995235109660 -7.098558123270791 7.508719623276306 200 152 132 255
-27.183991496367611 -6.915003038468953 8.792899778085030 196 148 128 255
-27.378014841785088 -6.738286013199613 10.077245897048414 193 142 123 255
-27.542330562657170 -6.489751831452907 11.161479964032225 185 135 116 255
-27.543136882935904 -5.811407263562458 11.144248245823405 176 130 107 255
-27.499379122076022 -5.013238318778647 10.826544855172926 169 123 100 255
-27.470526713767242 -4.253348019106866 10.608945747523364 156 112 88 255
-27.575507653842223 -3.855812831110967 11.292803096297291 142 100 75 255
-27.561596265652156 -3.136381229254866 11.175355240592523 124 85 60 255
-27.666646559342588 -2.743761093945153 11.859320914935040 110 75 48 255
-27.742000897815913 -2.272225979649946 12.342993523571380 93 63 35 255
-27.757933364757577 -1.637149323737518 12.425942990131603 74 51 25 255
-28.190096840523616 -2.171793425832405 15.314520133568521 19 10 0 255
-29.112770730604950 -4.109175667801296 21.510347228878970 168 151 126 255
-29.485494668376859 -4.514493674456119 23.999065334913496 201 166 148 255
-29.679884573996119 -4.422121193147902 25.285451409189591 207 161 146 255
-29.904026606711959 -4.422224156415268 26.772459129378404 198 154 138 255
-30.039025630047732 -4.171415598765449 27.658243607622609 188 141 126 255
-30.025447618794161 -3.491188635502880 27.541708125096363 176 130 115 255
-29.997053150927655 -2.766407726887806 27.324891049182725 157 114 95 255
-30.028143665368752 -2.215968903025100 27.509054782170324 141 98 79 255
-30.118712701573259 -1.843136273131648 28.094282808206316 126 90 66 255
-30.135026298690612 -1.250758180708132 28.178221992688918 103 71 45 255
-30.121668203313668 -0.569020927947818 28.061600197605287 87 64 35 255
-23.142867342353568 -19.051740208555074 -22.992372278756648 200 181 146 255
-23.084337142844603 -18.161671793546262 -23.411557267468652 199 165 140 255
-23.128068702756110 -17.484227118354511 -23.130946980828980 189 151 132 255
-25.012157811892365 -19.974428379062857 -10.270526636915008 220 176 162 255
-25.464925593724367 -20.216733136838258 -7.188991722966648 229 186 170 255
-25.625588885915008 -19.840522443187737 -6.107164734411356 180 136 118 255
-25.800879026894648 -19.502251397811506 -4.925180764997947 146 102 85 255
-26.020008805728295 -19.267323596625502 -3.442980233368417 138 94 78 255
-26.063885275930744 -18.649614777001517 -3.160899963074939 204 161 144 255
-26.049359190813938 -17.902126365725550 -3.278918081152767 206 163 147 255
-26.064068397350738 -17.220270650751701 -3.196875804506078 194 155 136 255
-26.151831541722999 -16.705796111623101 -2.614592051007548 182 144 125 255
-26.210406157896315 -16.127202739512683 -2.232340911262440 171 133 112 255
-26.225187153176805 -15.448947667262104 -2.150223890329073 162 124 103 255
-26.254599301997416 -14.805348990700992 -1.968033380087661 152 114 93 255
-26.240219748261140 -14.059377943086318 -2.086045560171669 142 104 83 255
-26.255078487751355 -13.382238162683564 -2.003917589065338 134 94 69 255
-26.313781169855226 -12.810539654471000 -1.621521254836978 132 90 65 255
-26.416327367959411 -12.346704852905802 -0.938795560526216 148 106 81 255
-26.460478959899447 -11.744393997075733 -0.656388642455795 175 133 109 255
-26.490053697236704 -11.107783345349517 -0.474058184296098 184 139 116 255
-26.607288070886170 -10.688599041450942 0.308979729591670 178 137 114 255
-26.768365044798813 -10.382652636630695 1.392482319111878 158 116 93 255
-26.885655043786130 -9.972662055266596 2.175739147694173 148 108 85 255
-26.915346371419155 -9.345525409619114 2.358282165930746 146 107 85 255
-26.959673410801351 -8.756479839686889 2.640984023854685 148 109 87 255
-27.062448539130301 -8.318614754160194 3.324312307487787 182 143 121 255
-27.150650062102002 -7.846672239547317 3.907569007554685 191 149 125 255
-27.238882770174357 -7.377803725565087 4.490896136925585 192 149 125 255
-27.400164233167139 -7.103202285930152 5.575141829239044 195 149 127 255
-27.561475115452502 -6.834366856389977 6.659526019668192 192 144 124 255
-27.766624292777657 -6.687635337817994 8.044598735281284 188 140 120 255
-27.854980846108610 -6.235866380427112 8.628328546293744 186 135 116 255
-27.914165926224712 -5.708491976075521 9.011733205972661 178 127 108 255
-27.900375997588412 -4.985098156923414 8.894159035690791 167 120 97 255
-27.930429628356791 -4.380530305561408 9.077189821585847 159 113 90 255
-28.018925662766534 -3.937355021185539 9.661105028095534 142 99 75 255
-28.122057574595587 -3.537596966589959 10.345312944379970 127 86 61 255
-28.137620972342262 -2.897313993404282 10.428212646061098 110 74 48 255
-28.167824275226955 -2.298262208152394 10.611349212182347 92 64 36 255
-28.241866304998013 -1.823689640678438 11.095233926890444 73 49 19 255
-28.140754675286829 -0.853638235736241 10.376143104278526 51 37 8 255
-28.302470747525923 -0.631257162116484 11.461606149362922 7 11 0 255
-29.383916394625274 -3.062857629469676 18.863978157516016 100 104 78 255
-30.041995966418142 -4.307456532692569 23.359438055140544 195 171 149 255
-30.291347329303143 -4.383979203775681 25.047662356332182 205 160 145 255
-30.453143144555185 -4.212327887519209 26.134383285006635 203 157 142 255
-30.556585498276746 -3.873847289179608 26.820063555661704 193 146 131 255
-30.601681171858367 -3.365261870001447 27.104619326268192 180 134 119 255
-30.646818086652438 -2.857974275278707 27.389198660244006 160 116 97 255
-30.677402199696097 -2.308032459823309 27.573486205804841 142 97 78 255
-30.751811732998377 -1.891473296458244 28.058748669041194 128 90 69 255
-30.797074939556097 -1.388298906562483 28.343403652936871 107 72 47 255
-30.784010842261438 -0.707336299123753 28.226736706809987 92 66 39 255
-23.712728342822871 -17.894942280575975 -24.478161732201386 198 178 145 255
-23.698258520453265 -17.092324174307677 -24.597578250856316 190 152 129 255
-24.042329981502228 -17.062901914189922 -22.215910101306747 181 143 122 255
-24.917036255736093 -18.201521005314831 -16.132039122755543 177 135 116 255
-25.806107681541050 -19.404511205892888 -9.947289115445358 225 181 165 255
-26.178929720887155 -19.497617328031325 -7.364023589271937 193 147 132 255
-26.437046587748867 -19.348497370148451 -5.580980671168732 127 79 66 255
-26.680844774620894 -19.176758170773255 -3.897777300435223 128 82 66 255
-26.766915395489413 -18.655912052974713 -3.315281686358276 144 102 82 255
-26.738281947765373 -17.875565180024950 -3.533443231018794 197 159 139 255
-26.781376845952167 -17.259626419854428 -3.251146653986382 188 151 133 255
-26.795814452372980 -16.578500111020787 -3.169026335988235 177 141 122 255
-26.838958758842608 -15.965146493797675 -2.886675625994712 169 134 114 255
-26.867787886449193 -15.319429909442931 -2.704410203042016 159 124 104 255
-26.896643276404262 -14.674720448290699 -2.522125232677922 150 114 92 255
-26.911184955570178 -13.996556028937292 -2.439953326155546 142 106 84 255
-26.940094796265249 -13.353571444415877 -2.257636959487570 138 98 73 255
-27.012053957024364 -12.816560354149473 -1.774864175047867 138 99 69 255
-27.069700905233830 -12.246884178972081 -1.392184925341326 158 115 84 255
-27.127376690012539 -11.679261767552802 -1.009460380171049 179 135 107 255
-27.185081860592334 -11.113686416662688 -0.626690828797109 192 146 123 255
-27.357536154227731 -10.838754232129375 0.557508938544117 193 148 125 255
-27.429640241525235 -10.315758950060101 1.040602241056718 176 131 108 255
-27.587812376567939 -10.015024709540313 2.124874412761983 167 122 103 255
-27.631298287717442 -9.425006638938783 2.407736717507703 169 124 105 255
-27.746512509852629 -9.022241959154570 3.191631511903438 151 106 85 255
-27.775723577830973 -8.399087273252931 3.374380212488063 180 135 114 255
-27.891001134693177 -8.003031339214502 4.158429751322160 192 146 122 255
-27.948956178471917 -7.459261555814621 4.541692596174016 191 144 120 255
-28.035621817085470 -6.993952184036146 5.125453680180783 191 143 120 255
-28.122320952232741 -6.531702504265212 5.709284325654778 189 141 118 255
-28.366769348763896 -6.499076269113559 7.395842249873738 185 134 114 255
-28.496546014420851 -6.163053004580192 8.280632296921141 174 125 104 255
-28.554669722913907 -5.635090282224752 8.664255476169245 170 120 98 255
-28.397777235403623 -4.515200598475772 7.543985662043866 154 106 83 255
-28.455979239440346 -3.987062174337893 7.927587212996087 141 95 72 255
-28.557227331704055 -3.581257063302672 8.612057199464317 125 84 59 255
-28.658511390824515 -3.179003052772003 9.296608559028300 110 72 46 255
-28.544800950956315 -2.170147259741142 8.476893211515289 97 63 37 255
-28.603159177608909 -1.648059348995716 8.860612539469486 82 55 27 255
-28.589884456873179 -0.921773627031158 8.742852409980145 67 42 14 255
-30.701480749627081 -4.396568095813606 23.421547328270577 192 175 151 255
-31.046666053481403 -4.771610194913350 25.813139397898340 206 162 146 255
-31.105237506295659 -4.302387357839521 26.198140951838695 206 159 144 255
-31.178180915660320 -3.878146927298417 26.683532581224085 198 150 136 255
-31.251164516363076 -3.456302342312043 27.168975610453913 181 137 121 255
-31.338518708733133 -3.080514322793448 27.754836020922937 167 123 104 255
-31.354265946889015 -2.487944803711358 27.838894889686173 150 103 85 255
-31.413045872154385 -2.028206841925510 28.224089079438869 131 90 70 255
-31.486197159604231 -1.614773634750875 28.709706720856587 111 77 52 255
-31.530736057841267 -1.114173886263274 28.994585652035255 92 65 38 255
-24.401994297453001 -16.976622842441401 -25.164855902681268 184 170 133 255
-24.711505774511096 -16.884147683953771 -22.982012814751158 184 151 128 255
-25.218098406829242 -17.240561890736345 -19.397348808093909 168 130 109 255
-25.598035950010519 -17.332999984488183 -16.713245805270390 173 134 115 255
-26.611399489335220 -18.868997446926301 -9.523261429793877 226 184 169 255
-27.075840287645754 -19.194801973098109 -6.237356381039604 152 110 97 255
-27.343246459719524 -19.086240579282943 -4.352917340539989 104 63 46 255
-27.399542084757393 -18.499417021177663 -3.970372150759601 123 87 65 255
-27.427710689736301 -17.849040257453282 -3.788078694783394 157 121 99 255
-27.441828548367674 -17.166590479618080 -3.705921363590505 177 140 122 255
-27.441896368064789 -16.451252397171132 -3.723920810157892 171 136 116 255
-27.427914916898359 -15.702210486480240 -3.842097706657512 166 131 111 255
-27.456187017272626 -15.054303537805509 -3.659764906641328 157 122 102 255
-27.484486568506000 -14.407402852557439 -3.477412842088029 150 114 92 255
-27.512814207866754 -13.761501939410181 -3.295041816282492 143 105 84 255
-27.527095276768307 -13.081871041027739 -3.212849491632937 141 99 75 255
-27.639932347626107 -12.647638344815206 -2.429223299206910 143 102 74 255
-27.724648016856733 -12.147098623818223 -1.845919310257386 158 115 85 255
-27.837543371018484 -11.720757827372310 -1.062107516944081 179 135 106 255
-27.950468420335952 -11.298623601836653 -0.278196492503582 194 148 125 255
-28.063423586359733 -10.880689710103653 0.505813513589828 195 150 127 255
-28.091961772578998 -10.248890449035557 0.688492791040801 190 144 122 255
-28.247202658911107 -9.947557568900123 1.773394259102474 186 140 121 255
-28.289879937451971 -9.356958001565843 2.056419697835850 173 128 109 255
-28.431109312294240 -9.027907986923040 3.041285929041237 161 116 95 255
-28.445705418560209 -8.367288984580526 3.123886986217428 178 132 111 255
-28.544779022832628 -7.933214256036578 3.808124233230387 190 144 120 255
-28.545372323594890 -7.236997237176283 3.790490004081562 189 141 118 255
-28.546003054868997 -6.540599752167893 3.772843009803694 185 137 114 255
-28.560744858242735 -5.882519849552978 3.855475876149399 179 131 108 255
-28.842905004094945 -5.961548193335560 5.843806352595550 174 123 102 255
-29.111020828983101 -6.012154227160266 7.732091075325826 165 114 92 255
-29.154012541838469 -5.443741161031312 8.015605192889581 159 109 86 255
-28.985967149758650 -4.282889195246995 6.794338762683964 142 93 70 255
-29.000898948751122 -3.633492833999227 6.877148179831636 130 84 61 255
-29.156582385554813 -3.385718520375065 7.963298899141790 115 75 50 255
-29.298229893249371 -3.103260732658768 8.949244606153258 102 67 41 255
-29.228859218210857 -2.215858056789344 8.430091188949888 91 60 35 255
-29.187676370615492 -1.407368663758987 8.111562311379856 79 52 25 255
-29.146540981789641 -0.596975984088218 7.792975150300805 63 44 14 255
-31.219232756587907 -4.062607638081246 22.479991692554194 186 178 147 255
-31.656545514454045 -4.733420045919473 25.575697173924794 198 162 143 255
-31.798475483232735 -4.520966326869726 26.563340784538497 208 159 145 255
-31.884177559907755 -4.141153652386180 27.149463177886332 200 153 137 255
-31.955854891686450 -3.720887991223904 27.635233047302137 186 139 123 255
-32.041639175573920 -3.346677453199206 28.221478214929476 170 127 108 255
-32.043080027055183 -2.711754969016411 28.205198702290289 155 110 91 255
-32.072697344654415 -2.164900356978904 28.389776385123014 136 93 74 255
-32.088299414678950 -1.574284673672054 28.473916286733782 116 80 58 255
-32.118013236802540 -1.028596692640761 28.658502086581848 96 65 42 255
-25.687656119780044 -17.386243067693826 -21.545272373632145 177 171 137 255
-25.659872095087735 -16.560720248812089 -21.764756421005131 174 142 122 255
-27.620587161019863 -18.817002325693267 -7.595621807499015 228 181 171 255
-27.882920150296584 -18.705134395201696 -5.710150710888172 165 123 109 255
-27.896692155425733 -18.017352145048406 -5.628051419550218 128 90 71 255
-28.034782719574665 -17.625557289004007 -4.644072702818505 158 120 99 255
-28.103847469944846 -17.073598527249246 -4.161039473318169 171 132 115 255
-28.103887046555911 -16.357424047094526 -4.179053739628159 167 130 111 255
-28.034902390851741 -15.472981327625362 -4.698217594392361 159 124 104 255
-28.090238622698422 -14.890975129819651 -4.315340396087663 153 118 98 255
-28.117982846928228 -14.242691391320420 -4.132901031355061 147 111 89 255
-28.187186863102838 -13.698759507034552 -3.649696609019998 142 101 81 255
-28.187369891403826 -12.983835021581157 -3.667710982365406 139 97 73 255
-28.311874007423171 -12.583733551643903 -2.783372933927126 142 101 75 255
-28.367358436988397 -12.012086725242867 -2.400267864241130 156 112 83 255
-28.547162702537790 -11.762268717271581 -1.114633962533105 174 130 103 255
-28.685567743560568 -11.411954696294515 -0.129681491444728 188 142 118 255
-28.796384553637907 -10.994779172458223 0.654817634308358 192 144 122 255
-28.810567177568871 -10.327410354741744 0.737339883931156 194 146 124 255
-28.976686309668210 -10.063169358018044 1.923201036654746 188 139 122 255
-29.004745801366774 -9.436456682404042 2.106113424146542 182 133 116 255
-29.101885261281538 -8.996433614368627 2.790626285610188 177 129 110 255
-29.088588968097383 -8.260660810494443 2.672632380482071 183 135 115 255
-29.185798657269316 -7.825721838235822 3.357257624995896 189 143 120 255
-29.186385414851188 -7.128654929276550 3.339603466815902 191 143 121 255
-29.228435188685381 -6.546107376383290 3.622969281815131 187 139 117 255
-29.270523071065554 -5.964993923555838 3.906362774954005 179 131 109 255
-29.519762316006002 -5.966931018269150 5.695154944056526 173 123 100 255
-29.686188915181759 -5.744136042173992 6.881990516749511 164 114 91 255
-29.825035924082158 -5.448995466385398 7.868232967321887 153 103 80 255
-29.687786838535160 -4.367301208924843 6.847023826186501 138 89 67 255
-29.702456059661827 -3.718401779698212 6.929903456710605 127 82 59 255
-29.717168277381205 -3.069805598326681 7.012781259775068 111 72 47 255
-29.800951818440829 -2.623509080763938 7.597653894433222 101 66 41 255
-29.801945139782156 -1.936177110210224 7.580155114559290 89 58 35 255
-29.761570243248997 -1.125747542007929 7.261399854677080 77 52 27 255
-31.478985933664845 -2.924905057095799 19.628992586821710 129 136 96 255
-32.142743176717765 -4.312038867513024 24.434043138071218 197 164 141 255
-32.433861768572498 -4.568116330406369 26.527274018098609 205 160 144 255
-32.614599560937606 -4.490354990547957 27.817028442491420 201 155 139 255
-32.698770278031645 -4.115604216648009 28.403614722049980 190 143 127 255
-32.741584849241505 -3.612792658747679 28.688817086915748 178 133 114 255
-32.701652601940815 -2.847643272332974 28.371102927113043 160 115 96 255
-32.675573716455602 -2.124709356106038 28.153823275811561 140 98 79 255
-32.677144748730299 -1.489282786113492 28.137502473457999 119 82 61 255
-32.720159335909266 -0.987749601130062 28.422693010796962 99 67 44 255
-25.991205348725046 -14.828086445693089 -25.056121213240260 169 156 119 255
-26.248406188997073 -14.659303713557051 -23.170952880724144 142 118 88 255
-28.469568399034948 -18.420989608978942 -6.768017085037002 224 181 167 255
-28.469499187033520 -17.698191286773451 -6.786173969524270 208 169 152 255
-28.713268211166081 -17.566287184251465 -4.999544280159455 179 136 120 255
-28.740342837966139 -16.914450662878139 -4.817047046179312 172 130 114 255
-28.740354924490731 -16.196899179634201 -4.835089889285200 163 123 105 255
-28.618489619595344 -15.176533944726984 -5.755720398712469 154 116 97 255
-28.713374941297772 -14.693787130202850 -5.071786163773652 148 110 91 255
-28.727019592636879 -14.009670499993831 -4.989566719034713 142 102 81 255
-28.740694825980810 -13.326012220303738 -4.907342473296694 139 97 77 255
-28.727311532656529 -12.573368514427898 -5.025741410681917 139 94 71 255
-28.781684772910275 -11.995032177427220 -4.642560262496033 143 99 75 255
-28.985082614171468 -11.806596184483695 -3.155732672060026 159 115 89 255
-29.188511188083268 -11.626151366847765 -1.668710928636187 170 126 100 255
-29.297158842798396 -11.203102911344274 -0.883882632473615 179 133 109 255
-29.392294906396515 -10.748184994907206 -0.199303860575526 184 136 114 255
-29.528097384560581 -10.405935901312787 0.786423468609428 191 143 121 255
-29.691021260016839 -10.142172049865991 1.972998998544199 185 136 119 255
-29.691450314585246 -9.442199958785110 1.955306466540264 182 133 116 255
-29.705460551002190 -8.779226470877774 2.037977114738965 178 130 110 255
-29.719508566155667 -8.116634958213922 2.120649061776703 177 129 109 255
-29.841942173625199 -7.755940490251078 3.006432993059718 181 134 114 255
-29.896695631897799 -7.210136147512131 3.390348458781773 187 139 119 255
-29.910858757184485 -6.551619783362284 3.473097556899233 185 137 115 255
-29.952147768969496 -5.970458579717985 3.756665457213387 181 133 111 255
-30.074731328756215 -5.623360068674231 4.642758246190567 174 124 101 255
-30.183810176934443 -5.241885479779143 5.428536979010175 167 119 97 255
-30.279385578528149 -4.825215687690999 6.113980783708371 150 102 80 255
-30.280210081296090 -4.135017833400354 6.096447061445332 140 92 72 255
-30.335243694058867 -3.604015025321701 6.480673073633511 123 78 57 255
-30.390319841518448 -3.074941167092504 6.864938232178247 105 69 45 255
-30.472519902049946 -2.628586369852002 7.450157482217833 95 62 38 255
-30.419362146938582 -1.778525798700329 7.030797372766443 83 56 33 255
-30.298557399413156 -0.721317152879763 6.109007439956031 67 52 23 255
-32.580102678153850 -3.720381508119601 22.889170131719169 193 170 140 255
-33.014579064152358 -4.443858588828803 26.089241564671511 201 162 141 255
-33.286642968476301 -4.667031792717864 28.083415387423798 202 157 140 255
-33.355709807376300 -4.249919439629750 28.569838373555683 193 147 131 255
-33.384218959605263 -3.704206159524404 28.754688347826743 183 138 119 255
-33.385710374403708 -3.071364218258594 28.738450027941923 164 119 100 255
-33.319589661498391 -2.217118317487447 28.219415809080175 147 102 83 255
-33.267061973237858 -1.404254597405199 27.800852376031401 127 89 68 255
-33.255189591188440 -0.723091810385611 27.683918434342559 107 75 52 255
-27.308162946408025 -14.635717860360259 -21.048878303082518 152 135 108 255
-27.865781999987441 -15.230999253417934 -16.854915078406066 144 114 96 255
-28.808547272670367 -16.793070255778261 -9.751174673982746 190 155 136 255
-28.981112920405828 -16.489405102700815 -8.465303367590820 203 164 147 255
-29.140427531264720 -16.159605490057089 -7.279594675020405 179 134 119 255
-29.286491445565431 -15.802856597685519 -6.194069156728631 162 119 103 255
-29.220106937909129 -14.913792226183318 -6.713920770303332 147 106 88 255
-29.326391099584313 -14.462745935705371 -5.929276833546282 145 103 85 255
-29.313187526073264 -13.708353599985372 -6.047759239781385 139 96 77 255
-29.313295695238764 -12.987785440177262 -6.065899046977449 137 92 73 255
-29.260317590619437 -12.128263262337015 -6.485536524403642 139 93 70 255
-29.340170174388760 -11.616346732271452 -5.901449560170533 145 99 76 255
-29.499733679976309 -11.319103314063497 -4.714977074160686 159 113 89 255
-29.685889021739527 -11.099282384952019 -3.327566698310193 160 114 90 255
-29.792400715396624 -10.672128865169043 -2.542372082001521 166 122 97 255
-29.885667507879347 -10.213106890474251 -1.857485588434315 171 125 102 255
-30.071923427563597 -10.012091665662041 -0.469624521524224 178 132 109 255
-30.298049897663226 -9.928324399488304 1.219675174974839 177 130 112 255
-30.351584252065066 -9.374200264884095 1.603649453558432 175 127 109 255
-30.338762701640093 -8.636350089894592 1.485498962664280 172 125 105 255
-30.352538029452589 -7.972634877951947 1.568202600544510 172 124 104 255
-30.525692471525701 -7.761551015315476 2.856272093371786 173 126 108 255
-30.698882287645375 -7.557325056819096 4.144506226990814 176 128 108 255
-30.726051859733587 -6.939429154612014 4.327835901823562 175 127 106 255
-30.607209801093944 -5.898925684868189 3.406034520898345 170 122 100 255
-30.661020347217772 -5.357369430417691 3.790264060037146 171 121 98 255
-30.701595732803902 -4.778730227749335 4.074052236041268 156 108 89 255
-30.768767522914871 -4.280125054301863 4.558842955218779 144 97 78 255
-30.796152690863565 -3.665254500688050 4.742201299015562 129 84 66 255
-30.863410928902383 -3.170798556119536 5.227077332274803 114 75 55 255
-30.943988421649095 -2.718937892399197 5.812514830371128 98 65 44 255
-30.944957739232009 -2.027699321493685 5.794923109940953 86 59 37 255
-30.813227117593371 -0.929516620207664 4.772086359227501 67 53 25 255
