ply
format ascii 1.0
element vertex 656
property float x
property float y
property float z
property uchar red
property uchar green
property uchar blue
property uchar alpha
end_header
19.605544247047987 -21.666752447746475 24.887037758282602 184 141 125 255
21.274786743206334 -21.715309079424216 25.809213638637203 183 140 124 255
22.585214991233670 -21.630334277111018 26.535120997965223 181 135 120 255
23.267027301014110 -21.300058762231799 26.917348036875524 182 135 121 255
23.589538721209863 -20.828131914722007 27.103166023070585 180 132 118 255
24.361667406711831 -20.541735085949497 27.534669503271274 182 134 120 255
25.044150113772275 -20.223007578609199 27.917133399537676 183 136 120 255
25.547003812921929 -19.833875195416184 28.201406500431929 186 139 123 255
26.229931356833617 -19.522815177652447 28.584028147038197 188 139 124 255
27.272962730988468 -19.367042525258626 29.163319217292582 190 141 126 255
28.406344619743805 -19.255596587875232 29.791882057180629 190 141 126 255
28.730135652366073 -18.805883792043133 29.978172687242534 187 138 124 255
28.783987466622023 -18.242244317679862 30.017028213915680 184 135 121 255
29.558100255817891 -17.989940229170244 30.449222577894162 188 139 125 255
30.602625398601646 -17.859707313506803 31.029018544698744 192 143 129 255
31.197195689586408 -17.538575876224769 31.363063115017795 192 143 129 255
31.791968622369183 -17.220954120525491 31.697181557013536 191 142 128 255
32.116653061662589 -16.786926030239172 31.883823112982228 189 141 127 255
32.711780917063834 -16.475488043702441 32.218075317790337 186 138 124 255
32.676202645021050 -15.883940794485412 32.208051664082163 188 140 126 255
32.911033929428754 -15.414423237436822 32.345629425762496 186 138 124 255
33.236096813056349 -14.987260250563551 32.532446054137765 188 140 126 255
33.651439940627114 -14.603261446110366 32.768515351381993 188 140 126 255
34.066916774586105 -14.221632718723839 33.004639882643019 188 140 126 255
34.662950203704270 -13.926121774259613 33.339251225699172 186 137 123 255
34.988497645922820 -13.507605864090635 33.526274931596632 185 136 122 255
35.855612109877626 -13.345436148670885 34.008694447307860 186 134 121 255
36.181456364739603 -12.932154746922464 34.195837565397966 183 132 118 255
36.597676419793601 -12.563630100075201 34.432260727135940 178 129 114 255
37.375203679543716 -12.370412283197751 34.865693706145066 178 129 114 255
38.062682655758664 -12.138184835408268 35.249974956339329 174 125 109 255
38.298754438068897 -11.690943029912461 35.388099426617913 170 121 105 255
37.721794893021951 -10.848287803040307 35.082989187308257 168 119 103 255
37.777121715331958 -10.312285167145774 35.122632188596313 166 117 103 255
38.193951509714765 -9.954839704627176 35.359339610743604 160 111 97 255
39.062876618313254 -9.824136999132122 35.842432007296978 157 108 94 255
-46.217619802320854 -17.735342984133993 -10.485120492574310 198 153 141 255
-45.998267140407023 -16.994361112035222 -10.353589275495921 150 100 89 255
-46.226599708314808 -16.111873127345447 -10.465777178237971 135 91 78 255
-44.842726379593984 -15.748309488231044 -9.700359916601684 130 88 76 255
-43.368760176472819 -15.422489333748175 -8.886018252049553 185 141 128 255
-42.879890558510482 -14.782070913336284 -8.607928777251317 183 134 120 255
-43.197409774871943 -13.877559641138276 -8.768707773411109 169 122 106 255
-43.066858921610020 -13.121217557951269 -8.685627622851598 151 106 90 255
-42.308694932011946 -12.577548195791493 -8.261056170122998 140 97 79 255
-41.370917710744294 -12.099671190632975 -7.738818189809820 121 80 60 255
-35.325771590356993 -11.828405441175519 -4.414636839833577 83 51 30 255
-26.267817964666392 -11.995147605856559 0.557819045082823 150 116 93 255
-26.044154623726399 -11.328209255180795 0.690848099520622 138 100 75 255
-25.910222491854597 -10.629827909836607 0.775088964632459 137 98 73 255
-25.416928636579030 -10.065186148620910 1.054689753969399 132 95 68 255
-25.732058746362128 -9.202407874051985 0.894824056515944 145 109 82 255
-24.968975501862730 -8.742727489994863 1.321044117434184 171 135 109 255
16.857670544648244 -20.721545663676793 24.112618625111580 186 149 131 255
18.709035499218572 -20.833972971218088 25.127953062229494 181 144 127 255
20.921021185481607 -21.101159747450126 26.339012502945891 176 137 120 255
22.503753955260834 -21.128479431318212 27.208126982586421 177 135 119 255
23.276848626137081 -20.837370251695603 27.637420318945175 174 132 116 255
23.600021564927204 -20.367367426494880 27.822340295381792 178 134 118 255
24.643741882432181 -20.195164669199542 28.398493392776544 177 131 115 255
25.057332597435533 -19.768469366206972 28.632448667711841 179 133 117 255
25.651238153305115 -19.419296452115759 28.964275860662056 178 131 115 255
26.785969955360343 -19.300440617990958 29.589651602943022 180 131 116 255
28.281580702139166 -19.340644411710102 30.410825926196296 182 133 118 255
28.696087332474434 -18.929777789578949 30.645110952925165 183 134 120 255
28.750122685085557 -18.366931600648996 30.683748331242199 181 132 118 255
29.345177927687757 -18.037631172529629 31.015989894720448 184 135 121 255
30.210990940135787 -17.829304107688458 31.495112929770002 188 139 125 255
30.896701376118727 -17.547278242074455 31.876459021376050 188 139 125 255
31.582646298607983 -17.269305415767505 32.257889615858204 189 140 126 255
31.727420966068678 -16.755584194367856 32.345709203251374 188 140 126 255
32.142984234448619 -16.363352864571880 32.580419415762861 188 140 126 255
32.287882076467440 -15.851991533009183 32.668310977096951 190 142 128 255
32.884231972837057 -15.545302171422009 33.001046979070111 188 140 126 255
33.119583012077499 -15.077867711692235 33.137987452906742 188 140 126 255
33.445317793799774 -14.653048430104178 33.323938523493112 190 142 128 255
33.951817451524704 -14.313255114794586 33.607890812653267 188 139 125 255
34.548831211026453 -14.018244127077537 33.940890390948340 185 136 122 255
35.326773333927520 -13.810974959597175 34.371936962066471 185 136 122 255
36.376124088692251 -13.735501736462595 34.950048486695962 188 136 123 255
36.973844965413008 -13.452729552500685 35.283304859035368 186 134 121 255
37.300517787976901 -13.044483538636413 35.469636929891564 182 133 118 255
37.717718839918405 -12.681258156950179 35.705020677599848 180 131 116 255
38.135049258803008 -12.320351649196979 35.940460939817683 177 128 113 255
38.100186143811101 -11.742805078416154 35.930890904822320 175 126 111 255
37.793842361993143 -11.032621449827360 35.774278231331422 174 125 110 255
38.030346570557128 -10.586372748926351 35.911784065566181 169 120 106 255
38.447939806807426 -10.230537512090194 36.147382197566998 164 115 101 255
38.594066702781817 -9.742308481293719 36.235942332172655 161 112 98 255
-47.804631437945005 -17.383315647351381 -10.395606790314048 188 145 129 255
-46.867638753652585 -16.865590177497111 -9.876792780668495 177 126 115 255
-46.737530569852851 -16.096218772304596 -9.794514781171983 164 118 105 255
-45.889700070495877 -15.558988933925889 -9.324032581353947 103 59 49 255
-45.310730137571994 -14.939647354687196 -8.999022949122349 136 94 83 255
-45.269986886584917 -14.147491524767631 -8.965123011472912 184 140 125 255
-44.959951976256804 -13.444910944748656 -8.785593696259269 184 141 125 255
-43.662301500057850 -13.074023756616455 -8.072064404299567 162 122 103 255
-43.711008428685403 -12.257674878536676 -8.086565500583134 145 107 88 255
-43.400508369657842 -11.563265537699763 -7.906852872717366 127 90 70 255
-43.359353975796722 -10.778625427137328 -7.872755870600145 108 72 50 255
-42.958833093589902 -10.118602614305829 -7.644397124505048 95 63 42 255
-43.816104789135949 -9.022854824172228 -8.095885608785494 86 59 38 255
-44.493942172681244 -7.985318769936256 -8.450308336083737 62 40 19 255
-28.545451983489073 -11.326809852963990 0.202864321999499 181 153 133 255
-27.062632866875532 -11.111373620923274 1.015301563459843 159 123 102 255
-25.939080215942937 -10.773267241515910 1.633539190110781 148 106 82 255
-25.534850062956536 -10.176466347379105 1.863128087674312 141 101 75 255
-25.850329819172146 -9.314492149742023 1.703954634908030 139 103 77 255
-25.355944292252701 -8.754360749113474 1.982233035753666 148 113 86 255
-23.601188742790839 -8.673372054398342 2.941152155492176 152 119 94 255
-22.025867280884654 -8.534455486981884 3.803039055424932 145 109 85 255
-22.340955869026999 -7.679636850063986 3.644053688350283 128 91 65 255
19.936242211321058 -20.233635299078955 26.528254012215641 184 147 131 255
21.070807642930248 -20.081456244289015 27.149931508286272 176 139 123 255
21.935245879943920 -19.825979371105035 27.625764490602592 180 138 124 255
23.611714395851408 -19.908493271159742 28.539677369140463 177 135 117 255
24.747527938693366 -19.777579956196732 29.161767902701882 175 132 115 255
25.252169487144243 -19.390842349282380 29.443278802552328 175 130 113 255
26.208186100954578 -19.196065678023800 29.968246524058927 178 131 115 255
27.164536357911260 -19.007003963558972 30.493328270686803 175 127 112 255
27.850400110390353 -18.708655455590872 30.872462497888804 176 127 113 255
28.446209569294382 -18.375780522061277 31.202990958481692 177 128 114 255
29.403444798759381 -18.201933625421432 31.728381863009787 179 130 116 255
29.548112657962889 -17.681462362815736 31.815576975740640 181 132 118 255
29.963834234732957 -17.280044728589928 32.048919559917010 183 134 120 255
30.560401109406342 -16.960428592064886 32.379740936086208 185 136 122 255
30.976426030324006 -16.564390568995464 32.613209134816913 185 137 123 255
31.573360683000345 -16.251227776345885 32.944174567283767 187 139 125 255
31.899283019599267 -15.820034848514567 33.129044237939510 189 141 127 255
32.406146834436214 -15.472247126806806 33.411420341948087 192 144 130 255
32.822739716090410 -15.086338280160774 33.645130515460949 189 141 127 255
33.420371479026841 -14.785454981086005 33.976374666454745 188 140 126 255
34.018200969190275 -14.488033290338109 34.307695324233762 187 139 125 255
35.068658156051697 -14.403416008741345 34.882827676011246 187 138 124 255
35.485959026742620 -14.029977706293479 35.116820848605300 187 138 124 255
36.446504666289172 -13.913387561769895 35.643409179781685 187 135 122 255
36.502022951801337 -13.375520985116879 35.682502998694858 186 134 121 255
37.100851008373752 -13.095582265047184 36.014210161765277 184 135 120 255
37.609305583117504 -12.775827915000733 36.297223761606773 183 134 119 255
37.846166284388090 -12.328404755441156 36.433981419670545 180 131 117 255
37.720681760899367 -11.707049737895744 36.375663430849698 179 130 117 255
37.685743821791959 -11.128763590625624 36.366132599528257 176 127 114 255
38.103941073188395 -10.771702089907450 36.600554328307680 171 122 108 255
38.250309732870875 -10.283092706576454 36.688656795417543 162 113 99 255
38.940713140040117 -10.064424755333178 37.069572036635918 164 115 101 255
-49.664597371588428 -16.947231572079133 -10.444818078107119 187 153 133 255
-48.187442855525063 -16.595199112055326 -9.639044832969773 172 126 111 255
-47.518216838271741 -15.994788619556957 -9.267637041081883 170 126 113 255
-47.387816163460258 -15.225371094220847 -9.185863262698916 172 129 120 255
-46.448606073859850 -14.719358453183375 -8.669430417359166 36 1 0 255
-46.228073958115687 -13.983869852228722 -8.539253809637586 54 17 3 255
-46.456924407232776 -13.101505492257729 -8.650543929751422 106 68 50 255
-45.606933019123659 -12.577515551514125 -8.182164055911528 178 141 123 255
-45.116335343472059 -11.937940277675736 -7.906920244811715 161 124 105 255
-44.715499019324426 -11.271032788144524 -7.679922016642877 140 103 84 255
-44.044641072555322 -10.699043521361190 -7.307900578798552 119 84 64 255
-43.643461490078010 -10.038174693170859 -7.080766039163024 102 73 52 255
-44.501996349687118 -8.941639181287997 -7.530194900919014 76 52 31 255
-45.450841519757404 -7.808583148353605 -8.028031291087160 37 21 3 255
-44.419534516806294 -7.370598231396940 -7.462472241420926 22 12 0 255
-32.133066227578439 -10.953131711897200 -0.853705643896973 12 2 0 255
-30.828844682258733 -10.658680534381460 -0.142246691761869 150 130 109 255
-27.362464226367763 -11.155847211141932 1.729868149940131 184 155 134 255
-26.056923975806455 -10.883782082557659 2.441753643561270 151 111 91 255
-26.192562054634891 -10.088601371514400 2.379976837063566 142 102 78 255
-26.238131880172176 -9.326195578154071 2.366572701076620 140 104 78 255
-25.562640845387818 -8.833482295341938 2.740167501108346 147 113 86 255
-24.165702456135790 -8.616928023554962 3.500874953739725 146 112 85 255
-23.309271597524344 -8.203212596994646 3.971452357396515 125 89 63 255
-23.264189534105725 -7.483849670638719 4.006652722747987 123 84 58 255
-23.850493825141342 -6.521163585938936 3.703132754517185 124 85 56 255
-23.895720087705143 -5.765522630314493 3.689951184074602 129 90 61 255
-23.128882399416767 -5.327831072060363 4.112397279401392 134 94 69 255
-22.361777407844698 -4.894786155007324 4.534942855245134 135 97 76 255
21.674200301357558 -19.252157827849217 28.200317236710262 181 149 129 255
23.082541515358201 -19.228032042351984 28.964576364357072 175 139 121 255
24.943186607902419 -19.399913412147754 29.971192144087354 175 135 118 255
25.719955475451542 -19.129501388073209 30.396693993253123 175 131 115 255
26.135415544634299 -18.711491757185456 30.628499820198542 174 127 112 255
27.003064876824226 -18.487578604738914 31.102629409902320 174 128 112 255
28.413574076671608 -18.500423969475008 31.867609846039784 175 126 113 255
29.734135141481346 -18.482811449060080 32.584289675563028 175 126 112 255
29.788727564939705 -17.925070428111965 32.622587259013628 175 127 112 255
30.024276078003368 -17.446414220803590 32.757850103082347 174 125 111 255
30.440878068931596 -17.048464933266189 32.990105987974800 176 127 112 255
31.129139451721642 -16.772804230952119 33.367863199968212 179 131 117 255
31.636583319625743 -16.420723183627601 33.648737262580497 182 134 120 255
31.963110963536963 -15.990582226796064 33.832700561544527 184 136 122 255
32.651968670033909 -15.725388584809011 34.210691763207379 190 142 128 255
32.888187356890796 -15.258979114004859 34.346275339400705 188 140 126 255
33.668014268403851 -15.041777502233259 34.772921398410077 187 139 125 255
34.448103886855279 -14.829129575346641 35.199663667212761 187 139 125 255
35.681572238453271 -14.830359804531156 35.869065385816953 188 139 125 255
36.280989108821359 -14.543890367512262 36.198988215880803 184 135 121 255
36.427320544715059 -14.048802077292521 36.286379962591880 186 134 121 255
36.120318465134318 -13.340984402857202 36.131172432387231 187 135 122 255
36.266627074369012 -12.845921531689328 36.218606136973165 185 136 122 255
37.047905222037542 -12.654178885716490 36.645819960653697 183 134 120 255
37.285108975712745 -12.205897968728436 36.781890202656541 182 132 121 255
37.431634387591771 -11.715047351108538 36.869457586981369 181 131 120 255
37.124408720749102 -11.004565239274342 36.714312899397711 178 128 117 255
37.815536948135076 -10.779631833128036 37.093243607821250 176 124 113 255
38.052945905927999 -10.335597090528751 37.229471358888134 170 118 107 255
38.472023715126625 -9.982502243818075 37.462865688052759 168 116 105 255
-50.859246201475315 -15.899860393617047 -10.117256391002627 174 143 122 255
-49.739462153761309 -15.435712629415150 -9.507654282230988 59 22 6 255
-48.529287674158041 -15.007417146853697 -8.849861106011673 182 143 134 255
-48.488659509959263 -14.207721351238220 -8.816665918769587 169 132 123 255
-47.997935056285911 -13.555605654683546 -8.543136771364630 152 117 105 255
-48.407338743025178 -12.609824583799863 -8.750206792790976 105 71 58 255
-47.736318335619131 -12.021289553359168 -8.380439472104825 79 45 30 255
-47.425305664176534 -11.316108498573300 -8.202888022988020 138 105 90 255
-46.934019264640682 -10.674000255919552 -7.929121190251323 145 112 96 255
-46.712839244234743 -9.942762316887041 -7.799541361143355 126 96 79 255
-45.320131054682207 -9.616467433680285 -7.044734544252009 105 78 60 255
-44.918323873436947 -8.954392141937902 -6.818814252936136 70 50 34 255
-45.147375057053040 -8.073921006236148 -6.929535883510454 22 10 0 255
-45.827303959758666 -7.033067765296366 -7.280788861531732 14 7 0 255
-31.855312913200436 -10.444061024151566 0.196094865855173 8 0 0 255
-27.571809776977233 -11.232992413989109 2.492083111968327 188 170 150 255
-26.625060313146747 -10.829713249824295 3.007936996368187 170 139 121 255
-27.843733235402254 -9.635728406719252 2.368808359781980 151 114 95 255
-26.806443213586050 -9.271012135800163 2.932921241055368 150 114 92 255
-25.949330526780329 -8.845159382481839 3.400885763477021 142 110 85 255
-24.730762648666683 -8.560524721991115 4.061534389940874 154 118 92 255
-24.505112897398760 -7.906341336619093 4.192700665430550 131 94 68 255
-24.098746976132105 -7.322669436618185 4.420216816255731 134 91 65 255
-24.324599185579331 -6.497862225816078 4.310692282637177 140 96 67 255
-24.550539310483231 -5.671775955021687 4.201164809122020 155 112 80 255
-24.053615696981154 -5.127174494657680 4.476971390770387 155 111 86 255
-23.014211358254812 -4.799299452789754 5.041881563669563 144 100 79 255
-22.968859736751256 -4.082925199712676 5.076979448270635 125 83 63 255
24.597569363141844 -18.798479766694030 30.488617220716961 182 150 131 255
24.470379348041831 -18.149671140187465 30.429926636662046 180 145 125 255
26.154081574281321 -18.266546880346695 31.335611744376237 173 136 115 255
27.747811826099422 -18.354870173159370 32.193264580499800 171 126 112 255
29.885582381462257 -18.685893555490637 33.340465548421022 169 124 109 255
29.215616734905836 -17.816376168891551 32.992698336462098 167 122 106 255
29.360909157446002 -17.297460693811246 33.079014448036162 167 122 107 255
29.959383312185395 -16.977746202920656 33.406572075030866 171 124 108 255
31.827093752855689 -17.220890324170298 34.409656575569727 171 123 109 255
32.426194340766585 -16.911982370673670 34.737437419644536 174 126 112 255
32.844136459580113 -16.525568316566421 34.968786715312490 177 129 115 255
32.445958339500351 -15.774611197984868 34.765856844856231 183 135 121 255
32.591882930511730 -15.267395653343073 34.852493149417995 182 134 120 255
33.372932651930569 -15.050135269066644 35.277047240781044 182 134 119 255
34.244988250166500 -14.879017524566180 35.749972671938295 184 136 121 255
35.661901127709854 -14.964166790449397 36.512674416921627 184 135 121 255
35.899205563710836 -14.509924207064074 36.647860609514950 183 134 120 255
36.227366423011119 -14.099347815316420 36.831377046760750 182 133 119 255
35.919952842187826 -13.391790325379517 36.676902234693685 185 135 121 255
36.066535056462129 -12.896968356682009 36.763898216975463 186 134 121 255
36.758203437339802 -12.662209681247234 37.140733882082571 185 133 120 255
37.359238137132252 -12.387909293493067 37.469352366580040 184 132 119 255
37.687836552478615 -11.985680310230023 37.653120214289245 184 132 119 255
37.471170256836871 -11.320884251270314 37.547053618963801 181 129 116 255
37.436214981727090 -10.743191735029001 37.537623281461165 179 125 113 255
37.310291306324615 -10.120430469237348 37.479886028164131 175 121 109 255
38.275604486459173 -10.035184910304466 38.002090973535175 172 118 106 255
-51.966190164484232 -14.876860356541684 -9.738296553923021 179 152 131 255
-52.376550989299318 -13.923386528719504 -9.944653848847139 75 42 31 255
-49.812557231168427 -13.929427476222784 -8.572882505958631 92 58 49 255
-49.411297362760621 -13.245164946932235 -8.348680257415708 120 89 78 255
-49.190225249244776 -12.504187482353061 -8.220080254316372 108 78 67 255
-48.698516411840075 -11.854622990491933 -7.947924671588964 99 71 59 255
-48.387028613540366 -11.147790732134723 -7.771380643107278 113 89 74 255
-47.894993330416042 -10.504022335757767 -7.499089067766619 125 102 86 255
-47.944174085952085 -9.678862624363049 -7.513835107447477 123 101 87 255
-47.271382099543615 -9.101838125688971 -7.145712970820881 73 54 40 255
-45.966497120234266 -8.748108950435977 -6.442468550484222 30 18 5 255
-46.376477519720794 -7.802607937754146 -6.648521786104453 12 5 0 255
-47.689569962215870 -6.536490054365856 -7.333307039508270 6 5 0 255
-29.814210824493074 -9.821196150349223 2.186242619035397 181 165 149 255
-28.775725212025037 -9.448466574065108 2.747359426075093 165 139 122 255
-28.098445919749707 -8.948248558950539 3.117008400110876 146 115 95 255
-26.878473469480952 -8.654525542908075 3.774176167949975 172 140 117 255
-25.748496393986386 -8.334199081804982 4.383584456336564 159 122 98 255
-25.251213077963769 -7.780878757641588 4.657735880007976 146 106 81 255
-24.663301037531227 -7.265148174055781 4.979879687300638 144 101 75 255
-24.708503513515268 -6.509390577733441 4.966643621863483 149 104 75 255
-24.663240064994142 -5.788506130564329 5.001352905471776 156 111 80 255
-24.074931912835808 -5.280008988295208 5.323685675552156 157 110 83 255
-23.214855800938665 -4.881915616890197 5.789914499209175 144 96 74 255
-23.350406663163625 -4.094286847294825 5.728891394037504 129 81 61 255
-24.119900385532219 -3.052806510423508 5.332248831384362 108 67 45 255
-24.165113524838517 -2.298144829897367 5.319161902421143 87 53 31 255
-23.848006723861744 -1.690005060600583 5.497918415360544 68 40 19 255
27.625155829181836 -18.440892877777330 32.808730844098093 187 149 134 255
26.500422615152019 -17.373271861980754 32.222557162664430 181 142 127 255
27.643609689727214 -17.277217180444310 32.836240887435082 173 134 117 255
27.970441657038265 -16.833278763808863 33.018036592000868 169 128 114 255
30.475765800610162 -17.343491627171744 34.352060970782745 163 121 105 255
32.437278878868881 -17.628926852528011 35.398287976650678 167 121 106 255
33.854686535066975 -17.684688666625092 36.156634486722027 167 121 106 255
33.093015496246522 -16.776974715251256 35.762638145542013 167 121 106 255
32.603544962473705 -15.986875890439933 35.512662060771632 170 124 109 255
32.477269910518999 -15.357871567334044 35.454777913902433 170 124 109 255
33.077845562443088 -15.058471608055555 35.781179854389464 172 125 109 255
34.042141245126714 -14.928874596677048 36.299819958260301 177 129 113 255
34.824968168269720 -14.721201257468763 36.722489434021185 179 130 115 255
35.517141305452952 -14.475939134628931 37.097209371555238 179 130 115 255
36.027680124563972 -14.149857463561673 37.375913167989097 181 129 115 255
36.538379464845065 -13.826665732141876 37.654688598363151 183 131 117 255
36.503456416014330 -13.248642278734081 37.645163768728011 182 133 119 255
36.741435035399036 -12.799885698788870 37.779855991866697 182 133 119 255
36.706482440519608 -12.221849243219580 37.770379985868331 178 129 115 255
37.490610288313121 -12.037354849052107 38.193601065900339 179 129 115 255
37.273664491296302 -11.372812601222591 38.088041361552087 177 127 113 255
37.420796670753361 -10.884015299107929 38.174819538733914 175 123 110 255
37.659015554111818 -10.440452287928423 38.309722700004656 176 124 111 255
37.897290338824575 -9.998064438038952 38.444670971384227 177 124 112 255
-52.583566323490487 -13.185059211284425 -9.085829232524787 178 159 150 255
-51.459697014295870 -12.729015783793827 -8.482224257128394 153 133 120 255
-50.877256254904495 -12.101866579541053 -8.164065498815603 131 110 97 255
-49.120424396109371 -11.867729148653055 -7.226986887959669 113 91 80 255
-49.350390783830818 -10.979569378987733 -7.337066798627347 116 96 84 255
-48.405838943635587 -10.486561386767036 -6.828187899441957 65 49 33 255
-49.539450553055786 -9.292067243113266 -7.414384066294929 27 14 7 255
-50.763848615457476 -8.060002348950775 -8.048301413419807 15 4 0 255
-50.271047514307810 -7.415397849018845 -7.777415500626518 12 6 0 255
-47.336790395569238 -7.626094918910283 -6.220397924704770 7 5 0 255
-52.540538251190384 -4.989652933665312 -8.950333801998653 3 4 0 255
-44.094655384976562 -5.577438353385290 -4.468171194716632 2 5 0 255
-32.424788266110141 -8.265910361078767 1.698906546680661 137 119 105 255
-29.121597604507684 -8.725941218220868 3.448776453172741 173 147 128 255
-28.352538506886361 -8.261655186850390 3.864257075669599 173 142 121 255
-26.768147828451021 -8.107954880756608 4.708913998581210 166 128 107 255
-25.364356951526901 -7.895278994634552 5.458401100849557 161 120 97 255
-24.503642605509100 -7.483889417174822 5.921952894303018 161 115 90 255
-24.548739958274467 -6.729727011507606 5.908728204395402 160 113 85 255
-24.321980616174756 -6.080570311708300 6.038603235976183 160 113 83 255
-24.004506609206828 -5.468164507562761 6.216223882225705 161 111 84 255
-23.324291516729886 -5.000137797953514 6.584713846125737 155 103 81 255
-23.459926187041049 -4.213297665886486 6.523927874650354 136 85 64 255
-23.504929285936242 -3.461830104422518 6.510864494667970 117 71 48 255
-23.912793648057317 -2.564436667840440 6.306951874786535 95 56 35 255
-23.685747013663843 -1.921456452532055 6.437075111386946 76 43 22 255
-22.460487372481793 -1.686407565318618 7.092239175160074 60 34 12 255
-22.233129184314237 -1.049111857638849 7.222510461749977 35 23 2 255
-20.734882890392015 -0.938196885171863 8.021133319681269 2 10 0 255
26.031355953034364 -16.132767509630384 32.676077391579256 187 148 136 255
28.994736458478371 -16.836321884802132 34.242331657598626 176 139 123 255
30.595366913099582 -16.958324088099005 35.092243762120546 174 132 116 255
32.378426911274886 -17.170244308542578 36.037903323072968 169 126 110 255
33.343535845386612 -17.028317708542076 36.553683489228590 164 121 105 255
32.489591120184713 -16.076794113324425 36.113756257685182 165 121 105 255
32.909113128133555 -15.694525865583543 36.342907170619014 164 120 104 255
32.873754717324232 -15.108094553393556 36.333119966108711 168 121 103 255
33.839562655010042 -14.978700432724736 36.849205852813299 172 124 106 255
33.258103578305111 -14.143421036754873 36.552648878364252 173 125 108 255
32.949563246803251 -13.430869447390023 36.399498462339224 175 126 109 255
34.644378917323166 -13.649115430010937 37.298347764460118 176 125 108 255
35.520023885208843 -13.493287802779022 37.766980235187745 177 126 109 255
35.940455333578257 -13.127787942367050 37.996584228932605 172 123 109 255
35.905424416468492 -12.548500634960618 37.987092296861675 173 124 110 255
35.779218225827918 -11.925292257451432 37.929783317442158 175 126 112 255
37.384800847590896 -12.132754966536666 38.781463751632558 176 127 113 255
37.623428707627113 -11.688968948724806 38.915642941780717 173 124 110 255
37.862113042867577 -11.246378313724151 39.049868679942676 173 121 108 255
37.736050374811128 -10.626590157155604 38.992723683077699 175 123 110 255
38.065996152262500 -10.230132253459388 39.174883826790733 175 123 110 255
-58.435667742735035 -11.450413772290844 -11.196614568867773 71 65 50 255
-55.592843354129201 -11.536799342110854 -9.696581215884208 111 97 84 255
-50.085076382946369 -11.701232136393642 -6.790267801623088 37 26 13 255
-44.886904436141862 -12.624093764904771 -4.057560212593728 36 24 10 255
-49.278914460096161 -10.347232053779777 -6.346337748797140 20 13 0 255
-50.142711999020520 -9.243668789299505 -6.787633282928880 16 10 0 255
-54.175116104967088 -7.049515326042766 -8.887565180959399 11 7 0 255
-50.060444165266546 -7.647499772121478 -6.722582492273773 6 4 0 255
-46.215978297986766 -8.175495361306375 -4.699329615917662 4 3 0 255
-48.438411041574653 -6.594143368757514 -5.851584226855294 1 3 0 255
-55.281577664873140 -3.362817978141663 -9.421802755404201 1 4 0 255
-32.232020153096101 -7.734492235538212 2.692913576913668 25 14 2 255
-30.555361794005222 -7.599194219068849 3.580475611293139 194 177 155 255
-27.245517957915780 -8.085697134307523 5.322164806831353 178 144 122 255
-25.567391267573925 -7.975421509528971 6.210213290133623 176 133 111 255
-24.523800229416366 -7.633552509959955 6.766312766386079 174 128 102 255
-25.022566131154605 -6.706473238623843 6.515817391818558 173 122 95 255
-24.432347037872859 -6.197264022001875 6.834806834784615 169 120 90 255
-24.386611299625059 -5.479621845381800 6.869098274549287 166 114 89 255
-23.614497014193887 -5.047139243943519 7.283169977094616 157 105 83 255
-23.931873970542483 -4.188795523823899 7.127665153259898 139 88 67 255
-23.431915365638332 -3.653901343134194 7.399456899832018 122 76 53 255
-23.931089938616964 -2.721431848807711 7.149014229991195 98 60 37 255
-23.794426788528995 -2.042805868560635 7.230959230653980 78 43 21 255
-23.475974727103420 -1.438910507404628 7.407929195386600 70 40 16 255
-22.612061360707230 -1.060272826641281 7.869940163838407 49 32 5 255
4.091800983308701 -8.735473189103288 21.871694295364094 189 131 119 255
6.599320512779229 -9.153687590956210 23.190982207438424 164 106 96 255
7.014537097509560 -8.686884728507039 23.417372702009914 121 71 58 255
28.712834383385854 -15.690739942309605 34.784123878882042 189 150 133 255
32.047170520570489 -16.591322512450716 36.533532535869483 176 134 118 255
33.196136839271276 -16.533510778878522 37.141932186668114 173 130 114 255
33.069777717993617 -15.908002356659310 37.084609119847954 171 128 112 255
32.852210591811144 -15.240296690042697 36.979730800434751 172 126 110 255
32.452229601294647 -14.487987012942114 36.779713281182168 170 124 108 255
31.505046599064514 -13.482021073852678 36.294229288043255 168 122 106 255
31.925323628769291 -13.102069412396091 36.522369673137703 170 123 107 255
32.528136486222223 -12.809256368965791 36.845744174732332 167 120 104 255
34.590686851197773 -13.202610422099198 37.930620390723817 166 119 103 255
33.734335364441108 -12.233915626398854 37.492744943159494 167 118 104 255
34.337720452687591 -11.951374515151912 37.816371197316016 169 120 106 255
34.028581511744022 -11.237312475343543 37.664060947410590 170 121 107 255
34.723467561167979 -11.002608885434341 38.035416928418996 170 121 107 255
37.153363836878469 -11.608652380442422 39.311473688985004 170 121 107 255
37.757688677333817 -11.342736745845428 39.635484264092881 171 119 106 255
38.179525731476190 -10.991022746883743 39.864338961816784 171 119 106 255
37.870646117538001 -10.282646497530394 39.712265964129486 171 119 106 255
-52.106175599454986 -8.734151747224459 -6.867177881202139 10 9 0 255
-44.860723755840723 -9.600197062679015 -3.077349781457229 3 4 0 255
-45.997416484894160 -8.409255668589978 -3.657867972530767 3 5 0 255
-48.585845641736654 -6.702575526991311 -4.993164955970258 1 5 0 255
-52.445334513291328 -4.531395840809111 -6.989126497109538 3 7 0 255
-55.308049465659650 -2.693429798171778 -8.466521796435046 3 5 0 255
-47.916301911566137 -4.525962239640506 -4.612618582737326 3 4 0 255
-51.464267140468706 -1.622764809293571 -6.435106718636604 2 4 0 255
-31.764639063457167 -7.307736733391806 3.825279750741487 48 37 16 255
-27.723159348844860 -8.063470106649348 5.935881798517755 193 159 138 255
-25.679021175163115 -8.089818093128457 7.008296695806507 190 144 124 255
-24.815465925401810 -7.679641745690105 7.467149596708566 184 136 112 255
-25.405779334261780 -6.718035264892578 7.170594356670335 182 132 106 255
-25.087298021390723 -6.103588419861808 7.346253610486229 178 127 99 255
-25.223303149961026 -5.314442144430089 7.285823717027739 168 116 92 255
-24.359096608899705 -4.916142427596199 7.744985320210731 161 108 86 255
-24.404095650243192 -4.164312489610538 7.731871720210421 145 94 73 255
-23.448496170969150 -3.809799625906919 8.238463204797000 126 80 57 255
-23.675342203856360 -2.987637374708086 8.130949239904936 107 66 44 255
-23.356292708956914 -2.384231204119345 8.306959009467050 85 49 25 255
-23.310190221966252 -1.671864896325658 8.341255559605571 71 43 18 255
-23.173057267515844 -0.996987929308503 8.422847506641261 56 35 10 255
0.240913694241726 -7.920723935762297 20.617231406215708 181 137 114 255
4.026783933124335 -8.861029644389603 22.591634262284600 188 131 119 255
5.171255080661268 -8.697149595183689 23.195023881584703 173 116 105 255
6.042680259478033 -8.422649857979323 23.656670708124409 147 96 82 255
6.093943323249817 -7.798712823801054 23.692734989395362 140 92 78 255
6.783447222209816 -7.452653020642416 24.059961407160912 120 76 59 255
7.564369849605583 -7.150542684502213 24.474593164200954 100 58 40 255
29.343524329179360 -14.952357293384239 35.798830393085481 188 146 130 255
32.958028838345683 -15.998335553684171 37.681993345222054 182 139 123 255
31.371062477383106 -14.711641448907201 36.867636617363914 177 134 117 255
31.061597287142547 -13.997341134351316 36.715854164534619 174 131 114 255
30.660684991776236 -13.239184956800656 36.516725941027673 170 127 111 255
32.086116726797400 -13.320863357330325 37.264487912554273 170 125 109 255
33.238009754598693 -13.283720106085994 37.870367149096467 169 123 107 255
32.837190922696578 -12.527948912387515 37.671364556829943 168 121 106 255
32.893074854045267 -11.984284261740484 37.709142100149904 167 119 105 255
33.588693330256518 -11.743254197171339 38.078493287349019 168 120 106 255
33.644673311479892 -11.201755798253615 38.116365914853631 168 120 106 255
34.889170627639345 -11.229296984226210 38.770106757267726 167 119 105 255
35.036785700760475 -10.735615429737308 38.855477942082899 166 118 104 255
37.836720850222690 -11.527664369046818 40.314935057001549 165 116 102 255
38.076335969893051 -11.087820333857863 40.447901968140499 164 115 101 255
38.133020232568498 -10.559425867379304 40.486139602229713 164 115 101 255
-51.846044545420483 -9.794586479431231 -5.797811232055608 12 10 1 255
-53.983515036312411 -8.255562636434050 -6.891845665683547 8 9 0 255
-48.040777967146795 -9.463975050191777 -3.810319977753295 8 10 0 255
-49.270199001406098 -8.236760889327385 -4.435093304713433 4 6 0 255
-52.861620919744468 -6.182165041147172 -6.280109934156485 3 5 0 255
-49.731750348615975 -6.461013977525511 -4.652424964571395 3 5 0 255
-52.234190942834090 -4.769150151721362 -5.934539165276021 3 5 0 255
-48.788630635642193 -4.375692617931307 -4.133349041619567 3 5 0 255
-46.662316185430797 -2.743163673472736 -3.003220445606928 5 4 0 255
-28.019123565863623 -8.109225009262232 6.644007845665158 205 177 155 255
-26.699727692188475 -7.861751869681953 7.335207480039145 199 152 134 255
-25.925912197035899 -7.415099203156331 7.744685311548324 194 145 123 255
-26.244103023726638 -6.555685145921586 7.590440273914481 190 141 118 255
-25.469954285332989 -6.115120799978840 8.000077427023939 187 134 110 255
-25.423981528808440 -5.396600373511859 8.033859794867027 177 122 101 255
-24.649437607821028 -4.963172597612015 8.443675919467751 167 112 91 255
-24.603329668318679 -4.247448314786553 8.477561915951753 151 97 77 255
-23.737289808271015 -3.857262159680786 8.934567149145465 134 86 64 255
-23.691033441807605 -3.144569461436049 8.968562326406328 111 69 47 255
-23.006826531741950 -2.688910096769604 9.331723885532398 89 51 28 255
-23.507369121243073 -1.756977577539217 9.083677909209541 71 43 20 255
-23.278762167976453 -1.119820193940058 9.211836525207758 61 38 15 255
4.053836122047926 -9.025130605890027 23.357224560357537 182 131 115 255
4.196223948933863 -8.434933460437406 23.439975424363226 166 123 105 255
4.886334627269548 -8.080221982969690 23.805133435961807 159 115 96 255
5.302774058682502 -7.611363651297040 24.029193307489649 168 123 106 255
5.810654389642480 -7.184554027334030 24.300393586796915 159 119 99 255
5.953367282360801 -6.600928554803616 24.383375472807145 156 115 97 255
7.374975049740414 -6.580932639060691 25.125508036560717 147 106 88 255
6.421599318924905 -5.516835470453728 24.643636602119926 173 132 114 255
28.606551722534505 -13.604906254877406 36.102282762395575 187 145 129 255
30.581965285591679 -13.922460519408574 37.128646852992162 184 141 125 255
31.186367134354839 -13.624012534519252 37.448638714436072 177 134 118 255
27.766586877623809 -11.475891002757905 35.695842987195789 178 135 119 255
32.578700904116630 -13.122223021192156 38.183113429763623 176 130 115 255
32.817721448457462 -12.663981891496434 38.314895780997688 172 126 111 255
32.599235023214931 -11.992287746194449 38.211108308837424 170 124 108 255
34.119694825048271 -12.140095245828078 39.002771865311146 169 122 107 255
34.175940394556307 -11.601025567687657 39.040481869949730 167 119 105 255
35.147799377434183 -11.499668359546163 39.549600692902118 165 117 105 255
37.127350009387527 -11.888288725406383 40.577402850807772 165 116 103 255
38.100032978590093 -11.801138907771744 41.086814434563195 165 116 102 255
38.706585707543240 -11.541237395856683 41.407745011548215 163 114 100 255
38.855177906965025 -11.060415691045947 41.492986824120280 162 113 99 255
-55.674156390944091 -9.492298228704513 -6.831844780560886 6 12 0 255
-55.956155137921343 -7.746415415078289 -6.955699734372843 3 8 0 255
-52.459848328504364 -8.112777657915458 -5.150240949017558 5 9 0 255
-59.239725850544943 -4.965941156278163 -8.620247680264299 4 10 0 255
-58.107901427457790 -4.523523645947051 -8.028578312795048 6 9 0 255
-53.386100540605781 -4.525622181934281 -5.583795545498788 3 5 0 255
-56.621365616468182 -2.558178765997937 -7.233554659140310 1 5 0 255
-46.980038796741866 -4.388239171179762 -2.264913242881477 0 5 0 255
-32.095400243817693 -7.500260458043002 5.402380540807115 5 3 0 255
-28.132587455933248 -8.222936157587256 7.445136366974424 198 180 156 255
-27.266714431242036 -7.804971702450899 7.899106729768391 201 161 143 255
-26.673976277964812 -7.288687614287127 8.212955661963036 202 155 134 255
-26.081039771003617 -6.775991334504056 8.526895112918368 194 145 124 255
-25.579081350475917 -6.231823351324223 8.794168924815096 192 139 118 255
-24.803382251325075 -5.796653350350212 9.201807234879567 185 130 110 255
-24.118630168578392 -5.330536664915883 9.562789666576634 173 118 98 255
-23.798547143552980 -4.725066821975403 9.736790625933196 159 104 84 255
-23.478366046205593 -4.121523233259794 9.910854542921612 139 89 67 255
-23.340601025723913 -3.447089826802895 9.991421792253732 115 70 47 255
-22.655166772851658 -2.993528386848496 10.352741366681840 93 55 30 255
-23.064976621996124 -2.100691957274520 10.152690421447886 75 46 24 255
-23.383645805649138 -1.242629042318185 9.999422456484439 59 37 13 255
2.162859866853950 -8.379186896885443 23.137783720409800 178 138 119 255
3.402075008651991 -8.250449546212721 23.781856601009565 159 128 104 255
4.184613085199203 -7.933427900300600 24.191952138484737 151 115 91 255
4.510228568493346 -7.424040601640385 24.368001272348877 166 132 109 255
5.293196991130344 -7.114787407530741 24.778291331900633 172 137 115 255
5.527609495919450 -6.570504111827475 24.907649096045702 174 138 116 255
7.042869138511435 -6.590339619492880 25.692887305251446 167 129 110 255
8.009637590693529 -6.376221006306125 26.197211428847154 179 136 119 255
6.505745408952407 -5.067540751532434 25.436608972642517 175 129 113 255
22.610571600075559 -9.252208549951874 33.725949568625055 180 136 123 255
24.772177093942929 -9.654612287155274 34.841040420643310 180 136 123 255
28.309032798961226 -10.709631144517601 36.659651685770314 178 135 119 255
31.572186819345632 -11.656787108749782 38.337967602262253 177 131 115 255
33.644825728575881 -12.061547706555373 39.407005416628436 172 126 111 255
37.276797584635318 -13.217687240246292 41.273549352466716 168 122 107 255
36.966962573546112 -12.513816285628408 41.123643703332220 167 119 107 255
37.023847025162922 -11.983979953349390 41.161367712578155 165 117 105 255
37.814582951008845 -11.808688970593266 41.574421478466917 164 118 105 255
38.422071573279538 -11.548723141685358 41.893748630683547 160 114 101 255
39.672112060849713 -11.606135183258928 42.541607501147666 158 111 98 255
-27.195394732109548 -7.987889299614125 8.789494054023095 207 178 157 255
-26.601608733675988 -7.472893719688841 9.101710332738378 202 160 141 255
-26.190218832052125 -6.891930853698511 9.320984088477019 202 152 133 255
-25.322131800113311 -6.488705799159803 9.772940737086913 198 145 127 255
-24.271093365364436 -6.161310011159273 10.318071532103176 188 136 115 255
-23.493733485900066 -5.733417292610838 10.723747728095333 177 125 104 255
-23.355644069527642 -5.059153373233002 10.803782120797223 165 113 92 255
-23.308899763823945 -4.349605288241023 10.837321101672899 145 94 73 255
-23.444943844097111 -3.567552547110751 10.777805255286239 122 77 54 255
-22.941183884961191 -3.041393741262283 11.044159347921322 101 64 38 255
-23.260100725740955 -2.185748489464132 10.891602544788867 82 50 27 255
-23.487708224708570 -1.365413818417679 10.785605297399911 61 38 15 255
2.057308997189750 -7.832959611900307 23.846561704388051 147 117 93 255
3.207120104768165 -7.669320695122039 24.440875270627657 144 114 88 255
3.350014847723941 -7.079212293931690 24.522772424807044 167 142 117 255
3.676113862007298 -6.569165573078706 24.697918320253919 175 146 121 255
5.101571761040645 -6.540069936169431 25.432398880695800 174 144 118 255
6.435890889270297 -6.479130649121842 26.120443330706877 164 128 106 255
8.412130177013154 -6.709296919743437 27.134957209100349 174 133 114 255
21.017763153740333 -8.671136877152207 33.599951121990713 173 129 116 255
24.430103108758487 -9.054181800589632 35.352543954939790 176 134 119 255
29.074338320280333 -10.634431135927755 37.722105480910471 178 135 118 255
31.884144719869823 -11.378120999278579 39.158953074736658 174 131 114 255
34.511294332165363 -12.051422924457313 40.502774394229618 172 127 112 255
37.874059399785551 -13.090226625873470 42.220227029005102 171 125 112 255
35.910490852104004 -11.595310443943944 41.231005936436915 169 123 110 255
35.324229846826427 -10.752933351788926 40.941788331500959 165 122 106 255
37.126786494401046 -11.065807686220580 41.866268628476419 162 119 103 255
39.021866550814110 -11.434070756681180 42.837637656677103 156 113 97 255
-27.214101891088973 -8.136550050271808 9.631261045997320 189 171 146 255
-27.076373832025638 -7.450055111638619 9.710450038991212 199 161 140 255
-26.390006559242437 -6.973087096111513 10.067381834945053 205 155 138 255
-25.520510762627879 -6.570326000949890 10.516991918012423 200 148 132 255
-24.284857604206564 -6.314013206256249 11.151893674387139 194 143 122 255
-23.414713097855014 -5.922712909495445 11.601767172082702 182 130 109 255
-23.184767588730693 -5.285610939852972 11.727650113056441 172 120 99 255
-22.588698822626014 -4.794394414965041 12.038815619852016 153 102 81 255
-22.999278137510089 -3.906368674777227 11.840651494670709 129 84 61 255
-22.952285866348234 -3.199252563461371 11.874058289076117 107 68 44 255
-23.546240935799602 -2.233853188893747 11.583259013671778 91 56 32 255
-23.682529158725600 -1.450966047537051 11.524059735676673 68 40 17 255
-24.093675369718881 -0.554813398321087 11.325891078828761 55 35 11 255
-0.248029214898082 -6.349368265742001 23.441426176596224 162 141 109 255
4.451693847798907 -5.764999818532800 25.853773492232904 154 129 99 255
7.807278136516260 -6.597148162755758 27.558775656492060 156 122 97 255
6.758010801337065 -5.493571966282772 27.037659522416035 171 134 112 255
18.815748898976267 -8.419505724095941 33.165855189408276 176 133 117 255
24.198587487471144 -10.279600479937244 35.893718097347900 176 132 118 255
23.886075672904752 -9.544086167088253 35.744595333787004 178 133 118 255
27.249731103098526 -10.512607061575650 37.452131508104813 177 132 118 255
27.489136337287562 -10.041478684646691 37.581718001283008 177 131 116 255
28.096357585103277 -9.744365441770356 37.897062156538169 174 131 115 255
36.117457562005001 -12.397773227845335 41.964140888438678 171 128 112 255
32.402883763767790 -10.062038820839263 40.097482735788461 168 125 109 255
34.023375989749496 -10.273191708037331 40.924182591713844 166 124 108 255
35.644419375669088 -10.493775626171299 41.751069644530531 164 122 106 255
-28.283850236393704 -7.151248027423293 9.951305393451321 198 177 148 255
-26.772385454195927 -6.984702611435139 10.720742659284554 204 159 141 255
-25.351990077741419 -6.792099706499030 11.444316954052141 204 155 136 255
-24.389126541465856 -6.431384661590485 11.937781780160336 198 147 130 255
-23.425939754301368 -6.076396630545872 12.431379791389986 189 136 120 255
-23.195516263766905 -5.440326088331162 12.556571002110772 175 122 105 255
-22.506769841096542 -4.986245234175883 12.912181114545447 158 107 88 255
-22.734480434139670 -4.172332610186174 12.807127041296781 135 87 67 255
-22.962291504650779 -3.357081215425097 12.702084311871545 119 72 53 255
-23.281904656799639 -2.503547597575661 12.550967077233040 93 55 36 255
-23.051351866261001 -1.871334597650986 12.676398777781941 73 44 21 255
-23.646337842925647 -0.903187706072202 12.387028933552870 56 36 9 255
5.323391191242678 -5.013980108645612 27.050121567045707 160 134 105 255
22.826245548222232 -10.393979973767060 35.870969810720553 177 135 117 255
26.101665517495519 -11.298329637070637 37.523256661015765 180 135 119 255
24.776806635679890 -10.103224918676204 36.867019330742252 183 136 120 255
25.292337571486513 -9.753016065614830 37.134328302121943 181 134 119 255
26.636574608783576 -9.791972594532965 37.817399202003614 178 130 116 255
25.863459298372902 -8.845193280047184 37.438247782491374 177 129 115 255
29.971062675813499 -10.197548391207647 39.507398617926498 174 128 113 255
-27.705011447264866 -6.787741568361767 11.099215756918795 199 166 140 255
-25.548719200200878 -6.873694620406098 12.185552063335848 205 159 140 255
-24.584311594919342 -6.513436021261001 12.676438726234494 204 153 136 255
-23.894851790626916 -6.052176842449128 13.029974726991483 195 143 126 255
-23.572258783684248 -5.451630269287605 13.200284356474526 181 128 112 255
-22.331680205313177 -5.214176916060765 13.829041639639541 165 112 94 255
-22.743178938219870 -4.329080751395523 13.632795228484909 142 94 74 255
-22.787557839794573 -3.588194991212333 13.619932023255913 125 78 60 255
-23.199325154036359 -2.699327441040538 13.423692898265173 97 59 38 255
-22.692721098948454 -2.180013161782668 13.686015559991105 77 48 24 255
-23.104663762133754 -1.288956426319217 13.489813818801522 59 37 11 255
25.154697598486678 -11.011822353629455 37.717456551735481 181 136 119 255
24.749438784949035 -10.238521042727129 37.523929584873045 184 137 119 255
24.712727951578813 -9.633195747378025 37.514190608271562 182 135 119 255
25.044763352364043 -9.199120826467436 37.688292855435762 180 132 118 255
25.100234403671692 -8.637223414498891 37.724595677169503 179 132 116 255
27.830423807588261 -9.335984504776647 39.093798437087841 176 130 114 255
31.576301317183294 -10.531924664990683 40.968910754988769 176 130 115 255
34.677637019730895 -11.441816357870394 42.522627959391841 174 128 113 255
30.951156524078471 -9.092345182531503 40.674629792456074 170 124 108 255
34.053424271693927 -10.018349956980273 42.228683230837774 163 117 101 255
-29.282198603823957 -6.347517507971304 11.161439336639035 190 173 139 255
-25.285589847715954 -7.130439220814381 13.153770569132647 203 162 142 255
-24.411435641461821 -6.736685506368772 13.596514184065995 206 156 141 255
-24.088355431629225 -6.134688088543243 13.765819744375051 198 147 130 255
-23.949000734793174 -5.462940520067448 13.843997466300564 185 132 116 255
-23.349985813988496 -4.972599504145805 14.150244267491587 170 117 101 255
-22.934665582785328 -4.413032323676944 14.365373288095554 148 97 78 255
-22.795096659652927 -3.745952859150009 14.443743553800317 130 82 62 255
-22.747476103623114 -3.042764833574395 14.476548476380316 104 63 43 255
-22.423889037302587 -2.451428667313536 14.646263776535065 85 52 29 255
-22.652256535658466 -1.637173382311119 14.542288809919015 62 37 12 255
-23.340848683443568 -0.632847477120137 14.210171832733280 46 35 5 255
23.984460374312050 -10.034819882963120 37.813777384864267 180 139 117 255
24.778521488938651 -9.811849454622831 38.215464163883553 181 133 116 255
24.003115020150659 -8.863823844655869 37.840070345766151 179 129 112 255
26.090330433736540 -9.249848986741284 38.882015809690330 176 128 111 255
26.238499027719968 -8.735305372094771 38.963950332187636 174 127 107 255
35.093282817617762 -11.225726188878781 43.372325044535870 177 132 113 255
34.780844336635226 -10.515920615922013 43.226149276600523 175 130 111 255
-26.308520239696321 -6.896759518714248 13.483802382661011 200 165 139 255
