ply
format ascii 1.0
element vertex 645
property float x
property float y
property float z
property uchar red
property uchar green
property uchar blue
property uchar alpha
end_header
-30.695351317141643 -20.825853986665805 -8.425026113224362 209 164 145 255
-30.981364886857847 -19.980860324566294 -8.574906011967329 204 160 140 255
-31.561039766882487 -19.531129177905598 -8.893443057885818 192 147 126 255
-32.198386153060255 -19.162261706950972 -9.245131776591606 182 135 115 255
-32.542787417751271 -18.396925613776745 -9.428528498094437 166 118 98 255
-32.770942136780576 -17.471420935872288 -9.545102860291664 152 104 84 255
-33.232282437334135 -16.865097273217060 -9.795659240132778 152 101 80 255
-33.635354737410665 -16.178940287266471 -10.012719285100502 155 103 82 255
-33.807031171128557 -15.170572222691703 -10.096735035061457 165 113 92 255
-34.152869220602298 -14.402831797905378 -10.280840274527293 157 101 76 255
-34.441370705254769 -13.553673823160580 -10.431948615265654 123 67 40 255
-35.132502133836908 -13.272347647261142 -10.814599333659245 107 52 26 255
-35.936923551271633 -13.156240775696290 -11.262452439317570 199 148 119 255
-37.711574490360562 -14.432053346625281 -12.268560343184888 193 143 117 255
-39.422826138503154 -15.636769767266571 -13.238405362391376 193 145 125 255
-41.071077493552394 -16.769711073824908 -14.172201959017073 196 147 132 255
-42.145654632207766 -17.088917612723890 -14.775996152776159 197 149 137 255
-42.990444063433586 -17.083179105748940 -15.247606368473797 192 145 135 255
-43.607032815758970 -16.749794699202198 -15.587886030040551 118 70 61 255
-44.278957089951973 -16.501256637117820 -15.960049854698767 149 101 91 255
-45.399628425353939 -16.921077489501869 -16.590694632865166 187 139 129 255
-46.236246006056717 -16.929301327625467 -17.057823705740006 67 19 9 255
-46.958774394725936 -16.773691166030176 -17.459281058971882 179 131 121 255
-47.791455698000533 -16.788643566197095 -17.924246791570781 166 118 108 255
-48.622041344389174 -16.807177773326487 -18.388061477887661 162 114 104 255
-49.617327360320104 -17.082449223134432 -18.946865052944290 155 106 94 255
-50.110541000210333 -16.601137805047699 -19.216316320033798 149 100 88 255
-50.603252846106358 -16.120696933967452 -19.485471717062552 119 71 59 255
-50.985063220987655 -15.470999592055819 -19.690665680438968 85 50 38 255
-51.532114989794479 -15.077120353708239 -19.991136967404145 52 34 20 255
-51.803724284945872 -14.256993225515657 -20.132716877876234 51 37 24 255
-52.130707369283897 -13.521652344089688 -20.306193636967905 29 22 10 255
-52.622017743243219 -13.043686314604770 -20.574454436896673 16 16 3 255
-52.131109989237672 -11.015231585084678 -20.275813531241226 2 5 0 255
-50.719532951709965 -7.510550668336663 -19.445511696450353 2 5 0 255
-52.084842181097201 -8.409315547104484 -20.218055688894751 1 4 0 255
-54.690773903316057 -11.313862506015028 -21.707152781885966 0 3 0 255
-53.667109614529835 -8.402116242643785 -21.100390161970822 0 3 0 255
-56.691385640069484 -12.026777719998279 -22.831595177035425 0 3 0 255
-53.104107838169512 -3.633034274849479 -20.727418495062892 0 3 0 255
-54.948444039714843 -4.075079766321494 -21.761080324084134 0 3 0 255
16.186602617839696 -30.849031990872788 16.569080336689410 188 156 135 255
14.214955493485263 -31.615149855334124 15.466352508104194 189 157 134 255
12.971692129383115 -31.649670376212043 14.775598963935181 195 160 138 255
12.321376759806469 -31.080499675644774 14.420297511864277 201 166 144 255
11.671944249485790 -30.512819372462246 14.065451850648117 207 171 147 255
10.501378483909861 -30.491825732106065 13.415581137964011 210 173 149 255
8.747757364756552 -31.091336046203367 12.435542194275186 211 173 150 255
7.649404121932321 -31.014016873891393 11.826315674892300 212 174 153 255
6.748355549333354 -30.734874168659246 11.328710861321412 208 170 149 255
5.978693739484015 -30.320924405566473 10.905434845918180 207 169 148 255
4.370824586487089 -30.810045420505560 10.007403446145659 213 175 156 255
2.896736766849102 -31.168435924340827 9.184990711457431 218 182 160 255
1.619951112076251 -31.325000254041925 8.474200882830218 220 184 162 255
0.475082177562882 -31.347661145764732 7.838027540527705 219 183 161 255
-0.410560366776764 -31.094682897494749 7.348622536114320 218 181 159 255
-1.549943192394181 -31.126664702393271 6.715374986453540 210 172 151 255
-2.622529839613833 -31.093117448052141 6.119881246918922 217 176 156 255
-3.437753615998673 -30.780760143130351 5.670154497881782 212 169 150 255
-4.124255136446124 -30.329063737872076 5.293327629754970 222 179 160 255
-4.619442484079599 -29.665351162427044 5.024904494154185 219 178 158 255
-5.620337143235389 -29.574587658378050 4.469767406238532 217 176 156 255
-6.555635551761782 -29.416254438991160 3.951741093733091 221 180 160 255
-7.362745782924549 -29.117674442233067 3.506329399487200 221 185 163 255
-8.042465351435396 -28.677490425512872 3.133103448272109 223 187 165 255
-8.846494589278336 -28.384144023955628 2.689333274114375 222 186 164 255
-9.774037977255745 -28.238989847850348 2.175447878300645 221 185 163 255
-10.387077751762519 -27.733072025497876 1.839902663312827 217 181 159 255
-11.373209761299762 -27.667401236084771 1.292655802105870 208 172 150 255
-13.165412820399126 -28.559512243025665 0.287967008244138 209 174 152 255
-15.075829269298652 -29.608840887908343 -0.783979591301517 222 187 167 255
-16.484367188230209 -30.078692687374939 -1.571289748934902 227 192 173 255
-17.456007921387851 -30.037677770389365 -2.110753078289449 226 191 172 255
-18.240195810929151 -29.778078230466548 -2.543884588552885 221 185 169 255
-18.838125005296234 -29.297861516683241 -2.871326923335644 217 180 162 255
-19.557987958763761 -28.968530860602954 -3.268027913736105 215 178 160 255
-20.092654664921554 -28.416775045751649 -3.559610868993701 215 176 159 255
-20.626722944778265 -27.866036930501934 -3.850873152163700 216 176 159 255
-21.038189225292257 -27.165547868454922 -4.072520763695792 217 175 159 255
-21.814808891360968 -26.918825068507203 -4.501587323287481 215 175 160 255
-22.346824349717878 -26.371580728201025 -4.791745356307175 215 178 162 255
-22.817641210694092 -25.749287352794511 -5.047150006058857 216 179 163 255
-23.530022167041778 -25.432691909140374 -5.439824225615382 213 177 161 255
-24.361699582323155 -25.271475301710325 -5.900331764687564 211 175 159 255
-25.010840166295196 -24.883309086245788 -6.257149129091559 217 181 165 255
-25.358484492338647 -24.112242222638713 -6.442622090336755 222 185 167 255
-25.886167550952166 -23.572381647312312 -6.730433491170501 226 189 171 255
-26.712323308855588 -23.420573694028093 -7.187953345729568 224 187 169 255
-27.775290723004275 -23.582556521377654 -7.780179293220243 224 187 168 255
-28.537562659088081 -23.360276962460318 -8.201489802394690 227 186 168 255
-28.882294913833789 -22.594183090084869 -8.385369887781778 198 155 138 255
-29.405090938295501 -22.062659593825856 -8.670521610972685 190 145 126 255
-30.045612532017202 -21.689192623458212 -9.022655154408682 186 141 122 255
-30.566995793367170 -21.160083881289779 -9.307030724646211 205 160 141 255
-30.793377421494910 -20.237021718944646 -9.423554406490737 197 152 133 255
-31.373034778683262 -19.787952383867719 -9.741089724510033 191 146 126 255
-31.717373370117457 -19.022560321366512 -9.924708090875484 181 134 114 255
-32.120429229950474 -18.336448590939369 -10.141732168020241 169 121 101 255
-32.523450527990661 -17.650402808982079 -10.358726464335888 151 103 83 255
-32.926439435033416 -16.964419696595769 -10.575691494893675 150 99 78 255
-33.271304714172885 -16.198160376270380 -10.759547435274541 160 108 87 255
-33.442522047020844 -15.189826366113692 -10.844489592335705 171 118 97 255
-33.961746358471515 -14.664456879115590 -11.127601991505571 168 112 87 255
-34.365024721176724 -13.978015419308718 -11.344668888793308 155 99 72 255
-34.825847654268159 -13.372853433022641 -11.594505527851922 125 69 44 255
-35.458688004905326 -13.012559968736952 -11.942349382587963 103 49 21 255
-36.720769563645291 -13.552626182328936 -12.648793195882632 181 130 104 255
-38.207554031293597 -14.427101984662784 -13.483413145556312 191 143 121 255
-39.518200043466010 -15.063744774459479 -14.217774934673372 189 141 122 255
-40.710803792929795 -15.542885756579494 -14.884959857192285 181 134 118 255
-41.786160264467441 -15.863172140595225 -15.485395197610785 186 140 127 255
-42.461859074429128 -15.609213285297585 -15.858014212222187 182 134 122 255
-43.249256982575048 -15.523576604553369 -16.294359216692953 125 77 64 255
-43.922056650338760 -15.274577812969369 -16.665378058198073 174 126 112 255
-45.155993256295858 -15.862643703050651 -17.356527198254241 83 35 21 255
-46.217640232085273 -16.206327979631055 -17.949485608919403 164 116 102 255
-47.276131610066358 -16.555396749865906 -18.540724801171365 153 105 91 255
-48.387319251211807 -16.994000942898083 -19.162118785153297 149 101 87 255
-49.105075029140750 -16.847766812224449 -19.559040957097650 143 98 83 255
-49.487759783036836 -16.196575893879015 -19.764713802544577 113 70 54 255
-49.482300972363959 -14.951548564767563 -19.748755945021131 77 36 21 255
-49.865965044632986 -14.298723680509681 -19.954904125557988 50 20 4 255
-50.580793330240795 -14.157535838239198 -20.350151249539607 38 23 6 255
-51.183959526156656 -13.847993003133979 -20.681644923835208 32 20 5 255
-52.005806006366385 -13.883113984244687 -21.138068627176182 20 11 1 255
-52.168074213096105 -12.890333630692908 -21.217690051364571 8 6 0 255
-51.238243260596704 -10.172126440346801 -20.673191303454445 4 6 0 255
-49.933110273759638 -6.838238091685525 -19.913952681500717 2 5 0 255
-50.540080204059933 -6.522317902673478 -20.247341146817504 0 4 0 255
-52.122796844609610 -7.771469849662680 -21.138545684161926 0 3 0 255
-53.758992731870876 -7.854719844866509 -22.046970134727729 0 3 0 255
-53.065747176200318 -5.450821163665552 -21.636847495021613 0 3 0 255
16.796871128123740 -30.669993207222177 15.835072198043889 188 156 135 255
14.228892998344605 -32.040391028350030 14.405037157459049 188 156 133 255
13.313817838973648 -31.738866825985127 13.902228062714741 197 162 140 255
13.057074231599699 -30.763751356360046 13.768776882298752 201 165 143 255
12.996129522168957 -29.583656351541009 13.745205914789381 205 169 145 255
11.822349150987606 -29.559404043546124 13.097079741008443 207 170 146 255
9.868720219563698 -30.360708611214676 12.011142540351457 212 174 151 255
8.962988950785615 -30.075029799094409 11.513269675891905 210 172 151 255
8.189150754758089 -29.655010706864857 11.089377872369795 206 168 147 255
6.573819135919365 -30.135035762575967 10.192992101425745 209 171 150 255
4.704539475377516 -30.900454778258677 9.153888504733303 217 179 160 255
3.099491510951992 -31.397963265563533 8.263005120931609 222 186 164 255
2.014836990525254 -31.345925492468126 7.664235868033629 223 188 166 255
0.997233644397255 -31.228594275930305 7.103046124088522 222 187 165 255
0.110455742406941 -30.975107890931042 6.615266518942548 222 187 165 255
-1.030540947557029 -31.006556698806435 5.984626630191357 221 183 162 255
-2.168529552106378 -31.043117742638231 5.355593322399216 220 180 160 255
-3.112185682069878 -30.872207747991638 4.835658097803659 219 178 158 255
-3.735421940118385 -30.349615793823631 4.495695146112283 220 179 159 255
-4.294269442704490 -29.757200817360854 4.191882197867812 220 179 159 255
-5.042633073320417 -29.380440913598591 3.781541415662446 215 174 154 255
-6.169048830264984 -29.436666399945295 3.158683381822641 216 175 155 255
-7.166240142576953 -29.354014531181633 2.608378386227088 218 180 159 255
-7.909048604031824 -28.986692992435223 2.201000412843328 221 183 162 255
-8.461913569865175 -28.404432105744462 1.900361904204857 219 181 160 255
-9.202306117197509 -28.041212930963667 1.494268779719022 216 178 157 255
-10.066452684101904 -27.826172546937698 1.018551302072069 214 176 155 255
-11.303347195908032 -28.053148633024250 0.333175585702264 205 168 147 255
-13.471434630292578 -29.386324914291350 -0.875970738861724 215 180 160 255
-15.196744690640770 -30.217262986585411 -1.836272705592137 229 194 174 255
-16.420015265141075 -30.467420293571450 -2.514329083313399 231 196 177 255
-17.268264030753897 -30.279424908555143 -2.981513800139837 228 192 176 255
-18.052799941457891 -30.020460569901815 -3.412905169288237 218 182 167 255
-18.589066700998899 -29.466423063965294 -3.704655610911232 215 178 160 255
-19.309290260635521 -29.137508931737102 -4.099932950625430 213 176 158 255
-19.782572135969474 -28.511262585479500 -4.356283086722755 214 175 158 255
-20.194266024002104 -27.810431528327058 -4.577981882087286 214 174 158 255
-20.667014017186460 -27.185092320414071 -4.834047182109629 215 173 157 255
-21.383388193026434 -26.862727648968075 -5.227256932638724 212 172 156 255
-21.976658854059195 -26.391072298340760 -5.551199737327124 210 174 158 255
-22.204723197834397 -25.464558505533887 -5.669551428478599 212 175 159 255
-22.797072491997085 -24.994472775097506 -5.992996240822350 211 175 159 255
-23.630405881944029 -24.831860677515436 -6.452160464174554 209 175 158 255
-24.642809445333768 -24.902693721854035 -7.012215078205685 216 182 166 255
-24.930164341237088 -24.054679802845271 -7.163974316219893 223 186 168 255
-25.278054318049016 -23.283044177004115 -7.349816003851203 224 188 169 255
-26.045668704195975 -23.052888795638552 -7.772089947784735 223 186 167 255
-27.050836235264399 -23.136049348621327 -8.328232965049466 224 187 168 255
-28.172639467640437 -23.379514070446589 -8.950154867463482 190 149 130 255
-28.576809854158228 -22.691509779486239 -9.167771725479597 151 107 88 255
-29.396744959676340 -22.551727671835920 -9.619686467350675 140 93 75 255
-29.681355132802310 -21.708409425815290 -9.769931075638794 137 90 72 255
-30.202999271346954 -21.179292716960276 -10.053762354243801 154 107 89 255
-30.488050065691652 -20.335234513328089 -10.204228354221385 185 138 120 255
-31.067954632329020 -19.886376754309623 -10.520903842438557 190 143 125 255
-31.294580384426382 -18.962362311805293 -10.638401680837759 179 133 112 255
-31.580570748067800 -18.116722831752384 -10.789345124762690 159 112 92 255
-31.808577549033600 -17.190370830485222 -10.907565598666366 149 101 79 255
-32.095688838464355 -16.342837391897746 -11.059090360643395 148 100 78 255
-32.557936026503228 -15.735452146313008 -11.309377954233483 166 116 93 255
-33.019890623018682 -15.128572950208934 -11.559495475839157 175 123 99 255
-33.771298132344469 -14.926090020369656 -11.972911151360393 177 121 96 255
-34.116381275047758 -14.159328705433438 -12.157090291857315 166 110 83 255
-34.461707315011466 -13.392163203469380 -12.341385631850315 152 96 71 255
-35.095041159526431 -13.031854795418269 -12.688199667020513 128 72 45 255
-36.014404814689271 -13.081770419062366 -13.196467590094102 99 46 20 255
-36.816801583262190 -12.971959374003461 -13.638756741656763 106 57 34 255
-37.731651964216269 -13.029577666040581 -14.144563361406426 169 121 101 255
-38.644117879608444 -13.091265334762056 -14.649069804560838 176 129 111 255
-40.521371871393399 -14.560819132164113 -15.698406627529053 175 129 113 255
-41.597113946227410 -14.882855244793802 -16.295271665471731 175 128 114 255
-42.443174867396323 -14.878191402080574 -16.762480732483851 169 121 107 255
-42.835156776844457 -14.211124472652159 -16.973237635203418 164 116 101 255
-43.903515979903858 -14.545762786399024 -17.566073179739277 117 69 54 255
-45.362341398585414 -15.471690282048542 -18.379581573091116 140 92 77 255
-46.591761373823232 -16.070449657721724 -19.063580613932615 147 100 85 255
-47.649331363898739 -16.423489308163767 -19.650551577971527 114 67 51 255
-48.257062264263652 -16.106912307228754 -19.983347152780397 72 28 13 255
-48.473830364710153 -15.199919788536334 -20.095157995151126 39 1 0 255
-49.024847757463618 -14.800492034554566 -20.395877165438648 29 0 0 255
-49.464221402115214 -14.232283668138791 -20.633472015267500 25 0 0 255
-50.069286180161015 -13.920305287163217 -20.964737585820728 16 0 0 255
-50.673329514175066 -13.610081391194285 -21.295428501552365 15 0 0 255
-51.496529218201573 -13.644496038043570 -21.750073000498105 12 5 0 255
-51.933276878470849 -13.080822606666743 -21.986152171461953 4 2 0 255
-51.438557213376470 -11.052615510862609 -21.695258359639283 1 4 0 255
-50.893468910476201 -8.930751149150410 -21.375713627836916 1 4 0 255
-51.661288567270503 -8.880088319462629 -21.798931902385377 0 2 0 255
-52.536080962085919 -9.006187752771666 -22.282711818713594 0 3 0 255
-54.981822680275258 -11.661321197646203 -23.655694197878432 0 3 0 255
14.901695518571671 -31.793306379189431 13.713928037757043 190 158 135 255
13.523977322092122 -31.963009851549145 12.955984195996294 197 162 140 255
13.267961298797985 -30.988579574092341 12.822055942638031 200 165 143 255
12.748729475916775 -30.284558711978349 12.541662776324316 205 169 145 255
12.164356168000694 -29.649259500334580 12.224996894012378 208 171 147 255
10.927015902124339 -29.698633352247782 11.544923052257843 209 171 148 255
10.475658962426934 -28.930500000194229 11.302205566804730 208 170 149 255
8.787637678191942 -29.470016814706810 10.371165361714802 211 173 152 255
6.585089021454195 -30.570624013704588 9.153616570655061 214 176 155 255
4.519464503670207 -31.545059372882861 8.012136320843197 221 183 164 255
3.366276519378800 -31.558006326135228 7.378466542479828 222 186 164 255
2.797136627725905 -30.948564884182673 7.069887344160890 226 191 169 255
1.391066312817117 -31.249501738121523 6.295301105456005 226 191 169 255
0.374831716341845 -31.136311255820289 5.737691460389073 227 191 169 255
-0.831407733480603 -31.238534447726238 5.074218060749260 225 189 167 255
-1.906317657642404 -31.205066534434991 4.483807556918720 224 186 165 255
-2.722907073240066 -30.892840012268209 4.037200890124993 220 182 161 255
-3.474057256929228 -30.512381020771983 3.626999522630598 219 180 160 255
-4.096538465575321 -29.991703627341451 3.288431141236060 219 178 158 255
-4.718140631237787 -29.472516193925088 2.950326009187535 214 173 153 255
-5.845770536993570 -29.528889997302429 2.330292256761709 214 173 153 255
-6.970397493696197 -29.590369497386462 1.711865780585015 218 177 157 255
-8.028924950068756 -29.584742072579047 1.130202613734923 221 180 160 255
-8.455067807103688 -28.859395294045811 0.900850043039995 220 179 159 255
-9.006795793121427 -28.279504700545147 0.601506493145010 217 176 156 255
-9.871411699764082 -28.065091472498040 0.127775459443328 210 169 149 255
-11.484893827354057 -28.731344884871248 -0.763364137794326 210 173 152 255
-13.842467613954682 -30.286392352646970 -2.069341766135182 221 186 166 255
-15.070313924623065 -30.531372289900986 -2.745761095128131 231 196 177 255
-16.232468448589259 -30.708553838243375 -3.385632601385367 232 196 180 255
-16.833039778823490 -30.225116628353533 -3.712492307558406 226 190 174 255
-17.804165524511490 -30.188614683195283 -4.245968860314122 214 178 164 255
-18.278663518506590 -29.560543438222794 -4.502588708000076 210 173 155 255
-19.061019160636249 -29.306514676344989 -4.930884031710022 208 171 153 255
-19.472677398646198 -28.605790432036457 -5.152491206680764 210 171 154 255
-20.068387995147134 -28.130618939403007 -5.476747148240165 211 171 154 255
-20.295788061930011 -27.204689699764145 -5.595598809466907 212 170 154 255
-20.768351465493680 -26.579906663309032 -5.851184827027978 209 170 153 255
-21.057654876769902 -25.728221180260050 -6.004550091094217 206 170 154 255
-21.469111491623096 -25.027838670631411 -6.226051031700109 209 173 157 255
-22.001928222074866 -24.480109477394677 -6.515260158739281 208 174 157 255
-22.776471045141534 -24.239378750568392 -6.939351095301134 209 176 159 255
-23.670259384111347 -24.154901501552160 -7.430010783580514 217 184 167 255
-24.380927378544129 -23.843285823319832 -7.818522185193871 224 189 169 255
-25.030032441015805 -23.456848805536481 -8.172700306291702 223 188 168 255
-25.798123723660268 -23.227107667166365 -8.593305977804391 222 187 167 255
-26.624491529752760 -23.077786906180961 -9.046468044397557 218 182 160 255
-27.747883870325296 -23.320953462032691 -9.665466409580574 173 135 114 255
-28.152210243326437 -22.632727165894863 -9.883098915683092 131 89 70 255
-28.675530165551010 -22.101185666832350 -10.167160730189963 117 72 53 255
-28.960717710261150 -21.256533947502476 -10.318266752971965 120 75 56 255
-29.661186963997778 -20.962305238115050 -10.701245991466280 155 110 91 255
-30.064667244942910 -20.275536921066021 -10.918395133859633 185 140 121 255
-30.468105933359709 -19.588844773407459 -11.135513453262732 188 143 125 255
-30.400621134645519 -18.266837957291273 -11.089599197221943 174 129 110 255
-30.628854487034431 -17.339544998618777 -11.208813555299074 155 110 89 255
-30.857844900128413 -16.410970003743387 -11.328425047659266 150 104 81 255
-31.496843540148205 -16.041796204732691 -11.677068270426773 153 105 82 255
-32.076422127552803 -15.594158607278189 -11.992523701401751 170 120 95 255
-32.713379270815295 -15.228474430866044 -12.340045022885704 179 128 103 255
-33.291185320296677 -14.783869406245572 -12.654522129000839 179 125 100 255
-33.752303075265644 -14.178668183874862 -12.903791123865787 175 119 92 255
-34.097527364704092 -13.411518381324413 -13.088278983901503 166 110 85 255
-34.616011808669185 -12.888301083794630 -13.369591302372669 152 98 70 255
-35.364110292457184 -12.692706255189051 -13.779254372903964 140 87 61 255
-35.880979542268534 -12.172257422018106 -14.059667225175488 108 60 37 255
-36.225482357604818 -11.406374658741072 -14.243705544127550 69 21 1 255
-36.798815102784886 -10.969449935441673 -14.555671156713146 66 19 9 255
-38.625604847297325 -12.350438452321157 -15.568566064096174 136 90 74 255
-40.445790232636398 -13.742677542009062 -16.577892095114095 163 116 100 255
-41.578403757933557 -14.149927892731938 -17.202785464708811 164 117 101 255
-42.141432354288980 -13.730584906418358 -17.509138080319502 166 118 104 255
-42.986091982457623 -13.729936959082977 -17.973032519721727 147 99 85 255
-44.504865231710880 -14.737204275737781 -18.814086530086598 135 87 73 255
-45.793491287126955 -15.417778657347782 -19.526468234417834 129 81 67 255
-46.909644868472100 -15.853102155523317 -20.142414323522843 82 34 20 255
-47.239008889905136 -15.113104317703318 -20.318121364328448 151 105 92 255
-48.629300075725382 -15.979888736655653 -21.087558747561133 199 162 146 255
-49.402258343814708 -15.921748533804248 -21.511549902294348 193 157 143 255
-50.506749942920266 -16.376972426786409 -22.121140486135886 170 140 126 255
-51.441557231064422 -16.582202548254031 -22.635791501731475 93 71 58 255
-51.710217657334908 -15.765990860612021 -22.777517562669331 19 2 2 255
-50.765862045234599 -13.063081843854405 -22.239999300186994 10 1 0 255
-51.478810590223674 -12.927550957908437 -22.630376293456010 4 2 0 255
-51.531435939075010 -11.760671826993701 -22.650953008412799 1 2 0 255
-50.983265541264899 -9.640735807703948 -22.334958770986674 0 2 0 255
-50.111836398400953 -6.993392424717172 -21.837754033971024 0 2 0 255
-53.388699526447510 -10.935468943200902 -23.664304448375049 0 4 0 255
-54.585556001385925 -11.592832324155239 -24.325789361381055 0 4 0 255
-55.453083953290019 -11.733114516116018 -24.802805342510524 0 4 0 255
-52.476821338952334 -5.663797694383533 -23.125831545409469 0 3 0 255
-51.703177428887358 -0.516270884455309 -22.663814179127229 0 5 0 255
15.773945118913559 -31.344650058922639 13.130263449967146 188 156 133 255
14.789651914683532 -31.107961966624202 12.593781611290439 192 157 135 255
13.807574204224636 -30.875033010077118 12.058473474915488 199 164 142 255
12.761967338598396 -30.713767031848562 11.488069619557322 206 170 146 255
12.243733532050015 -30.011671909795211 11.208570002724969 209 173 149 255
11.856806326329945 -29.173448798483093 11.001496248041988 214 178 154 255
11.535041945540314 -28.266322265660733 10.830364259354127 214 178 156 255
10.365075909265158 -28.252957120141218 10.191191219141771 213 177 155 255
7.375921141474834 -30.177743608415568 8.548091320304181 218 182 160 255
4.851853493041830 -31.635492276390295 7.161488268099092 222 185 166 255
3.373387530216803 -31.996033755818303 6.351797277235221 223 188 166 255
2.740095629650426 -31.457643782481199 6.008491593608227 226 191 169 255
1.655860967655485 -31.410345689235356 5.416268115069812 226 191 169 255
0.638783497027049 -31.297540454548653 4.861062336354692 225 190 168 255
-0.247256100989972 -31.048152761882193 4.378142403713795 224 188 166 255
-1.259645825882671 -30.943311078991513 3.825435166774781 223 185 164 255
-2.333574154747652 -30.913524281069442 3.238709420878891 219 182 160 255
-3.021472397849294 -30.461950457657593 2.865056101132538 218 180 159 255
-3.453230732454074 -29.727118149187419 2.632795385328080 216 177 156 255
-4.012138661245672 -29.135472460534487 2.330319285867688 213 172 152 255
-5.268745798388579 -29.334143412135944 1.642574364416532 213 172 152 255
-6.395118110327218 -29.394867511845888 1.026686993982295 215 174 154 255
-7.392053626908506 -29.316286865624932 0.482228375952587 219 178 158 255
-7.881842711384991 -28.662460139754018 0.217805546890986 218 177 157 255
-8.811949635936202 -28.517812121186950 -0.289813662087980 214 173 153 255
-9.991130583641393 -28.668438429504477 -0.935040083106287 208 167 147 255
-11.668540064884183 -29.409480857040762 -1.855517237123649 221 184 163 255
-13.340565469478662 -30.159683786347074 -2.773102693225511 225 192 172 255
-14.445418821526147 -30.257005259949949 -3.377456327984646 227 194 175 255
-15.547279380082358 -30.359417842694057 -3.980203915399812 224 191 174 255
-16.335369125153051 -30.096862935431773 -4.409647842857780 219 186 169 255
-17.369888129733795 -30.134085910356987 -4.975272654936973 207 174 159 255
-17.597103743122744 -29.207929210004238 -5.094875144189416 204 168 149 255
-18.195592873473544 -28.728667313188510 -5.419623202904575 203 166 147 255
-18.669965141756080 -28.101049815893305 -5.675798950842633 206 168 149 255
-19.389976227976462 -27.774556886651254 -6.067728187085066 207 168 149 255
-19.801790374301049 -27.073611213361261 -6.289350272280487 210 169 151 255
-20.091080654527758 -26.221599481383578 -6.443255814378858 207 169 150 255
-20.380834599314966 -25.368798600965476 -6.597410801665930 201 166 147 255
-20.671053249464137 -24.515207129131795 -6.751815278371296 205 170 151 255
-21.326724851986853 -24.118419853447676 -7.108229386819076 206 172 153 255
-22.102672831442561 -23.876524834516317 -7.531149328792480 209 176 157 255
-22.937538241463045 -23.714154631415056 -7.986663897356109 217 184 165 255
-23.589189116831818 -23.324215106723102 -8.340907768192764 222 190 169 255
-24.058817958107255 -22.704676860329357 -8.594522154883251 221 189 168 255
-24.768804253540935 -22.395255813638727 -8.981042685134227 220 188 166 255
-25.537450414129125 -22.165799294122053 -9.400017171629685 220 185 163 255
-26.544076878052266 -22.250506697840081 -9.950617581263387 209 173 151 255
-27.069824322720905 -21.715267197673143 -10.235304567937561 161 120 100 255
-27.535352668920808 -21.102723549181263 -10.486688400642052 136 92 70 255
-28.119585762693845 -20.647750171054838 -10.803727637707141 133 90 69 255
-28.702979787002505 -20.194209345659260 -11.120308445058441 180 136 117 255
-29.167048479548981 -19.584163375240735 -11.370886004014181 189 144 126 255
-29.571698766216173 -18.895451844699153 -11.588589047741650 183 138 122 255
-29.858349239161896 -18.047979846420276 -11.741000879224430 169 124 105 255
-30.086642392613157 -17.120037061540245 -11.861107910589197 156 111 90 255
-30.022114213382423 -15.791478385521117 -11.819170472221629 151 105 82 255
-30.662667613558995 -15.420487232683257 -12.167348784449842 154 106 83 255
-31.185229645677254 -14.890722688653966 -12.450238149977395 169 121 94 255
-32.115468998528200 -14.925704072004578 -12.958742287705689 178 128 101 255
-32.635993163008379 -14.399422779037934 -13.240512010293642 181 130 104 255
-33.155964330100488 -13.874090660051593 -13.521971693958918 186 134 105 255
-33.733308086015171 -13.430919446139740 -13.835184227736733 184 130 104 255
-34.483212913557082 -13.233460019648987 -14.243919602204201 177 123 95 255
-35.231515957495162 -13.038735653199467 -14.651779336801582 161 109 83 255
-35.690585080067876 -12.437293369070659 -14.899518800762792 142 93 70 255
-36.034588378193263 -11.672101712134918 -15.083538134679472 120 72 50 255
-36.607898140914216 -11.235843053935724 -15.394506993494147 78 31 13 255
-37.808848736324819 -11.709155904752578 -16.053027818796849 36 0 0 255
-39.576087113263640 -13.016661566966746 -17.025194495714260 43 3 0 255
-41.223253696392163 -14.168937595060925 -17.930948414370604 70 24 15 255
-42.240530741215395 -14.415490751775053 -18.487907020332329 72 25 10 255
-43.085100063803822 -14.416602178938035 -18.949231762813824 104 57 41 255
-44.040506369700694 -14.588680918918726 -19.471969340094162 156 109 93 255
-44.993283102050469 -14.765246541954866 -19.993274346671441 202 155 139 255
-46.561705832374798 -15.871795769901325 -20.855682799268337 201 154 138 255
-48.461047102693925 -17.493932261971565 -21.901512199023969 198 151 135 255
-49.402255419845318 -17.690220715571002 -22.416540794799445 190 152 133 255
-50.508277233854443 -18.145408520864720 -23.022922043726169 185 148 130 255
-51.944961905892370 -19.116618957741167 -23.812586370003814 169 133 117 255
-52.432370920345960 -18.646912313052496 -24.076205718384315 150 121 108 255
-52.198900683714015 -17.066761480567266 -23.940254156911152 131 104 93 255
-51.249706915373139 -14.367395807735988 -23.407498662904857 87 63 51 255
-49.975995923880447 -11.141582847536768 -22.694711247219047 22 9 4 255
-47.452497114689294 -4.649309713806247 -21.281897502529176 3 1 0 255
-50.090214449100614 -7.532050252870647 -22.737392154832307 0 2 0 255
-50.532298934699071 -6.959808238706273 -22.975534486658674 0 4 0 255
-48.861089928342807 -1.714095456572181 -22.034514214941694 0 5 0 255
-52.345364146573786 -6.032823439842304 -23.959822298849701 0 3 0 255
16.912983835302214 -30.627263622728037 12.688073818614697 189 153 129 255
15.463316849710992 -30.860119936143519 11.899642622070246 192 158 133 255
14.281722734857624 -30.829230169847875 11.257771979249029 201 165 143 255
12.905550454256996 -31.007152374269481 10.509433073986628 208 171 149 255
12.584891965366893 -30.101573548213224 10.338370831864466 211 176 153 255
12.198186157271238 -29.263571174621006 10.131171125659549 213 178 156 255
11.876762792069599 -28.356672009074941 9.959668289420847 214 179 159 255
10.117595927934332 -28.962685934989622 9.001677334710450 214 179 159 255
7.516260161244901 -30.475294544572193 7.582919281649978 217 182 162 255
4.988860797057328 -31.933733622608230 6.204511270631983 220 185 166 255
4.093369674161949 -31.669716763392927 5.718794460181471 222 185 166 255
3.459021765893510 -31.130164931974349 5.375918391256278 226 189 170 255
2.372893037912689 -31.081660789940685 4.785843842804979 224 187 168 255
1.031376136988229 -31.318470174841650 4.055998906672897 226 186 168 255
0.144467153570275 -31.069028380386897 3.574849590453212 223 183 165 255
-0.997565470429663 -31.105350944689775 2.954073147617066 220 181 161 255
-1.880053728658055 -30.863419200825376 2.475280231470919 218 180 159 255
-2.632596058934240 -30.482653065261616 2.067567921651943 217 178 157 255
-3.064385538159229 -29.747812612193627 1.835360890975934 216 175 155 255
-3.814770292346083 -29.370706844382113 1.428790821214989 215 172 153 255
-5.008962998397209 -29.498219564365172 0.779313333572787 213 170 151 255
-6.072947020358555 -29.487346310028300 0.201059713405073 214 171 152 255
-6.817509431033329 -29.120134353010542 -0.202402680880084 217 174 155 255
-7.307847144898915 -28.465616888659184 -0.466739095358761 219 176 159 255
-8.302411368105567 -28.392884302076936 -1.007076666543739 212 171 153 255
-9.923894699910932 -29.053109475710102 -1.890604077031924 211 173 154 255
-11.163420846184437 -29.283435012385212 -2.565103934264997 224 187 168 255
-12.524766733595669 -29.666415463232738 -3.306328472565383 226 191 172 255
-13.194108878609285 -29.247207382080774 -3.668768500370234 221 186 167 255
-14.299171046494280 -29.346385605193575 -4.269761120706377 216 181 162 255
-15.338965779367328 -29.376648729347494 -4.835053583474988 211 176 157 255
-16.376035230694413 -29.411548118076666 -5.398883201035119 204 169 152 255
-16.666256922268616 -28.557607263128574 -5.553829761817966 194 157 138 255
-17.266326173993008 -28.076293255895933 -5.878427377986753 198 161 142 255
-17.803784360516659 -27.521544328181960 -6.168751932526277 201 164 145 255
-18.648706868608315 -27.343479071936855 -6.627444456748904 203 166 147 255
-18.938383239480601 -26.490462291716511 -6.782104002948302 207 169 150 255
-19.412565593964729 -25.863409365807883 -7.037798643077693 205 168 149 255
-19.763985804929121 -25.085302149767841 -7.226266826755051 201 164 145 255
-20.237771723990818 -24.458924384434283 -7.481747507244194 205 168 149 255
-20.894080868786403 -24.061886024234980 -7.837195118767838 207 170 152 255
-21.549268379084907 -23.666757663936949 -8.192037737895149 215 178 160 255
-22.203335809864114 -23.273536970752900 -8.546275708546432 221 184 166 255
-22.856284763482563 -22.882221531852736 -8.899909399193021 219 188 167 255
-23.568538222007845 -22.569969482571651 -9.286036065907297 221 190 169 255
-24.399990066447032 -22.414839466927731 -9.737468333626794 220 189 168 255
-25.109221374849909 -22.107735869331691 -10.121961574977504 220 188 166 255
-25.637003081382630 -21.569469194327326 -10.407059803399321 221 186 164 255
-25.924634899822962 -20.719950008579019 -10.560591453314473 218 181 160 255
-26.451785802994635 -20.182763750261131 -10.845339639540967 212 173 150 255
-27.157243134193237 -19.882096884148353 -11.227781347688463 204 164 141 255
-27.980323412338379 -19.741235236460739 -11.674678239273234 193 152 130 255
-28.267237110223135 -18.892954526428781 -11.827798038883216 187 144 125 255
-28.613868196217595 -18.123037429288331 -12.013628319525353 178 135 116 255
-28.901623714601527 -17.273334193718654 -12.167184933252386 164 122 98 255
-29.425737375565205 -16.741345507546441 -12.450254780427912 153 111 86 255
-29.478606402320878 -15.571440310587263 -12.475062709114511 149 105 77 255
-29.943946145982153 -14.959499481064597 -12.725902581813884 153 108 80 255
-30.350418647770454 -14.267759740818008 -12.944471071765065 164 118 92 255
-31.282808883349333 -14.300892651717902 -13.451286831544962 177 130 104 255
-32.096180804110929 -14.176606567454257 -13.892878924591770 183 136 112 255
-32.965852907362660 -14.136502249834450 -14.365339738983550 185 139 114 255
-33.717304314841982 -13.937622169355905 -14.773004793542981 184 135 112 255
-34.351330021315903 -13.578613760299618 -15.116300998636916 178 128 104 255
-35.042059911413020 -13.303100535356009 -15.490681670835983 174 124 101 255
-35.385576665470694 -12.538568869012806 -15.674703186279473 166 118 96 255
-35.901887732235110 -12.019942511224144 -15.953445874351260 151 105 82 255
-36.761953958482508 -11.996237639214115 -16.420659689507175 118 71 51 255
-38.192401967034442 -12.801723739725020 -17.200634888557175 109 64 44 255
-40.303509686825208 -14.608700563910247 -18.353885421711766 145 100 81 255
-42.349707881239084 -16.346163517447735 -19.471612043848623 187 142 124 255
-44.445103581355824 -18.179896602061575 -20.616386651207804 202 155 137 255
-44.547312029729085 -17.106149950292775 -20.668114872365280 198 151 133 255
-44.877208145088787 -16.364878430811643 -20.844686085107924 199 152 134 255
-45.715499942096670 -16.378300311023509 -21.300080232072403 199 152 134 255
-47.734535343340156 -18.162037798011340 -22.403124611468769 200 153 135 255
-49.240184078265088 -19.199597760412814 -23.224627512323380 202 154 137 255
-50.348137897019569 -19.654068215921370 -23.828011537987877 204 158 140 255
-51.732328942405132 -20.538375660947281 -24.582955329301811 204 160 142 255
-52.721207973890017 -20.835539830392463 -25.121059252094938 201 157 140 255
-53.094889673399592 -20.199822934084636 -25.321651502171676 191 150 134 255
-53.024336521232698 -18.880238891206773 -25.278482092905918 170 130 115 255
-53.011334128264707 -17.642715602049691 -25.266842508038579 152 116 104 255
-50.513109096570247 -12.535243198638113 -23.891441285447684 118 93 76 255
-47.532436727903956 -6.628962326138947 -22.251100785346409 34 19 11 255
-47.545859512297682 -4.086955230624767 -22.248806268612256 0 4 0 255
-49.909269534194351 -6.544678916815855 -23.541053842741135 0 3 0 255
-49.587415628901283 -4.752963637440644 -23.359509079899553 0 3 0 255
-51.483370129811306 -1.348472845029221 -24.375170826845249 0 6 0 255
20.842109279870158 -28.347084187977515 13.749404651902182 185 159 128 255
18.453017644654949 -29.506804391245510 12.456399916268893 191 153 132 255
16.336746109380073 -30.410065546964915 11.311265097199879 191 159 136 255
15.086751769129251 -30.445168549142920 10.635792306018061 204 168 145 255
14.103976603761652 -30.214283496140837 10.105181960839104 209 174 150 255
13.584374276147514 -29.510336886349506 9.825696162676223 213 178 155 255
12.802250916016078 -29.080353687537524 9.403842804127237 214 179 157 255
12.087128400607156 -28.584200707773221 9.018300414599253 215 180 160 255
10.260481905045594 -29.259552322843462 8.029994398945703 216 181 161 255
8.178239901948388 -30.220652459539508 6.903043514359297 217 182 162 255
5.972368987270869 -31.331716774165130 5.709004536572323 219 184 165 255
4.749550177117499 -31.412991676959678 5.048025656732548 221 184 165 255
3.919522589159413 -31.081615467033885 4.600033180920462 225 188 169 255
2.961603593504861 -30.892951310311616 4.082663473477510 223 186 167 255
1.811938263091378 -30.918513582441221 3.461282798120891 224 184 166 255
0.729802389166451 -30.878808010069577 2.876501009016337 222 181 163 255
-0.478364243655022 -30.984981615148740 2.223343517344034 220 179 160 255
-1.426241477049189 -30.813379460439847 1.711330779327099 219 181 160 255
-1.858941776065819 -30.077039733431036 1.478713697742819 217 178 158 255
-2.291559815028648 -29.340834425333782 1.246132099955986 216 175 155 255
-3.234936830901944 -29.176873764623707 0.736512481153056 215 172 153 255
-4.430995315182969 -29.303624437497064 0.089820686516276 213 170 151 255
-5.623784345223640 -29.435934223581171 -0.555120723210464 213 170 151 255
-5.861455586246564 -28.490922331370314 -0.682012386923248 215 172 153 255
-6.289814873917464 -27.761940628479493 -0.912341632795020 218 175 156 255
-7.413196301405236 -27.832173154195431 -1.519683137321763 211 170 152 255
-9.101103373332421 -28.563334305266295 -2.433269724621127 215 177 158 255
-10.783623386845619 -29.303659896260854 -3.343964794706025 223 187 168 255
-11.707242769730243 -29.173290241734776 -3.843011785462735 216 181 162 255
-12.002059970135463 -28.311188857223897 -4.000963032743243 208 173 154 255
-12.860080979321850 -28.112266852704806 -4.464446639650888 206 171 152 255
-14.090540621411293 -28.360621453040977 -5.129989587618397 208 173 154 255
-15.255216270458874 -28.540743013075598 -5.759863969869059 202 167 148 255
-15.546818677178720 -27.684104358042958 -5.916099502696611 196 159 140 255
-15.900876631767204 -26.901359937717416 -6.106218842634334 197 160 140 255
-16.502587815748285 -26.417888152295490 -6.430700002602762 197 160 140 255
-17.473827781032355 -26.386646603228911 -6.955673287403570 201 165 145 255
-18.196214587128793 -26.058172936924677 -7.345641939139455 206 169 149 255
-18.609871928337242 -25.354182306646720 -7.568110987979821 206 169 149 255
-19.391472356028572 -25.105121437683806 -7.990217977421509 202 165 146 255
-19.865405501018330 -24.478736499116025 -8.245395690772668 204 167 148 255
-20.644360430867920 -24.234178954483639 -8.666078282479020 206 170 151 255
-20.934161619173096 -23.380603807277112 -8.821348132498969 213 176 158 255
-21.589263300831618 -22.986456951698358 -9.174832852956769 219 183 164 255
-22.000553684439609 -22.286499479558870 -9.396021224959711 218 186 166 255
-22.653948501108260 -21.895260908002456 -9.748582601357725 220 190 169 255
-23.487453177098729 -21.738061392032478 -10.198882807177426 218 188 167 255
-24.319050299750444 -21.584110718161696 -10.648153286791000 218 187 166 255
-24.667590152867263 -20.810768942030109 -10.835286789088059 219 184 162 255
-24.836307126507648 -19.802905017240903 -10.924827466715286 214 179 157 255
-25.365308277166235 -19.263008530298123 -11.209881998238814 208 172 148 255
-25.953478971889126 -18.802603665243311 -11.527045179384643 199 161 138 255
-26.540809429046817 -18.343632768441154 -11.843750201391913 189 150 127 255
-26.710921338017727 -17.333410496101777 -11.934016517123283 181 140 118 255
-27.000748827544896 -16.479826169116137 -12.089244644833087 174 132 110 255
-27.824030819331995 -16.340057411905946 -12.533995035408097 164 122 97 255
-28.586337079978222 -16.123879814196073 -12.945651436440301 148 105 78 255
-29.052249099582070 -15.511198564440349 -13.196432431409988 136 92 63 255
-29.459039741291434 -14.818953455086302 -13.415115396135988 141 97 68 255
-29.865797628372889 -14.126770391699409 -13.633770850351425 156 111 84 255
-30.858104859573615 -14.239931587802857 -14.170257315827982 173 128 103 255
-31.730890329254720 -14.196136489416801 -14.641868142077072 170 127 102 255
-32.659830583231383 -14.236966671757529 -15.143961645698468 162 118 93 255
-33.295561529327387 -13.875875203416712 -15.486888957127618 161 115 91 255
-33.872185519159785 -13.435197205307475 -15.797723052689165 159 113 89 255
-34.505896564460272 -13.077558978350339 -16.139539492825477 159 112 89 255
-35.254066692438471 -12.885507444855449 -16.543486230626371 160 112 90 255
-36.000639255385920 -12.696183159636178 -16.946560590149005 161 113 91 255
-37.378133179454125 -13.415171489516752 -17.692161778907604 186 139 119 255
-39.324824375709142 -14.967331194076763 -18.746802764646191 197 150 130 255
-41.436092763340270 -16.779967801350040 -19.890823805649219 194 149 130 255
-43.311015467879542 -18.274095994266190 -20.906551488441977 195 150 131 255
-45.008153145832779 -19.530240032368965 -21.825772663800393 199 152 134 255
-45.562395645615794 -19.127728915000944 -22.124449631823794 197 150 132 255
-46.115852712558194 -18.726564949003091 -22.422687782299064 199 152 134 255
-47.121144587460861 -18.997935320918401 -22.966260647523583 203 156 138 255
-48.744440303467485 -20.199598151117868 -23.845419583841533 209 162 144 255
-49.855123869983004 -20.651996319765374 -24.446231154245979 209 162 144 255
-50.850030652854485 -20.941069994733709 -24.984172908685125 208 161 143 255
-51.898102704515054 -21.319859385165159 -25.550985355722972 209 162 144 255
-52.663445764468491 -21.278899464519839 -25.964254737462085 207 160 142 255
-53.092259407570339 -20.729567707090894 -26.194749554544444 197 150 132 255
-53.687798261977576 -20.437060424616419 -26.515774596242949 189 142 125 255
-54.115753546542948 -19.889215569269936 -26.745766817697728 179 133 118 255
-53.934210631935770 -18.396634503419648 -26.644697556741818 143 107 89 255
-50.661002931131435 -12.075319803755121 -24.864340140940541 113 89 69 255
-49.224380536261208 -8.574508163214148 -24.081418334438922 11 2 0 255
-52.683756222983845 -10.255994419068486 -25.952544577683270 0 3 0 255
18.866609216096066 -29.529076121244827 11.608624775437718 193 155 134 255
16.349085272110926 -30.836747502009985 10.255623359583467 194 162 139 255
15.098421504250439 -30.873122059040810 9.583575855087560 204 167 146 255
14.512081136296473 -30.236228898339988 9.268605644609650 209 174 150 255
14.520094881466605 -28.987376352238044 9.273104333529005 213 178 153 255
13.999625625552369 -28.282185213394200 8.993514786712552 215 180 158 255
12.822462803004242 -28.263226133680405 8.360918945631255 215 180 160 255
11.123745074907163 -28.799716789852994 7.447957126471579 215 180 160 255
8.252287561126820 -30.587270826659335 5.904595902731245 216 181 161 255
7.153999867752987 -30.522133831235777 5.314357031182141 216 181 162 255
6.188802062425481 -30.322721194719833 4.795646302577182 220 183 164 255
4.900624212501612 -30.475553365190819 4.103311318544812 224 187 168 255
3.810706928036467 -30.424637935350006 3.517536807759768 221 184 165 255
2.529216501729280 -30.588835906143061 2.828774334137506 221 181 163 255
1.509826348934922 -30.477549601594205 2.280889514529207 221 180 162 255
0.299393657564593 -30.582280153629540 1.630302784584131 220 179 160 255
-0.585896778945170 -30.338432309281956 1.154482147263622 218 180 159 255
-1.083799420688564 -29.671556371739428 0.886887492345522 217 178 158 255
-1.453138352613138 -28.862705294519060 0.688392195593451 216 175 155 255
-2.526384064128962 -28.840118052222266 0.111513722381900 215 172 153 255
-3.596890341995987 -28.822187642913377 -0.463899816004854 213 170 151 255
-4.792076436155156 -28.952831727787157 -1.106340439399702 211 169 147 255
-5.284654437944852 -28.294992843132832 -1.371110368653348 214 171 152 255
-5.903773480267660 -27.782561803101430 -1.703906938472585 216 173 154 255
-6.585326664493806 -27.344256223945564 -2.070269948768384 211 170 151 255
-8.845188563130904 -28.729473054694353 -3.285036617074368 215 177 158 255
-10.592911555170105 -29.543206763593844 -4.224514810879157 217 180 161 255
-11.517120005191373 -29.413458755509225 -4.721328469519449 210 175 155 255
-11.497430325981554 -28.184339225911430 -4.710766858228681 201 166 146 255
-11.667463770663261 -27.173485533228131 -4.802192052835636 199 164 144 255
-12.776202737750197 -27.270835067072738 -5.398208410307134 198 163 143 255
-14.006714017473257 -27.521709702496082 -6.059684373475093 199 164 144 255
-14.611209986093314 -27.034139376029032 -6.384657085197333 199 164 142 255
-14.780019738715197 -26.025361319091473 -6.475435043685309 196 161 139 255
-15.383709000727890 -25.539161504567375 -6.799977664243841 193 158 136 255
-16.543199536311278 -25.730514593860704 -7.423283919633008 196 161 139 255
-17.576002023853391 -25.776705627794456 -7.978491378183037 202 167 145 255
-18.298152267776828 -25.449666459915079 -8.366712590495126 204 169 147 255
-18.834547624370487 -24.897606276037124 -8.655083917672385 201 166 146 255
-19.554313763427501 -24.574624730551534 -9.042022639259883 202 167 147 255
-20.027932706485444 -23.949018835033371 -9.296647770262908 202 167 147 255
-20.379109146277784 -23.171027403795165 -9.485454447498668 206 171 152 255
-20.669563530024874 -22.315994449709052 -9.641619097577205 213 178 159 255
-21.142864515896804 -21.690933291287479 -9.896067551083789 212 182 162 255
-21.737162227938228 -21.220720738631599 -10.215552906297248 214 186 165 255
-22.391136397998451 -20.829332340364488 -10.567112993050955 213 185 163 255
-23.225183191445609 -20.672637183802919 -11.015464228699855 213 181 160 255
-23.575216516908483 -19.896602654200308 -11.203638117148017 212 177 155 255
-23.684937002028363 -18.808017529184099 -11.262631378890305 207 172 150 255
-23.795928765427306 -17.717272315522706 -11.322302913327078 200 164 140 255
-24.147660097038084 -16.938358053262419 -11.511374224365909 187 151 127 255
-25.037218590133676 -16.867588472513290 -11.989539070828130 181 144 118 255
-25.328593121964616 -16.011017927925309 -12.146154023906689 173 133 108 255
-26.036743424966460 -15.707838827446295 -12.526792542162951 161 121 96 255
-26.743530197216387 -15.406984768139722 -12.906690689512061 142 98 72 255
-27.685778937368724 -15.426943910909813 -13.413149535636450 125 81 54 255
-28.389316783605977 -15.131628807535492 -13.791285133348381 126 82 53 255
-28.914673234709795 -14.598410239720749 -14.073633514367572 153 109 80 255
-29.733515229839469 -14.467640368733782 -14.513730977186398 154 110 84 255
-30.785186161898508 -14.662165211996580 -15.078972380358437 157 114 89 255
-31.716831899396340 -14.700196358174423 -15.579686304798358 161 121 96 255
-32.587660750283277 -14.661352760540353 -16.047698738542962 161 120 96 255
-33.164947228436432 -14.220170292315061 -16.357910941178929 156 114 90 255
-33.625122057079125 -13.617537393608671 -16.605159868602371 160 115 92 255
-34.026997132854206 -12.933747616170706 -16.821058380306155 177 132 109 255
