ply
format ascii 1.0
element vertex 649
property float x
property float y
property float z
property uchar red
property uchar green
property uchar blue
property uchar alpha
end_header
-33.725167058638064 -14.938132419770483 -17.161884221618237 176 128 107 255
-33.885711337960089 -14.506570946351843 -17.751629627111697 168 121 101 255
-34.046326068884284 -14.078173717743098 -18.341311638643020 161 116 95 255
-34.234575324754061 -13.690833179528937 -19.027751487474660 150 103 83 255
-34.340204621080318 -13.192681913548498 -19.423666450408604 142 95 77 255
-34.473466113165159 -12.735035274191915 -19.916345869114565 141 95 77 255
-34.551659194490114 -12.202570724510167 -20.215346417849219 144 99 80 255
-34.629915286597125 -11.671618968271304 -20.514303582216627 145 99 83 255
-34.680662571013556 -11.102923099793813 -20.716413375461883 143 98 79 255
-34.759045630085524 -10.574707809921051 -21.015286271868263 123 80 61 255
-34.892647185771779 -10.127571356256553 -21.507707839073475 108 70 49 255
-34.916010060489555 -9.522753458577455 -21.612898402265358 81 47 27 255
-34.939433543082743 -8.918333481690709 -21.718057921023615 65 34 16 255
-34.962918702433342 -8.314304544669085 -21.823185988328788 62 32 18 255
-34.931300040692747 -7.628907510468594 -21.734717179653956 51 26 16 255
-35.010078349088175 -7.107391740398299 -22.033346135942082 29 13 2 255
-35.337207626324115 -6.960095508488678 -23.202908428004321 11 4 0 255
-35.912732520154464 -7.194335781503199 -25.243310193047847 8 6 0 255
-36.102130500176628 -6.852332056865649 -25.928779633074271 7 5 0 255
-36.153657700131546 -6.302773592481259 -26.130348264088582 9 6 0 255
-36.674335802231454 -6.476666714855710 -27.976826085483424 8 6 0 255
-37.250326377818432 -6.746223433671190 -30.016663261891210 7 1 0 255
-37.550486985668471 -6.596505601056720 -31.088780335910968 29 17 10 255
-37.740357569707896 -6.279271296687071 -31.773788705076214 167 145 123 255
-37.902717597153270 -5.922025504303846 -32.361973400392259 176 148 127 255
-38.313565081813628 -5.962573819493983 -33.820792297103623 167 132 113 255
-38.310500770964580 -5.349019946313263 -33.828360040461746 169 132 114 255
-38.252301761652056 -4.646403121511824 -33.642422450512868 171 133 115 255
-38.332190490808905 -4.165836452241649 -33.940142424660593 155 120 101 255
-38.577792698456236 -3.956348826582783 -34.818201137997590 149 118 98 255
-38.547425200818658 -3.299249240860391 -34.728888472413388 141 114 93 255
-38.351483754743036 -2.368339961605443 -34.059202457243117 125 102 80 255
-38.045166753122963 -1.250240751727375 -33.002644721726568 100 83 59 255
-32.147747072790949 -16.934175531844730 -13.903233846442816 172 163 128 255
-32.309432014686237 -16.485124634021304 -14.492647453956351 189 146 126 255
-32.554580993097943 -16.148085716127625 -15.372197468055191 186 137 120 255
-32.577397191838401 -15.523504410367636 -15.477831529319019 179 130 113 255
-32.906098611393105 -15.304356312087563 -16.647419113777772 176 127 110 255
-32.984642945112256 -14.757867925513864 -16.946404800165311 166 117 100 255
-33.118859040869410 -14.287637496117398 -17.438785792836057 157 108 91 255
-33.086284242649043 -13.594279932815766 -17.350823745417557 150 101 84 255
-33.331866168765572 -13.279252518250487 -18.229958245360052 146 99 79 255
-33.494090957196761 -12.854503371335127 -18.818885528433412 141 94 74 255
-33.767648383310657 -12.586649318905145 -19.794564015263063 140 94 74 255
-33.874390969771511 -12.091859205594957 -20.189948637099519 151 106 85 255
-33.981199306644143 -11.599124034815432 -20.585283173311012 150 105 86 255
-34.115895022068898 -11.147686335345398 -21.077260376571076 141 96 77 255
-34.167193983271019 -10.580275387372438 -21.279111213504109 122 78 59 255
-34.246378403836090 -10.053608250181711 -21.577611169296318 99 59 39 255
-34.242149861031521 -9.408247740702393 -21.586019479388312 77 40 21 255
-34.182321431931200 -8.682081190707379 -21.401046406667319 69 34 16 255
-34.178202506848720 -8.035886289849060 -21.409414276542634 68 35 20 255
-34.118479133529860 -7.307787064153118 -21.224413898492543 61 34 22 255
-34.197973646984153 -6.784162540308813 -21.522744843961334 37 19 6 255
-34.500216195792362 -6.593319576622605 -22.594349342441376 17 7 0 255
-35.136591996625143 -6.908508878616345 -24.825789840557832 13 9 0 255
-35.689590183206064 -7.110116858546462 -26.767071262248379 12 10 0 255
-36.409751310206403 -7.575766621048899 -29.288116299492174 11 8 0 255
-36.628917851644900 -7.290312856223238 -30.069235503363643 12 7 0 255
-36.987385551877011 -7.222864168077891 -31.333512145007518 12 4 1 255
-37.011828474974699 -6.645734531028381 -31.437941301806831 176 158 137 255
-37.008494600136842 -6.025614645117130 -31.445695598170090 187 156 135 255
-37.228003117332989 -5.753973234648811 -32.226522721306310 184 148 126 255
-37.531147131316985 -5.618029058636552 -33.297170405432666 183 143 123 255
-37.945789126801898 -5.664356809553894 -34.754239077151652 180 136 118 255
-37.998477482034218 -5.141346903565903 -34.955021659239236 178 134 116 255
-38.134798642339355 -4.753200198740402 -35.445634432432712 170 129 110 255
-38.271204167518015 -4.367513873620311 -35.936184722654303 160 123 103 255
-38.379839861874238 -3.939059711531442 -36.330054798074258 152 121 99 255
-38.321422302781215 -3.239542975139059 -36.144183315921879 137 109 87 255
-38.123788329476341 -2.309813226513469 -35.475240003799229 121 94 73 255
-37.870497417810824 -1.283886060194135 -34.613096314349264 108 86 62 255
-30.976407988277103 -16.224559719393994 -12.242778751168146 174 150 119 255
-31.448046282615479 -16.166149312834747 -13.894481594254131 185 143 123 255
-31.723462710194894 -15.862976267009884 -14.869688219118132 171 122 105 255
-31.746515720495964 -15.236277029805009 -14.975238103286102 160 111 94 255
-32.050130182809184 -14.978176777194307 -16.046910727871932 157 108 91 255
-32.185510836792218 -14.503462237431208 -16.538817817241721 151 102 85 255
-32.349010967588910 -14.068730910833665 -17.127277374889815 146 97 80 255
-32.288120055671470 -13.336180893539677 -16.942842538527003 141 92 75 255
-32.479802140566107 -12.943505857817200 -17.627805754873918 138 90 70 255
-32.615435693459531 -12.478198414339971 -18.119505005214620 141 94 74 255
-32.947579140646383 -12.284540039023440 -19.287300299962908 150 103 83 255
-33.111426160407518 -11.865041658506939 -19.875451227650046 156 111 90 255
-33.359546480220629 -11.565607917375488 -20.753296353792479 149 104 83 255
-33.495475513036482 -11.113945482737762 -21.244725945338416 140 93 75 255
-33.603403878777442 -10.625351486860225 -21.639519251861969 119 74 55 255
-33.514892146464248 -9.860282125146099 -21.358234176662052 95 54 34 255
-33.454497734077336 -9.133511786578637 -21.173519554362827 77 40 21 255
-33.422227207623592 -8.445845542161081 -21.085364320204945 73 38 19 255
-33.530397918789205 -7.960489358579494 -21.480016849113923 74 41 25 255
-33.498242298490936 -7.272789056313030 -21.391810727478997 65 37 24 255
-33.522303757532356 -6.666667786073418 -21.496702995785483 42 23 9 255
-33.546427884035992 -6.060917991087422 -21.601563568675601 25 14 2 255
-34.328894830182492 -6.581014141670664 -24.313266531763702 13 11 0 255
-35.223857416467894 -7.283938847323682 -27.410940043207916 8 9 0 255
-35.725756754964337 -7.412858910960466 -29.156751208587053 7 10 0 255
-35.946882744509693 -7.126368523271921 -29.937007256420827 11 2 0 255
-36.055733310984053 -6.672939420178253 -30.331033963937557 23 2 0 255
-36.192751818692884 -6.264515078357618 -30.821540776207598 131 101 75 255
-36.217475210237154 -5.685336626466395 -30.925865592585239 186 148 123 255
-36.495123091615454 -5.498743833537077 -31.898898972604201 185 148 122 255
-36.969541651153847 -5.624356112545840 -33.547502204700862 191 149 127 255
-37.528368630445414 -5.891363982081501 -35.485523788489473 185 143 121 255
-37.693928671838080 -5.547391689977445 -36.072147573128831 180 137 118 255
-37.775271753373303 -5.072412352393286 -36.369162640065383 175 132 113 255
-37.940997974832911 -4.733643672508123 -36.955659736617605 169 128 108 255
-38.134913297102443 -4.443093640228980 -37.638595019405528 163 125 104 255
-38.244604594153387 -4.019609650768160 -38.031944210901202 154 119 97 255
-38.157639424533755 -3.277676154105180 -37.749735743984530 136 106 83 255
-37.930207560702442 -2.303628771203464 -36.985032106315373 119 93 68 255
-37.562293559138453 -1.093362183383320 -35.737881678025104 107 87 60 255
-28.142026943503737 -15.481976483272774 -4.863997775348793 161 135 107 255
-28.249770687467162 -14.931117353076900 -5.259502741944829 154 125 97 255
-29.681953285872709 -15.372118369247644 -10.200683768551954 140 98 74 255
-30.242647697048241 -15.415229006675702 -12.140135787101457 150 102 84 255
-30.661986537157944 -15.287751713159253 -13.596867072990534 143 94 77 255
-30.656963770681642 -14.620232187837416 -13.605853465651080 145 96 79 255
-30.906678770753729 -14.283940860895171 -14.483360130625812 145 96 79 255
-31.099869232052981 -13.878287907820138 -15.167782001116990 139 90 73 255
-31.236523836752824 -13.401646197597842 -15.659140569492081 131 82 65 255
-31.316631474078349 -12.852388195125258 -15.957457239887134 134 85 68 255
-31.481718580482564 -12.418342365105531 -16.545202304648143 139 91 71 255
-31.788422161718501 -12.178260191328917 -17.615315506031976 146 98 78 255
-32.151837632271338 -12.020896583246326 -18.878294965009530 149 101 81 255
-32.345471233559849 -11.638247885397050 -19.562286742797937 151 103 83 255
-32.482549850274637 -11.181332354625880 -20.053256879979273 150 102 82 255
-32.619696832571265 -10.727008533424765 -20.544170340168080 131 82 65 255
-32.671956759129046 -10.156726871716387 -20.745621739697526 111 65 47 255
-32.639314146961553 -9.468044988646739 -20.657642668142671 93 50 31 255
-32.606720829055021 -8.778687513688737 -20.569648446943489 83 43 25 255
-32.630826082347184 -8.169300994253661 -20.674554192798098 79 42 24 255
-32.711641473040316 -7.641503477413664 -20.972338394415033 77 41 25 255
-32.764195752596436 -7.074307577704232 -21.173627365236825 68 39 25 255
-32.816813938931176 -6.508033221922020 -21.374878528262485 52 33 18 255
-33.039482183752426 -6.191138232110063 -22.154754265410929 28 18 4 255
-33.743888510414365 -6.586998193277850 -24.574035226715978 14 11 0 255
-34.703442781679627 -7.373814978370319 -27.861049872186470 9 8 0 255
-34.954773002723670 -7.123278214327613 -28.736969614867945 11 10 0 255
-34.951156771535750 -6.494968224166811 -28.744932583313670 49 37 21 255
-34.919263452686181 -5.823688724138108 -28.656443539394019 113 86 65 255
-35.114152444431198 -5.495968321879815 -29.339320404503695 132 94 71 255
-35.337467914302877 -5.215144045580288 -30.118542986898404 174 129 106 255
-35.844303966567793 -5.374267521052076 -31.861847802615586 174 132 108 255
-36.407946387846721 -5.630654340772324 -33.797829740067726 183 141 118 255
-37.000057034493651 -5.941807356935811 -35.830059234727287 180 138 115 255
-37.195427883031329 -5.642564246157818 -36.512433426234168 182 140 118 255
-37.277489738999300 -5.168197498576049 -36.809121830782146 178 135 115 255
-37.529728130671984 -4.964862893190002 -37.684159563152804 174 131 111 255
-37.867112789869978 -4.901810580634589 -38.848297925263040 169 129 109 255
-38.034481885546981 -4.572096428912587 -39.433971016111656 160 124 102 255
-37.975106015735264 -3.879286371076006 -39.248459015740792 145 113 90 255
-37.688957463777953 -2.816826044525612 -38.291840530069237 131 101 77 255
-37.459571288614583 -1.841219113833887 -37.528023998978398 116 96 69 255
-27.722983525965432 -17.800390462244650 -5.793854903080785 195 162 135 255
-28.002790682019281 -17.454538109766034 -6.767535272103487 191 153 131 255
-28.140018778532919 -16.940839341504571 -7.259012699521975 184 144 124 255
-28.419968767373760 -16.604401385740957 -8.232534229481132 172 130 111 255
-28.386107910861000 -15.886286443049386 -8.145395815525660 163 122 100 255
-28.409354136858283 -15.238511660252357 -8.251072574299712 156 115 93 255
-28.832194872744481 -15.091415314432851 -9.706440815016379 145 101 80 255
-29.226594410941544 -14.916383747253519 -11.065278253830627 133 86 68 255
-29.535459741572595 -14.640066997905052 -12.134793865208280 126 77 60 255
-29.558953535303147 -14.004265512296413 -12.240239224007695 108 59 42 255
-29.611039948359135 -13.405752209763889 -12.442053337201685 97 48 31 255
-29.634626669792397 -12.771176028226947 -12.547444878764793 81 32 15 255
-29.772466799590347 -12.286462126189377 -13.038356462162568 78 29 12 255
-29.996031287024408 -11.917229926261911 -13.818361601855912 84 35 18 255
-30.448116039462334 -11.855352647064095 -15.369323705291748 115 67 47 255
-30.928865699072446 -11.840198221408997 -17.016526972098859 131 83 63 255
-31.381167404898662 -11.795713571543260 -18.567216549254198 164 116 96 255
-31.605086827089295 -11.450179665989026 -19.346823908163515 181 133 113 255
-31.771957929266847 -11.030925180882008 -19.933624062279591 157 109 89 255
-31.796075304533048 -10.418596390706242 -20.038554142483008 134 85 68 255
-31.791679381235042 -9.767176864635715 -20.047098321884675 109 61 44 255
-31.730197137065147 -9.036065014739179 -19.862912598878012 92 47 28 255
-31.783041181027102 -8.463951405651969 -20.064122081975256 88 45 28 255
-31.921661706372220 -8.013753853655530 -20.554336846354062 86 47 30 255
-32.031779789645483 -7.525522103492989 -20.948150190527315 85 49 33 255
-32.170542195920731 -7.080169589180997 -21.438252725053786 77 48 34 255
-32.223645654630189 -6.513953808859981 -21.639286933929156 57 37 22 255
-32.476865416587543 -6.238511822760074 -22.514615941171826 20 10 0 255
-32.930236961045395 -6.259530433807413 -24.064166448718794 11 7 0 255
-34.098274693970012 -7.337811418609988 -28.021738357901938 10 8 0 255
-34.323236847197322 -7.044824723478371 -28.800349686659530 13 10 0 255
-34.148088295111563 -6.161079571106100 -28.230410167085807 59 48 32 255
-33.915807803044885 -5.188346244948207 -27.467855042553907 155 129 107 255
-34.255333606762989 -5.071785667754554 -28.631579595384579 158 117 95 255
-34.594958142235228 -4.961526431785828 -29.795196437131011 168 123 100 255
-35.192004087140020 -5.249781578315847 -31.825456934711099 156 111 88 255
-35.560432137798330 -5.198409154767631 -33.085130193196733 146 104 80 255
-36.300686831994270 -5.727475057625114 -35.596575393344693 183 141 117 255
-36.554953435232321 -5.515717118831020 -36.470793972220122 184 142 118 255
-36.723519484353517 -5.174603731498408 -37.056048610794846 181 139 117 255
-37.063757915166050 -5.106139506178692 -38.218969299711176 177 135 113 255
-37.518493316202196 -5.224796327641087 -39.766924843519746 173 131 112 255
-37.687329242998814 -4.897050185196619 -40.351924045742010 164 127 106 255
-37.598830590488447 -4.160476306731340 -40.070345120581038 156 121 99 255
-37.395981875279944 -3.237855122738324 -39.403654987930139 140 109 86 255
-37.422023379851431 -2.681541825071520 -39.507161004691341 124 99 74 255
-37.190689989772579 -1.706278398594222 -38.744209181084017 114 93 66 255
-26.410055256864069 -18.378973502031144 -3.745532403844095 115 113 71 255
-27.210111638409288 -18.630282355544750 -6.452109762495439 192 160 133 255
-27.492371014601133 -18.282836910029999 -7.424712894132483 197 155 135 255
-27.803482194065779 -17.975156383627549 -8.493544187557944 192 149 132 255
-27.999556133265273 -17.534824813528317 -9.177030953458228 183 141 123 255
-28.051786683841968 -16.923681522245502 -9.378908459599927 172 131 111 255
-28.075276723899691 -16.278407766389662 -9.484451233019456 166 123 102 255
-28.041235391758690 -15.562733225921647 -9.397368619013463 159 112 92 255
-28.208739456307143 -15.096555223991075 -9.984360842088506 147 99 79 255
-28.405095334607068 -14.669571769325856 -10.667586987316213 135 86 69 255
-28.572726520226638 -14.210057762450234 -11.254455176205170 121 72 55 255
-28.510071637164486 -13.461449315217294 -11.070969129434104 105 56 39 255
-28.476244643669617 -12.748506342204251 -10.983763341704758 94 45 28 255
-28.528848069586573 -12.146185462818693 -11.185385426183444 85 36 19 255
-28.581501702760846 -11.544874557576748 -11.386974917084842 79 30 13 255
-28.807016389286048 -11.170266995810081 -12.166164878305040 81 32 15 255
-29.291838807148565 -11.140883913976225 -13.811696093437376 137 89 69 255
-30.064827033783018 -11.502177768867170 -16.419736440075752 174 123 104 255
-30.665119507828535 -11.647413347509982 -18.449995020818903 180 129 110 255
-30.948635197113333 -11.378227951629270 -19.421247002592992 170 118 100 255
-31.030557006175655 -10.841565641622211 -19.718627500745782 149 97 78 255
-30.997285650357981 -10.149457250633020 -19.630963392411701 124 73 56 255
-30.992874323597931 -9.496198684738019 -19.639533027659382 102 53 36 255
-31.017329537444155 -8.882595000916467 -19.744325366151656 95 49 31 255
-31.128294580461016 -8.389554022151358 -20.137809696673315 94 50 34 255
-31.239325668621461 -7.898539726588282 -20.531244095792971 95 55 38 255
-31.321601629599499 -7.368952817878068 -20.828395178171519 91 54 38 255
-31.432765433535636 -6.881701718464868 -21.221732368506139 44 15 3 255
-31.572823019291391 -6.437592594336465 -21.711244870586910 47 27 12 255
-31.885915411229604 -6.244460979175173 -22.778035022816738 25 12 0 255
-32.026128676464893 -5.807057405790900 -23.267410337719951 13 7 0 255
-33.175476967363693 -6.840367683469026 -27.124275742465358 7 6 0 255
-33.950196857170781 -7.346338421280038 -29.730081692593643 5 3 0 255
-33.514053497704765 -6.082158041031789 -28.294909006627705 7 1 0 255
-33.193262740486546 -4.980684045132733 -27.244636457325356 159 135 113 255
-33.622249716320042 -4.991903946392867 -28.695664171512419 168 127 107 255
-34.080181437222734 -5.054360271951495 -30.242762660438927 156 114 92 255
-34.538222642443856 -5.125287275231187 -31.789726717595414 146 104 82 255
-34.707963227464489 -4.766193087557539 -32.374639422114456 114 72 48 255
-35.396947736038925 -5.204297964618362 -34.690875453541310 174 132 108 255
-35.941844488343463 -5.433250817782451 -36.525998703043086 184 142 119 255
-36.400322407330350 -5.538298885986435 -38.072423169464258 183 141 119 255
-36.541597092793594 -5.157492438384779 -38.560753186968839 181 139 117 255
-36.971428672230836 -5.231240821350269 -40.010772321763142 181 136 117 255
-37.026327709947068 -4.721624970696965 -40.210433875048750 170 130 110 255
-37.023598756339069 -4.121310867296913 -40.217718275985163 164 126 105 255
-36.818977966016419 -3.198516785336793 -39.551819983044140 153 118 96 255
-37.104905899183173 -3.058710498891188 -40.520688748937971 136 107 83 255
-37.217804859132173 -2.644617579619265 -40.912512861099998 124 100 74 255
-36.897960590545523 -1.529697392155242 -39.861954220638069 114 92 66 255
-26.467016596213853 -19.189447814454255 -6.339796680870251 193 170 139 255
-26.809756574466434 -18.905904774836401 -7.503775947468597 205 163 145 255
-27.123555224950167 -18.594736357126791 -8.571444266932787 200 154 137 255
-27.234255411547579 -18.048894271652273 -8.965580372999597 191 149 128 255
-27.403059114717536 -17.574482423306279 -9.552076366705791 185 140 118 255
-27.513862036879686 -17.033466818715581 -9.946117883719495 175 129 106 255
-27.682778483405144 -16.564951872037497 -10.532504007045304 167 119 97 255
-27.822720898257217 -16.064195263079867 -11.022640423618185 156 108 87 255
-27.904648113913154 -15.494658659167769 -11.320350788292757 146 98 77 255
-27.899510832139455 -14.818722941109925 -11.329473305113396 133 86 66 255
-27.865371112294127 -14.106477384199408 -11.242399899488390 119 71 52 255
-27.831265672135359 -13.393639060299066 -11.155317201419535 109 60 42 255
-27.884326975046463 -12.790612773917701 -11.356742268127334 97 47 29 255
-27.937436585517943 -12.188603398796815 -11.558135518134236 90 40 22 255
-28.048690953979801 -11.662293245846925 -11.951827119216915 77 28 10 255
-28.247152462261269 -11.250912599404458 -12.633956749058257 82 34 14 255
-28.619994393598461 -11.070542823267573 -13.892965889209165 151 100 81 255
-29.283466379186336 -11.278665412729353 -16.113407540265513 179 128 109 255
-29.830848860904680 -11.345430820695057 -17.949061820250563 177 124 106 255
-30.087774622150661 -11.035414243326471 -18.823087944520211 167 114 96 255
-30.228543098381280 -10.574295416418693 -19.312455416742694 146 93 75 255
-30.282193700813480 -9.998059469008808 -19.513346956633001 122 71 53 255
-30.394025334194652 -9.501803008627789 -19.906477412247256 111 62 45 255
-30.389661312576578 -8.848474095919940 -19.915026667195690 103 56 38 255
-30.443480102221599 -8.275111609619032 -20.115814176112821 98 52 36 255
-30.555493318380400 -7.783333062377650 -20.508818411240213 95 53 37 255
-30.638502219124575 -7.252985131192304 -20.805650399311702 97 58 43 255
-30.750645917381632 -6.764971423049531 -21.198558404948699 71 39 24 255
-30.891930345953241 -6.320098021273651 -21.687531635478592 25 5 0 255
-31.207736981784805 -6.126187911850820 -22.753119491628865 22 9 0 255
-31.174714069170705 -5.437974973715271 -22.665305239837437 11 5 0 255
-31.781469491131446 -5.671841286275978 -24.691786434249508 6 4 0 255
-32.795470192457969 -6.507946305281919 -28.063521440337439 6 3 0 255
-32.849946433974793 -5.960741106172705 -28.263751434806608 7 2 0 255
-32.729988000927946 -5.157864678619276 -27.887375362075034 164 139 121 255
-33.133601011196760 -5.127167346288587 -29.240646050620427 159 116 98 255
-33.391885404783267 -4.887345572998655 -30.113356924781158 155 110 89 255
-33.824783483080154 -4.913637253920768 -31.562488508361724 142 97 76 255
-33.879628079438490 -4.377853239011728 -31.762438829559898 117 75 53 255
-34.661804910330602 -4.945869332279500 -34.364292926362452 120 78 56 255
-35.298660817955380 -5.306378183951310 -36.485567432766487 188 146 124 255
-35.935640704030973 -5.678609004204830 -38.606668182651106 185 143 123 255
-36.078134244215306 -5.298677621254669 -39.094445920492404 184 141 121 255
-36.482569335580038 -5.328066580649136 -40.446742755910975 188 142 123 255
-36.537938520244694 -4.819064332981668 -40.646188488880370 182 138 119 255
-36.564280254098058 -4.265122826387866 -40.749536673416316 173 133 113 255
-36.532491993231432 -3.619391412070243 -40.660742561252960 159 121 100 255
-36.849980703167347 -3.528386046482623 -41.724540342631826 145 113 90 255
-37.109359922948229 -3.349941332448751 -42.596142711907532 135 107 83 255
-37.077797084692094 -2.707666829891224 -42.507213152736341 121 97 71 255
-36.580633576118004 -1.310658742456681 -40.881601555478255 111 93 65 255
-25.341464169110864 -19.317977578984042 -4.978937317479932 203 181 149 255
-26.243182253126150 -19.664250392751214 -7.967709838411395 205 174 148 255
-26.559680671046380 -19.350666785757753 -9.034198859129276 205 165 145 255
-26.729899348538154 -18.872519828962211 -9.620101729217623 197 156 136 255
-26.783080277255095 -18.260123816437897 -9.821568164472950 191 149 127 255
-26.924127092254906 -17.752715042331147 -10.311279413271166 183 138 115 255
-27.006671719153573 -17.178167315229317 -10.608765150756994 174 128 105 255
-27.147821026442429 -16.675577017193916 -11.098381999876977 165 117 95 255
-27.259743084156341 -16.140207834623041 -11.491867471201516 158 110 88 255
-27.342432453143061 -15.571244241119103 -11.789232232752028 147 99 77 255
-27.220168677739196 -14.751925264742937 -11.414050206255268 134 83 62 255
-27.156500831831153 -14.002921522736699 -11.231019791531480 124 76 56 255
-27.180732072229574 -13.362379424865026 -11.336184270313765 110 60 41 255
-27.234297679765106 -12.759122045575310 -11.537386825033479 102 51 32 255
-27.317204544877796 -12.193954262226100 -11.834616248237722 96 45 26 255
-27.488051192609376 -11.742364838579533 -12.419970702982909 90 42 22 255
-27.805451689565132 -11.482004916950686 -13.485519566758313 116 67 47 255
-28.210836273572852 -11.341158626760986 -14.839113717843276 170 119 98 255
-28.645619293006305 -11.245948264616871 -16.288632969677622 180 128 107 255
-29.139110283075780 -11.235603456299941 -17.930106811528930 178 126 105 255
-29.339655140101030 -10.847417821710366 -18.611073121994195 167 115 94 255
-29.481656572136515 -10.384986115247060 -19.099904142143089 144 93 72 255
-29.623722441453296 -9.925148942614143 -19.588680208213759 121 73 53 255
-29.824475460643143 -9.546910838036524 -20.269453163405899 114 66 47 255
-29.820111832138849 -8.893906614146772 -20.277998961287949 106 59 41 255
-29.903740614070074 -8.360911839133834 -20.574581323963258 103 58 39 255
-29.899480480873308 -7.708452420242281 -20.583075471115905 98 55 38 255
-30.012543353670736 -7.218201143405182 -20.975596272561319 99 58 40 255
-30.008392191012220 -6.566529656438917 -20.984033870407842 87 53 36 255
-30.209544320123115 -6.202608608314890 -21.664484169917500 48 20 6 255
-30.264157318790595 -5.635311373704369 -21.864856270598921 26 5 0 255
-30.436130837152788 -5.235612971906704 -22.449183813392466 14 0 0 255
-30.813464954955606 -5.132588863064356 -23.705408308921221 10 1 0 255
-31.542834805099005 -5.542999323286423 -26.113412038609852 10 4 0 255
-32.096362641749181 -5.711866760865860 -27.945294372139045 9 4 0 255
-32.180706651338113 -5.206735653448732 -28.241276213377802 145 125 106 255
-32.470447570626277 -5.004225227985685 -29.209078715011373 141 103 85 255
-32.789611947090833 -4.850231387698187 -30.272766045014748 143 98 79 255
-33.138204503169931 -4.745563783224256 -31.432327914307905 134 89 69 255
-33.193519608033654 -4.208755807931922 -31.632078805667163 124 82 61 255
-33.630304949490039 -4.246296874823983 -33.079363522425638 82 40 19 255
-34.389936056485055 -4.780011455465498 -35.582122626226067 178 135 116 255
-35.208384672814660 -5.416941163468437 -38.276602013038854 189 146 127 255
-35.616171905256664 -5.439816351323444 -39.627470110779285 188 145 126 255
-36.112092027970931 -5.605665034788842 -41.266080030173697 190 144 125 255
-36.138592263380360 -5.052888170930117 -41.369345774044717 187 143 124 255
-36.106465908627328 -4.408882998306183 -41.280684955420043 178 135 116 255
-36.191794422570993 -3.948133444152973 -41.575779261702792 167 127 107 255
-36.511990190929239 -3.859080877888275 -42.638350344131453 153 119 97 255
-36.802928846507712 -3.729163702707496 -43.604885089983810 142 113 88 255
-36.947200910172285 -3.370196959484019 -44.091657960432372 132 105 78 255
-36.651263504205836 -2.306941791583355 -43.139411937974643 116 94 66 255
-36.414081636262296 -1.332665966914135 -42.379057717133122 102 86 60 255
-25.352899514640441 -20.055301303454527 -7.375251318413945 209 175 148 255
-26.055774209979333 -20.172578899750889 -9.688537075798592 204 168 144 255
-26.286503354590209 -19.761571251498154 -10.465770048292399 206 168 147 255
-26.192581708132650 -18.979801549042335 -10.187065820109012 194 156 134 255
-26.246284178952493 -18.368244635364462 -10.388291240956875 191 147 125 255
-26.447643415615772 -17.930946578573227 -11.069390858589713 183 136 114 255
-26.619537393613129 -17.462503241711119 -11.654448704787711 173 127 104 255
-26.643849318253615 -16.821385538628292 -11.759583027866142 164 116 94 255
-26.727257933989463 -16.251676929001235 -12.056634638453261 157 109 87 255
-26.692584903339110 -15.540680726053552 -11.969786385347078 147 99 77 255
-26.628408437015224 -14.793116523416501 -11.786968192458659 136 85 64 255
-26.534723430927528 -14.008168296310330 -11.508190583457122 128 76 55 255
-26.647828974944517 -13.477252679471619 -11.901103374658732 120 67 46 255
-26.820068069863112 -13.022041137677149 -12.485873607617464 114 61 41 255
-26.933285406520781 -12.495871315959988 -12.878688587136736 109 56 35 255
-27.223821551873527 -12.195834282419440 -13.847122282318281 142 91 70 255
-27.484891001104174 -11.863519021433760 -14.719526298236133 127 76 55 255
-27.864227660963152 -11.687511000508323 -15.975595631571565 157 106 85 255
-28.125456917594988 -11.365843688057410 -16.847820772043633 181 129 108 255
-28.504969594810859 -11.202635903497622 -18.103682248350651 171 119 98 255
-28.618592610017160 -10.698138568342273 -18.496097298472137 150 98 77 255
-28.850496277824448 -10.351549112727710 -19.272155494341717 140 89 68 255
-28.993802659122167 -9.891480749003847 -19.760380806193069 128 80 60 255
-29.196291272320565 -9.513007671437350 -20.440382309590319 117 69 50 255
-29.221486454081315 -8.899559172571074 -20.544843159655102 109 62 44 255
-29.187607316672413 -8.206434491896104 -20.457460307167707 107 62 43 255
-29.183337531924920 -7.552947229948401 -20.465969146460878 104 58 42 255
-29.179117179619055 -6.899316743593531 -20.474457393593980 101 60 42 255
-29.322786906705318 -6.449818229811271 -20.962413870361132 89 52 36 255
-29.436955462266013 -5.961743477312950 -21.354419696145754 72 40 27 255
-29.669475077522179 -5.641264867949985 -22.129939352008051 32 5 0 255
-29.783782549909120 -5.158273087094699 -22.521831864588279 20 1 0 255
-30.253052664542992 -5.180556708918587 -24.064281096792769 14 0 0 255
-30.840734419585914 -5.380178246023206 -25.990118683727530 11 7 0 255
-31.339801975363855 -5.463008345610518 -27.628164408722427 10 6 0 255
-31.720661379877740 -5.383847654853682 -28.882575930779950 92 75 56 255
-31.776227206371104 -4.838255201648536 -29.082303825292996 148 114 97 255
-32.038933789451860 -4.596616725584425 -29.953061397523300 133 90 73 255
-32.212973725157553 -4.228939852076408 -30.536143955865640 133 92 72 255
-32.387090412433878 -3.864295291307457 -31.119161644864761 117 76 56 255
-32.679631918496938 -3.679126313266480 -32.085540206437486 70 32 11 255
-33.416087079877457 -4.164917809541535 -34.489622986121589 88 50 29 255
-34.507749632604487 -5.199937179446835 -38.043709112504729 189 149 129 255
-35.185300262593771 -5.625838617008625 -40.255672500224620 187 145 126 255
-35.655827523361751 -5.747596915118336 -41.796555784204259 187 146 128 255
-35.652959745734194 -5.150232068041944 -41.803872271182371 187 145 127 255
-35.650154774103100 -4.552592812904535 -41.811163529246443 182 139 122 255
-35.795394739327108 -4.184762495386124 -42.297594442604236 173 130 113 255
-36.147893849257329 -4.143406357051560 -43.454774626450046 159 121 102 255
-36.322895395150837 -3.828914947919429 -44.036890871786227 149 115 94 255
-36.438777608508374 -3.423717841777403 -44.427294964975772 134 106 84 255
-36.347529556015104 -2.690617097759471 -44.146906774394779 124 100 76 255
-36.167536932461957 -1.813399663344171 -43.579061039184523 113 93 68 255
-35.750776027406161 -0.551306622754808 -42.244719317065091 105 90 61 255
-24.458131978300756 -20.451220782058641 -6.784743167982128 207 187 155 255
-24.899038052621847 -20.259987282976837 -8.232502967100544 210 178 153 255
-25.369798085041680 -20.110418677033365 -9.776024906238632 210 174 150 255
-25.602529839305490 -19.698885160108432 -10.552370316365653 203 165 142 255
-25.656717872340835 -19.087093183475631 -10.753381621787440 197 156 134 255
-25.800251974591163 -18.579473151445654 -11.241986031376200 190 144 124 255
-25.943836516855043 -18.074541792112925 -11.730540776157767 182 135 113 255
-26.057698344837036 -17.537387815191892 -12.123179427094414 171 125 102 255
-25.992952188284832 -16.791313861842212 -11.940600171895738 163 115 93 255
-25.987785785833182 -16.115025433765510 -11.949739237393601 155 107 85 255
-25.982652295871262 -15.438704491104048 -11.958863957267937 147 99 77 255
-26.037116837475466 -14.834319038707534 -12.159677117920438 141 90 69 255
-26.032055966454493 -14.158456914518112 -12.168764822619636 135 83 62 255
-26.146175269759041 -13.628653675876549 -12.561214378750520 135 80 60 255
-26.290135218766522 -13.137754111516500 -13.049459919359691 131 74 55 255
-26.493732607308786 -12.723630594125567 -13.729327404476209 142 85 66 255
-26.756979919834663 -12.387898886402439 -14.600794936491496 151 96 76 255
-26.901125344259356 -11.906528039882389 -15.088861470019367 139 87 66 255
-27.313493541650757 -11.768684860198888 -16.439311574045576 150 99 78 255
-27.636562542149704 -11.523880973040903 -17.502175862985069 178 127 106 255
-27.959714781614551 -11.284934748458141 -18.564943832892965 165 113 92 255
-28.104140769584660 -10.819706007753979 -19.052722118777439 158 107 86 255
-28.248628365837448 -10.357079474093680 -19.540446634355504 145 96 74 255
-28.363372888983662 -9.857819138956671 -19.932308719276818 132 84 64 255
-28.478176705408671 -9.360608058356931 -20.324123655022674 119 71 52 255
-28.533422561301677 -8.785897664427296 -20.524288520407538 111 64 46 255
-28.529100442662028 -8.132057924051082 -20.532824255811789 109 62 44 255
-28.495013114989860 -7.437770566568688 -20.445545978177876 106 60 44 255
-28.520599173338496 -6.823965991201064 -20.549836152214141 103 57 41 255
-28.605870015320988 -6.292261617776063 -20.845673348135534 93 49 36 255
-28.750836795785659 -5.844275513903483 -21.333036237848233 76 37 22 255
-28.955510418865288 -5.481626455480892 -22.011903597882480 63 30 15 255
-29.190080445147004 -5.164267116931342 -22.786477535534516 48 20 7 255
-29.514197779459948 -4.976880537599186 -23.848294071750786 39 16 3 255
-30.076999201798998 -5.132946835068552 -25.676171099518228 21 9 0 255
-30.550437878841421 -5.171686655977595 -27.216595417764125 17 10 0 255
-30.934499297780434 -5.090654889778506 -28.469598211092489 43 29 15 255
-31.080023977621593 -4.672289478279311 -28.956412966151731 109 81 64 255
-31.344942519422133 -4.429605017011895 -29.826194893342944 136 99 83 255
-31.520448847093604 -4.060890499783937 -30.408634138511445 142 106 87 255
-31.606529975024344 -3.563695003781305 -30.703761264098006 78 40 20 255
-31.692678465860155 -3.067894888861417 -30.998844251638701 76 40 19 255
-32.315951368899903 -3.372351573082796 -33.017247518502131 81 46 24 255
-33.804641541920518 -4.982936056018829 -37.811918809990203 173 136 114 255
-34.816102269390711 -5.901663019970968 -41.074457314400235 188 150 129 255
-35.111541194313247 -5.753889532673270 -42.039166066303778 187 149 130 255
-34.989280517750288 -4.974712520853558 -41.663576923060162 189 147 130 255
-35.075973176382874 -4.513282273508707 -41.958069895956669 186 143 126 255
-35.341802555488584 -4.329297950980305 -42.826852407989577 179 136 119 255
-35.727100217445539 -4.335084871509792 -44.078426493371808 166 128 109 255
-35.903564991541344 -4.021740161692804 -44.659878757862174 155 119 99 255
-36.139804656163903 -3.805033745786204 -45.432690925609279 139 109 87 255
-35.868691483021593 -2.791559217271327 -44.578367551585416 130 103 79 255
-35.717025794250333 -1.962364531545646 -44.106900528415139 118 93 68 255
-35.386308331245516 -0.844176728318587 -43.061222805538307 102 82 53 255
-24.033457565435100 -20.687304398595629 -7.738158079071042 211 185 158 255
-24.328079060379039 -20.331539004404092 -8.705333567110785 214 179 157 255
-24.592757289370070 -19.947628569312158 -9.576650081691326 210 174 150 255
-25.037582023485754 -19.771527319446648 -11.022509769517683 204 163 141 255
-25.032260765841201 -19.092113221515334 -11.031749471015161 197 153 131 255
-25.117020941040693 -18.515785849428141 -11.328265378491921 188 142 120 255
-25.171802397003916 -17.906433585965246 -11.528987442717977 181 134 111 255
-25.376731947058062 -17.472667243043404 -12.208459514219754 171 125 102 255
-25.431600281885068 -16.866788809258651 -12.409107731143081 164 116 94 255
-25.516534213560291 -16.297408939096726 -12.705475946163659 158 110 88 255
-25.421343182233514 -15.515330903971986 -12.427340798618786 151 103 81 255
-25.476324113156750 -14.911518593643578 -12.627917930428225 146 95 74 255
-25.501314704833376 -14.272489577646780 -12.732728553624156 143 91 69 255
-25.646481088785009 -13.780052309486223 -13.220451739084098 148 93 73 255
-25.821739230618931 -13.327057871798218 -13.803853499368586 152 95 76 255
-25.997057514537005 -12.877246097786852 -14.387196276093192 155 99 79 255
-26.352677696042562 -12.654623981227942 -15.544817055022406 145 90 70 255
-26.528129844606156 -12.212782448396140 -16.128019588001649 156 105 84 255
-26.823820179382693 -11.925610813471351 -17.094025214527051 166 118 96 255
-27.029450484404123 -11.529323585569017 -17.772806029160222 161 110 89 255
-27.235147717653504 -11.136732147439488 -18.451519648159064 156 105 84 255
-27.440912443146203 -10.747830908148828 -19.130165876563751 153 102 81 255
-27.586642010885598 -10.284699582820252 -19.617341752610884 145 97 75 255
-27.702379358263357 -9.784937539391109 -20.008766250890602 132 84 64 255
-27.728009114990428 -9.168730692359730 -20.113061222670495 120 73 54 255
-27.813801123829819 -8.632482084975535 -20.408711983553701 112 65 47 255
-27.869590381174106 -8.057690263128649 -20.608635392615810 111 64 46 255
-27.895372339558776 -7.443536728346331 -20.712841750353249 109 62 46 255
-27.921204957529596 -6.829783389211428 -20.817021476178780 103 56 40 255
-27.947089116237635 -6.216423201649619 -20.921174248422886 98 51 35 255
-28.063223186602357 -5.726816424380928 -21.312319220567559 85 42 25 255
-28.299690776961384 -5.404787419021943 -22.086094314621221 74 36 19 255
-28.506166676016193 -5.045259430481707 -22.764126571017130 65 31 16 255
-28.772858884966851 -4.773219655030672 -23.633414405229473 60 30 16 255
-29.099777653497227 -4.590288746643182 -24.693936866596658 49 25 11 255
-29.907969796253866 -5.092777264330024 -27.284854174079328 24 5 0 255
-30.265166530631518 -4.968480809188108 -28.440778208718427 16 0 0 255
-30.321682882710661 -4.420288277761145 -28.640108585022887 83 60 42 255
-30.588811373887012 -4.176013639936670 -29.508921263472018 97 70 51 255
-30.795862367628501 -3.849280588960653 -30.186365634865467 61 33 16 255
-30.882663815910334 -3.350783049144184 -30.481184760975822 56 24 3 255
-30.879281828839382 -2.721360455597008 -30.489054535680140 73 41 20 255
-31.267058144579750 -2.668619823505082 -31.740115063384252 99 68 47 255
-32.798199433291501 -4.319430600824063 -36.624946504297355 92 60 39 255
-34.269366892159084 -5.907890578077371 -41.318160179431516 188 154 133 255
-34.627442385692589 -5.850545624464715 -42.473015700490038 188 150 131 255
-34.413897070999326 -4.935590062350911 -41.811017241578128 191 150 132 255
-34.681855746409170 -4.748387063195693 -42.678882924680266 189 146 129 255
-35.070269024870825 -4.749859097422970 -43.929111503283849 182 139 122 255
-35.398588524882300 -4.665562006113248 -44.988012496878781 170 132 113 255
-35.486235925574320 -4.214506410759057 -45.281974929472000 158 121 102 255
-35.453568022402067 -3.577460274673612 -45.193485225519225 144 112 89 255
-35.270474108130429 -2.704033790353165 -44.626983905523105 136 106 82 255
-35.117530037000307 -1.874382908103712 -44.156091469119957 130 100 74 255
-34.994740639202249 -1.089315714991386 -43.780797594991355 116 89 62 255
-23.405902095066594 -21.380896785864564 -8.010947607151053 207 188 156 255
-23.733241034277484 -21.055436372497994 -9.072723350149658 214 180 159 255
-23.818589962705815 -20.469673663458352 -9.369072125577162 212 176 154 255
-23.994755684221801 -19.986196764474002 -9.952377336711862 208 172 148 255
-24.292019881781030 -19.641253396164842 -10.918265173538515 201 163 140 255
-24.377504742835242 -19.063065098893617 -11.214476784044820 194 152 128 255
-24.402497168051809 -18.417767563732511 -11.319349948832780 186 140 117 255
-24.427521726136604 -17.773000194263759 -11.424203428303258 179 132 111 255
-24.603930392875299 -17.303269384209472 -12.007261381940793 170 124 101 255
-24.780393459205897 -16.836759080419355 -12.590262529854812 164 116 94 255
-24.896362897511040 -16.302579466785645 -12.981931424525953 158 110 88 255
-24.921550761326586 -15.663392578951786 -13.086655688242814 155 107 85 255
-24.977053153962331 -15.060692554670368 -13.286989080246428 157 106 85 255
-25.032596532834035 -14.459031589419595 -13.487293695954321 159 107 85 255
-25.179028912381298 -13.967972413205729 -13.974438499310025 162 108 86 255
-25.264946994533744 -13.405976239200399 -14.270293293178526 164 108 88 255
-25.472057781098854 -12.993794901689242 -14.948574674503504 154 99 78 255
-25.830673785955298 -12.771998190442190 -16.104851401750381 153 100 79 255
-26.098502672151596 -12.443806288411764 -16.974199998324139 159 109 86 255
-26.305819641151885 -12.044655650426137 -17.652257743901032 147 99 77 255
-26.452613714041547 -11.572919283647721 -18.139045978345479 147 96 75 255
-26.569170068718506 -11.065384040610539 -18.530183884119083 147 96 75 255
-26.837270818821423 -10.753340934005251 -19.399248044229324 150 99 78 255
-26.893348053279595 -10.173379365639747 -19.599095309910155 150 102 80 255
-26.979775927280343 -9.633618566379013 -19.894498065339548 139 92 72 255
-26.945043844786682 -8.937383745043334 -19.807526940174426 132 84 65 255
-27.122487844427951 -8.518853670473348 -20.389605771672450 125 76 59 255
-27.239383733026258 -8.023369799826185 -20.780470484554627 118 69 52 255
-27.326030208881491 -7.489609984581548 -21.075715119835110 109 60 45 255
-27.443043681104271 -6.997912565983896 -21.466489135649056 108 59 44 255
-27.469181218190528 -6.385686377616381 -21.570517475460093 100 53 37 255
-27.555997746093951 -5.856087518962553 -21.865644234950366 89 43 27 255
-27.642873037389933 -5.327952280927505 -22.160730000816358 80 39 21 255
-27.881394283232112 -5.009583097777167 -22.933552466469621 77 39 22 255
-28.089673338574983 -4.653441044860827 -23.610746549601657 82 45 31 255
-28.358667445235284 -4.385318900938898 -24.478968469063489 76 42 27 255
-28.809675416612095 -4.376738465627525 -25.920378099636253 55 23 8 255
-29.291107328560514 -4.418844522774378 -27.457204553677542 21 0 0 255
-29.681666522740613 -4.340375580389207 -28.707284364497269 22 0 0 255
-29.920685279613593 -4.052306136680642 -29.479578756593781 26 3 0 255
-30.159782766262325 -3.768362672610110 -30.251796343106719 30 5 0 255
-30.065330845478385 -3.006381813979957 -29.973128525620638 41 10 0 255
-29.970926108705982 -2.242536616508190 -29.694458514625552 58 27 7 255
-30.210230254971293 -1.964954552469038 -30.466519662613621 94 64 44 255
-31.298972553662850 -2.941617235046579 -33.913003780137586 28 1 0 255
-33.115928008071705 -5.015691868371704 -39.651569611547728 186 153 134 255
-34.356704232064104 -6.263510773979917 -43.574996947941003 187 150 131 255
-34.566146629505312 -5.987596369056391 -44.250861445471060 192 153 134 255
-34.654307067415488 -5.532278176280485 -44.544638221039889 190 147 130 255
-34.894238519184128 -5.308365669687618 -45.315877215141484 183 140 123 255
-35.073565477453542 -4.995965638391098 -45.896043806361291 173 132 114 255
-35.070907270049787 -4.407215097347404 -45.903179785841189 161 124 104 255
-34.855898073619841 -3.490366131610983 -45.241853146475506 147 115 92 255
-34.731971814716019 -2.710685881066311 -44.867011701311299 138 108 84 255
-34.790181098401149 -2.212744443114545 -45.065079358984349 134 104 78 255
-34.878807193785491 -1.763212758928972 -45.358590030731506 121 94 67 255
-34.846108586370278 -1.123295916922984 -45.270143032155715 110 88 60 255
-22.772809412397052 -21.385899362109583 -8.293165865195562 214 185 160 255
-23.194417075032945 -21.159472664190147 -9.640391847064649 212 179 158 255
-23.433072369999422 -20.740940627652847 -10.414166942513731 209 177 154 255
-23.610769619537976 -20.259638775055151 -10.996767326824624 206 170 148 255
-23.788516986833400 -19.781582632987579 -11.579312559746057 202 161 140 255
-23.813754124883644 -19.136316621473355 -11.684076298972030 195 151 130 255
-23.839021818390989 -18.491586630973757 -11.788820996997600 185 138 118 255
-23.833804511519915 -17.812757552746092 -11.798008438222638 175 130 107 255
-23.950688945920916 -17.273515457428914 -12.189320544513208 169 124 100 255
-24.128659642099336 -16.806755091887283 -12.771652032565214 166 120 96 255
-24.306684513796156 -16.343210990582207 -13.353926857674765 162 114 91 255
-24.423715097770838 -15.811457324167193 -13.745098112818340 161 113 90 255
-24.479739924311758 -15.209868516938457 -13.945187342362061 165 117 94 255
-24.474747673469381 -14.536818744977225 -13.954216026408233 169 120 99 255
-24.591910524089300 -14.009805570898806 -14.345280394988634 167 118 96 255
-24.831253054847409 -13.632064758759938 -15.118336784026553 164 116 94 255
-25.009592537223966 -13.184467219772287 -15.700310157795485 158 109 87 255
-25.401745807964204 -13.001366099515948 -16.950736808638027 154 105 83 255
-25.671831918122805 -12.674816279971978 -17.819062408688694 146 98 76 255
-25.911449019849755 -12.315184525311352 -18.591813340941854 141 93 71 255
-25.937338650193368 -11.692804264387220 -18.696054844055283 134 86 66 255
-25.932726190494137 -11.032466076722230 -18.704785713149676 129 81 61 255
-26.203066460893922 -10.720176506136056 -19.572853858533250 119 70 53 255
-26.290193183542044 -10.178937883249745 -19.867959964491718 115 67 47 255
-26.377371620397284 -9.639216290190987 -20.163027679920987 107 60 43 255
-26.372948063652046 -8.982524529454665 -20.171637469027473 102 55 37 255
-26.551886540287427 -8.564299045700523 -20.753046898802012 97 50 32 255
-26.730889682032071 -8.149194793506794 -21.334395949319685 95 48 30 255
-26.787730702337512 -7.575984358516749 -21.533834438598774 96 49 30 255
-26.936299273029547 -7.125445698613035 -22.019617244799917 96 48 31 255
-26.962689525773968 -6.514081267010894 -22.123524199348054 88 42 25 255
-27.050253710693042 -5.985340466366225 -22.418308937878095 81 37 18 255
-27.229566545610965 -5.582229724987528 -22.999398685047737 82 40 21 255
-27.561774593929513 -5.390499334939690 -24.057651824655863 82 43 24 255
-27.863500896834637 -5.162625803717603 -25.020366916494766 88 50 32 255
-28.043034757599997 -4.771186188473038 -25.601240151771464 91 51 36 255
-28.344919431204559 -4.552702177075986 -26.563789728302652 91 54 36 255
-28.830318251599763 -4.595910126485066 -28.098836370954075 94 62 43 255
-29.499259669635777 -4.905688648482467 -30.206318084121364 86 57 38 255
-29.709696641159127 -4.577899732161001 -30.882263465690130 74 43 26 255
-29.767325193004012 -4.035904731431415 -31.081035318340668 68 35 18 255
-29.580389272824874 -3.144133790104746 -30.516432400368615 51 19 5 255
-29.485228532324257 -2.381174600133420 -30.238090503623340 44 13 0 255
-29.604181096026224 -1.926956540242443 -30.627621139069390 25 2 0 255
-30.243101618140102 -2.233633137464565 -32.639025367223724 55 24 8 255
-31.799651057846432 -3.898995924044272 -37.512381320954688 118 85 67 255
-33.356398655180428 -5.591853521861125 -42.385371020773221 188 152 132 255
-34.209852308219666 -6.266595400945818 -45.063860979264376 193 154 135 255
-34.329329742436101 -5.858701979456342 -45.452689370989532 193 150 133 255
-34.418285632434220 -5.406706403972635 -45.746077905284068 185 142 125 255
-34.568487884907015 -5.048621395200314 -46.230197847242891 175 134 116 255
-34.657578136036278 -4.599867587877668 -46.523493709495057 163 125 106 255
-34.593771061189827 -3.918325351724079 -46.339843503465232 148 116 95 255
-34.591207703208482 -3.329577439794804 -46.346937167089834 139 108 87 255
-34.496920168065614 -2.598396379263690 -46.067884747997596 131 101 77 255
-34.525073458473997 -2.055825280438142 -46.170310310859605 119 92 68 255
-34.522694883349629 -1.465544376628813 -46.177337082471951 108 87 60 255
-34.489782084098962 -0.826723351667624 -46.088974506854896 92 81 49 255
-21.499413018221460 -21.397666530195053 -6.561428491415683 205 188 156 255
-22.293426483517337 -21.554622710671154 -9.052666066554394 212 184 161 255
-22.718548174272044 -21.329542727438167 -10.398311682366511 212 180 159 255
-22.897718635371206 -20.845813730004110 -10.980279757328731 209 176 153 255
-22.923156496064252 -20.197595234988839 -11.084983845195524 204 168 146 255
-22.948622688256989 -19.549923209816271 -11.189669777817386 200 159 139 255
-23.097159737651666 -19.039145507205802 -11.676075504434920 193 149 128 255
-23.276505813301981 -18.565422919335887 -12.257864140580836 181 134 114 255
-23.394374040410952 -18.025676125268177 -12.648742717224081 173 127 105 255
-23.419986080095327 -17.383381952955091 -12.753309266042294 167 122 99 255
-23.537936290559784 -16.847114329545690 -13.144116124095603 167 122 99 255
-23.625160915110939 -16.277545464789682 -13.439464927863526 168 122 99 255
-23.866290963845856 -15.888109614188139 -14.211842547109313 170 123 100 255
-24.107483589203966 -15.502960736301873 -14.984148935529788 171 125 102 255
-24.164078911827602 -14.904603396459507 -15.183951143313124 174 126 106 255
