ply
format ascii 1.0
element vertex 655
property float x
property float y
property float z
property uchar red
property uchar green
property uchar blue
property uchar alpha
end_header
-50.774184931339832 -16.785686648659521 -15.076757353805760 188 140 135 255
-51.190151480653114 -16.165460472739255 -14.723437993941360 182 133 128 255
-51.417726921743977 -15.153358980744372 -14.656862272540565 170 124 118 255
-51.683732487696872 -14.218261987102835 -14.532366230276040 151 112 102 255
-51.987809022130875 -13.360833926569740 -14.350231949232722 140 108 98 255
-52.366858761041428 -12.660886813172510 -14.053721448140777 111 87 75 255
-52.894443322946813 -12.278491868555591 -13.529547571871234 23 5 2 255
-53.309977090148436 -11.659166235624809 -13.176660723926034 9 0 0 255
-52.987244568187691 -9.444055175337041 -13.958749191479114 4 1 0 255
-51.823131835952879 -5.379708436260557 -16.040093516608152 1 3 0 255
-53.142544010522641 -5.162848234639114 -14.590120279630781 0 2 0 255
-54.801031907702452 -7.278848086359915 -12.317377806031686 0 3 0 255
-53.147943163828629 -2.046193850540931 -15.171539728162145 0 3 0 255
-40.554558640000124 -17.633664030548175 -27.816601271202472 193 149 125 255
-42.051375352866103 -19.001780178801738 -25.855471673797808 202 151 134 255
-42.952737676928805 -19.255698037034335 -24.783368824766768 203 150 134 255
-43.616170643324850 -19.063470125434719 -24.066678885363729 194 141 127 255
-44.199850950693687 -18.723345363705192 -23.468806911979669 183 127 112 255
-44.510103435372912 -17.855041950448765 -23.282331923697825 164 107 93 255
-44.549462456346973 -16.453879604217178 -23.505271078181124 145 93 80 255
-44.590934554317172 -15.048817365798129 -23.726559214176461 123 81 67 255
-45.058223622203940 -14.480877698989815 -23.304389947607746 53 12 4 255
-46.792106418077111 -16.444352773696778 -20.960339923134683 192 146 137 255
-48.326113241701663 -18.039005241750544 -18.913727714491671 197 150 143 255
-48.937075262529802 -17.796123747734157 -18.266333923270338 200 153 147 255
-49.318325701171062 -17.091926919917569 -17.967929575837928 202 155 147 255
-49.851194073339030 -16.698102860526660 -17.438072482042600 201 154 146 255
-50.647622939039650 -16.850695659748027 -16.504553180150111 193 146 138 255
-51.252985653246611 -16.618198530599756 -15.861580934572743 182 135 127 255
-51.744200360260976 -16.153745310691818 -15.392557682362565 177 127 120 255
-52.346957699065811 -15.926088105128770 -14.751650253707282 166 117 110 255
-52.687039711300528 -15.150406070919104 -14.513737238456656 155 110 101 255
-52.729784192846637 -13.743121608153842 -14.734148093148633 123 90 80 255
-52.700520040957784 -12.173655240692995 -15.067333020086380 65 41 31 255
-52.858638850185628 -10.996113356875043 -15.112882862910681 28 13 3 255
-53.496993545790389 -10.850398374841120 -14.415999237825929 7 5 0 255
-51.416974899246242 -4.803134782404925 -17.933452838715880 2 3 0 255
-51.804683623160329 -4.087210167472620 -17.630180033586896 0 3 0 255
-54.143124607941672 -6.115327061078546 -14.587806376329524 0 3 0 255
-53.283143194208535 -1.062249396283846 -16.530374484097763 0 5 0 255
-41.249989754462518 -17.852442698261171 -28.335729354311155 194 150 125 255
-42.897937800772624 -19.519910231765152 -26.132478436879779 202 151 134 255
-43.796082745064354 -19.774885527321288 -25.058365390948723 204 151 135 255
-44.457430782796735 -19.583841659680786 -24.340835168984057 197 145 131 255
-45.000591871677258 -19.169398087470626 -23.801431316020171 187 131 118 255
-45.194503872741308 -18.074943536287549 -23.792248443413882 168 112 97 255
-45.312421341790454 -16.826391469902859 -23.899628800817595 156 103 91 255
-45.316618627428269 -15.346191353345802 -24.181641331251626 129 88 74 255
-45.668140658963310 -14.549563102542493 -23.934945077452255 36 2 0 255
-46.707618566209618 -15.132440513774213 -22.636068805913567 177 133 122 255
-48.047657903429865 -16.338036013052204 -20.873629749973787 181 133 124 255
-48.850065859613011 -16.475414456746080 -19.931564718259892 191 142 135 255
-49.536232261177744 -16.385808381664617 -19.166111246885720 198 150 140 255
-50.371335478393362 -16.610050688931437 -18.169934796425537 199 151 139 255
-51.203504661773309 -16.839724411491147 -17.176065976497426 192 144 133 255
-51.657877520682078 -16.294891438916864 -16.763310566041639 180 132 120 255
-52.223828235100896 -15.985681161933798 -16.177616106536135 174 123 116 255
-52.788538364327508 -15.678777492691808 -15.592906702756864 160 110 103 255
-53.277759849858242 -15.216855689296921 -15.124377356113484 140 94 88 255
-53.026130743747004 -13.178682033245195 -15.806528051200246 117 84 75 255
-52.926103193375653 -11.449443202089583 -16.255877871618935 44 24 17 255
-52.718886215347339 -9.476510529159498 -16.874763989819883 13 4 0 255
-53.321657184413766 -9.246633748631155 -16.231811788263599 2 4 0 255
-53.411634978429788 -7.902674901309894 -16.389804758363994 0 3 0 255
-52.581398258122064 -2.958192253971447 -18.295662801217190 0 3 0 255
-53.177918685032694 -1.120605257687998 -17.971835263595636 0 3 0 255
-42.296540878355898 -18.742864455667899 -28.318618744373680 190 149 121 255
-43.508244336408438 -19.588700063199866 -26.763492385933858 204 152 135 255
-44.209572611698320 -19.468007602822212 -25.983315491997757 206 153 137 255
-45.025140500372245 -19.576897739540982 -25.027074631081064 201 150 135 255
-45.374510196444874 -18.784525070941015 -24.782322614919423 190 136 122 255
-45.839570576527777 -18.219056353635864 -24.360372349826832 181 124 110 255
-45.843501140422219 -16.742962944298256 -24.645943700239428 167 112 99 255
-46.194143680924739 -15.948246273585937 -24.400201948856676 149 103 90 255
-46.239841602885974 -14.541876528270762 -24.624205776850914 70 30 17 255
-46.972031310189578 -14.511066521642846 -23.791011104017713 75 34 25 255
-48.081004215063984 -15.252961005385856 -22.374090812570842 185 137 129 255
-49.147569508877822 -15.926331687435663 -21.019255176726944 190 140 131 255
-50.096772632935100 -16.375897381758818 -19.842936821863930 188 138 127 255
-50.817083706634463 -16.367069475684730 -19.019077933482038 185 136 122 255
-51.535184296190039 -16.362337318135417 -18.196961078185609 176 127 113 255
-52.213778789867234 -16.283725303509527 -17.434660878608582 169 120 108 255
-52.816053294759101 -16.052367923982501 -16.789874793153871 155 105 97 255
-53.416847162363766 -15.823761387661904 -16.146262432532296 145 96 90 255
-53.794541944040986 -15.126065182254564 -15.850579053099324 113 73 65 255
-53.804041437709969 -13.639825316232304 -16.131921153817643 56 27 20 255
-53.595743581795062 -11.674704966157094 -16.757044306405930 17 2 0 255
-53.244968567311588 -9.385312741397456 -17.609232275291248 9 4 0 255
-53.737456095548708 -8.916259728720945 -17.137128254509946 2 4 0 255
-52.666797108105996 -5.019301091091620 -19.130456551578988 0 4 0 255
-53.271618588974107 -4.783401516763547 -18.483827350465276 0 3 0 255
-54.813429747298926 -6.635316225659324 -16.352901422973758 0 3 0 255
-54.117143071437965 -3.515590718182011 -17.764461140972429 0 3 0 255
-42.560509775772417 -18.140652022898479 -29.490910373357423 189 153 121 255
-44.234861374086606 -19.882031639087188 -27.215694520947181 204 152 134 255
-45.011631734247260 -19.911946473179569 -26.315205654995026 206 153 137 255
-45.747371585719463 -19.871154284540921 -25.476057648391162 204 152 135 255
-46.211834319776870 -19.305972107822612 -25.053817511228289 192 138 123 255
-46.560812167318232 -18.514617523561355 -24.809645007974694 185 126 112 255
-46.680810061969581 -17.267241043685857 -24.920048728971750 173 115 103 255
-47.068953688041034 -16.550044986391526 -24.616001576135005 160 107 93 255
-47.077514421953083 -15.069024492158547 -24.901309259231112 126 79 68 255
-47.428924432783944 -14.273194233622178 -24.655248589138722 33 1 0 255
-47.969084283014809 -13.861211087853462 -24.115335936386714 121 81 73 255
-49.260059736057229 -14.992324847698427 -22.403272139428339 180 131 123 255
-50.245438822934744 -15.515951041972869 -21.164209386284881 178 125 116 255
-51.152218302917817 -15.891779878738561 -20.045128527692725 178 124 114 255
-51.981123499254736 -16.118472329242906 -19.045462498234798 175 124 112 255
-52.658660337556000 -16.038787668858959 -18.281184969417836 161 108 98 255
-53.334233225272826 -15.962746468256000 -17.518459363762162 134 87 78 255
-53.417943562111532 -14.636010994425931 -17.686592306554388 104 64 56 255
-53.944528557041281 -14.249214515765232 -17.157409368488487 49 23 15 255
-53.993955427555022 -12.839343215354830 -17.381633288500439 13 2 0 255
-54.082028597022457 -11.504604317934536 -17.546402466217330 10 6 0 255
-53.808128767082806 -9.373522766276494 -18.286751126113586 6 6 0 255
-54.445212330952657 -9.222196703586405 -17.583484840755631 2 5 0 255
-54.321511462521840 -7.399714904846235 -18.089418389732884 2 6 0 255
-54.597450905334497 -6.450543806435491 -17.961109350065271 0 3 0 255
-54.874096809787503 -5.500094883214615 -17.832272447245828 0 3 0 255
-53.397958207806582 -0.608919212343039 -20.507360237129035 0 4 0 255
-54.466557084922655 -1.418633966417815 -19.115780530795831 0 5 0 255
-44.651399160437791 -19.576779761574045 -28.144984778028544 203 152 133 255
-45.426847867846860 -19.605363482398644 -27.242033623429506 207 154 138 255
-46.199822351674129 -19.638518791963065 -26.341020450953010 207 155 139 255
-46.740845313372958 -19.223358899354906 -25.798965321772073 196 140 125 255
-47.433349145621818 -19.112905421924552 -25.020077610333431 192 135 120 255
-47.515779979750889 -17.791304366989181 -25.191780684852318 179 123 110 255
-47.903163679120240 -17.075437347980852 -24.888259174582686 170 114 101 255
-47.988378641565930 -15.748701035059725 -25.057789812868748 154 103 92 255
-48.338977398124953 -14.954664541921773 -24.812637859130177 66 27 16 255
-48.277009487869066 -13.315295972663307 -25.215648969216517 25 0 0 255
-49.377376911964504 -14.058910255099676 -23.792324491711355 103 65 57 255
-50.473121040340473 -14.811078336106732 -22.372631863737183 153 105 99 255
-51.489920552713016 -15.416826616564208 -21.073877392295373 148 97 89 255
-52.243292593632816 -15.486279535457470 -20.188290917678870 140 92 82 255
-52.957296047203585 -15.482339134016456 -19.363099902658433 133 87 76 255
-53.411489651928292 -14.935421196912614 -18.948245220518032 101 66 56 255
-53.388321504369515 -13.370602973457267 -19.291404685465153 44 18 8 255
-54.135530910835598 -13.451507644042238 -18.410705589159136 19 5 0 255
-54.406587029662205 -12.512281878978797 -18.287076603171329 11 8 0 255
-54.387783323975142 -10.939458586485216 -18.626872273500140 3 4 0 255
-54.661194240493387 -9.995925430307580 -18.501439203839624 4 7 0 255
-54.790990229190896 -8.733177441802781 -18.606701091863840 3 4 0 255
-55.461825251180898 -8.663011488871064 -17.845017958090153 3 5 0 255
-55.234768920329330 -6.598182592604360 -18.525299649884261 0 3 0 255
-55.083224476828974 -4.686157904893719 -19.087370683502655 0 4 0 255
-54.187734980711085 -1.079627940975627 -20.852648977060994 0 7 0 255
-54.897362913294856 -1.084049749898213 -20.031142512383781 0 7 0 255
-45.300259832053598 -19.720525378609182 -28.716294607963022 199 148 130 255
-46.418357261139676 -20.424238418646780 -27.272462698126162 205 154 137 255
-47.035488075701693 -20.158458800753067 -26.609577004987329 206 155 138 255
-47.613054198399240 -19.820004928815933 -26.007571042842187 197 145 128 255
-48.113481714625777 -19.332523841897796 -25.525764881142635 193 140 126 255
-48.348410816775583 -18.315151784988103 -25.461138449588475 186 134 120 255
-48.697339028355231 -17.524486043117975 -25.217558336702098 185 129 116 255
-48.971303554195273 -16.580777321593047 -25.092477078050848 162 108 97 255
-49.171029106161683 -15.482687571657664 -25.085327948379756 123 82 70 255
-48.886555117578553 -13.384126152582098 -25.845993095898223 22 1 0 255
-49.462305188164933 -13.049069133209088 -25.245447927769646 27 5 1 255
-50.556122998271988 -13.797705701819467 -23.820691338735799 67 37 29 255
-51.756242260482722 -14.787282092434282 -22.223020276897529 124 89 82 255
-52.582489587402762 -15.009879009874510 -21.217087526025551 75 44 33 255
-53.038480080783515 -14.458817036802628 -20.800061634555107 46 20 13 255
-53.127828155110848 -13.127418302869160 -20.969111946127867 53 32 20 255
-51.613416577130636 -8.344990532496297 -23.709431129412650 29 15 5 255
-52.075564821271144 -7.782602958841437 -23.287630256626727 12 8 0 255
-55.364807470591415 -13.367442524115518 -18.320200427268048 4 6 0 255
-55.021666268215625 -11.085873944406387 -19.186735788630102 0 3 0 255
-54.791346832752595 -9.033207330129670 -19.875258453009195 1 3 0 255
-55.318793816278287 -8.641817044443684 -19.342618446756802 1 2 0 255
-55.881028913623439 -8.331954263639801 -18.752865669044070 1 3 0 255
-55.907299510064220 -6.825723487086577 -19.031265027041911 0 5 0 255
-54.905612496797659 -2.991267407051737 -20.981617488609572 0 7 0 255
-45.948661340432182 -19.864267428244773 -29.287174362113831 197 146 127 255
-47.024908152567249 -20.492802399433145 -27.899776613191250 205 152 136 255
-47.716851175617961 -20.377320937560000 -27.115706953048289 207 156 139 255
-48.368936377090108 -20.190077142215046 -26.393089882131562 200 149 132 255
-48.906029307980589 -19.779078256595028 -25.851239046031765 198 145 131 255
-49.141073995654821 -18.762898498353479 -25.787825250123490 191 140 123 255
-49.414536974180947 -17.821147420593974 -25.664092472290747 190 136 123 255
-50.025158787876052 -17.565124363827465 -25.004200865547716 170 117 105 255
-50.298880932952045 -16.622907665435207 -24.880277361481831 141 98 84 255
-50.201811424695961 -14.911708735925970 -25.349098672083159 49 25 15 255
-49.441356144513492 -11.808870773036148 -26.881689603168468 11 0 0 255
-50.201458344445172 -11.858330910982659 -25.983826103397377 13 4 0 255
-51.952312860195647 -14.003273277314292 -23.493724629276585 24 13 2 255
-52.520939616912216 -13.679501188345057 -22.897019301116671 18 8 0 255
-53.051780010130543 -13.280152433402918 -22.360156170823672 14 9 0 255
-53.217380428253250 -12.101569175815200 -22.411694485691839 15 7 0 255
-53.348088307406300 -10.842064023081264 -22.520809885857545 13 7 0 255
-56.158305939260359 -12.338272909365742 -18.928818870732329 0 3 0 255
-55.499489463247471 -9.338623715777487 -20.321491612215169 1 3 0 255
-55.383161839132669 -7.517803044701850 -20.835818005497913 0 2 0 255
-55.839492149174177 -6.965480075930600 -20.417939072731343 0 5 0 255
-55.373329880029246 -4.336997444186579 -21.508634469402921 0 10 0 255
-46.330303075300463 -19.484767919922206 -30.280225168736507 195 144 126 255
-47.783066793139568 -20.861288491402263 -28.285941048573420 206 149 135 255
-48.586388588546711 -20.972105244832903 -27.320103947259781 212 157 142 255
-49.160912588014625 -20.635433284106767 -26.716922233492909 209 153 138 255
-49.546371250502830 -19.922898811490768 -26.414700612621175 199 147 133 255
-49.782014390473037 -18.907020243449921 -26.352122236952169 194 141 125 255
-50.167846836523452 -18.193803489127873 -26.049615585936095 191 140 123 255
-50.702424438581986 -17.785919423773692 -25.508314170891367 176 128 114 255
-50.976437891031495 -16.844202811469472 -25.385124978543757 150 105 92 255
-50.585878138990935 -14.519691086656252 -26.332799646706462 98 65 49 255
-49.684601823452823 -11.108263814607028 -28.108531676946967 24 7 0 255
-48.865145963780833 -7.835745020812226 -29.759035855862692 6 5 0 255
-49.920040355774034 -8.497094412697237 -28.382209537655854 3 6 0 255
-52.210763397507165 -11.806421474286225 -24.997937506982851 9 11 0 255
-53.252817967909351 -12.491534075691106 -23.631204601870081 8 10 0 255
-53.493316077303035 -11.466793269107654 -23.564923796304726 3 6 0 255
-53.554167273560097 -10.048797564499836 -23.792235108094275 2 4 0 255
-54.697007304286942 -10.982873629396579 -22.254898433269432 6 4 0 255
-56.014138573142006 -12.320142968603022 -20.428204219549997 3 4 0 255
-56.109337231435020 -10.983790621769856 -20.598100586544888 0 3 0 255
-53.997126202256510 -4.733516846537668 -24.392508277219832 0 5 0 255
-54.316675543936157 -3.852929309822969 -24.203287442279276 0 5 0 255
-54.672081866043442 -3.051158375440650 -23.955434414164387 0 8 0 255
-46.827686383808995 -19.329742010423757 -31.093872203394568 194 147 126 255
-48.539636067015053 -21.229640899085496 -28.670504329071207 207 147 137 255
-49.453207149533085 -21.566627783534955 -27.521731259155700 216 155 146 255
-49.875939189293405 -20.929821966928870 -27.159331533314401 210 155 143 255
-50.223629596043452 -20.142331547145915 -26.917544317677311 203 150 137 255
-50.571506652152166 -19.354499988811881 -26.675614363782472 195 142 128 255
-50.919572089271057 -18.566325459668064 -26.433541582694659 188 137 123 255
-51.415870830462296 -18.082951966119026 -25.951705479472395 176 127 113 255
-51.431823675850779 -16.606393874057801 -26.248020192583340 154 111 94 255
-51.045669679223664 -14.281428946333506 -27.199369689478715 106 75 53 255
-49.674993151131531 -9.869438262518429 -29.756586181591928 39 32 2 255
-53.051621758363993 -9.271092437705249 -25.904622883129321 0 8 0 255
-54.411009188767608 -10.665246336558795 -24.004914219526171 0 4 0 255
-54.510629841681620 -9.323566893698228 -24.173982639222913 0 4 0 255
-55.825488851340722 -10.655372486922033 -22.340111840271419 0 4 0 255
-55.853685112433340 -9.156365667782126 -22.626997274587694 0 8 0 255
-53.722071488960097 -2.823044749912924 -26.491409165153925 0 8 0 255
-47.401448578130044 -19.324291402251816 -31.787121365984405 194 143 121 255
-49.106888642788164 -21.223216611168851 -29.356800575634082 209 147 137 255
-50.092757595073351 -21.709979792241455 -28.084022849122618 219 159 150 255
-50.515146538882732 -21.073370096911532 -27.721486028166282 216 160 149 255
-50.862871218614544 -20.286117633371674 -27.479951241768902 208 156 143 255
-51.136656389025688 -19.346883795447212 -27.358851287839002 195 143 129 255
-51.521941145068936 -18.634542470267832 -27.056647068319279 183 134 119 255
-51.759886000540334 -17.617240266789850 -26.994888377572295 165 119 104 255
-51.668428270073449 -15.909863666258673 -27.472468670472239 146 110 89 255
-51.214239838892325 -13.429688659663270 -28.546748610621222 102 81 49 255
-49.489406211934408 -8.246707370053116 -31.710309224418751 50 56 11 255
-48.125413918436820 -19.617655359785743 -32.236888898863214 190 143 116 255
-49.861220898910375 -21.591405159057189 -29.739132771117539 204 145 130 255
-50.620140463095538 -21.627934124027604 -28.828183482517488 215 159 147 255
-51.191012783014145 -21.292262974410988 -28.222535422368708 215 162 150 255
-51.464661047409194 -20.354320073484899 -28.102504859076788 209 160 146 255
-51.923354252839459 -19.794134915865556 -27.679534238827358 198 149 134 255
-52.124232311835542 -18.702793902087819 -27.679712066885742 178 129 114 255
-52.252997228745926 -17.456836829993676 -27.799580015234653 158 112 96 255
-51.799181876046589 -14.984394879671527 -28.881374892181015 140 107 82 255
-50.242276508681869 -21.210600085087464 -30.730428606235733 200 148 126 255
-51.074098880353972 -21.395790573045190 -29.695003577311013 212 160 145 255
-51.866045058003650 -21.511104112762979 -28.722761724739655 212 165 149 255
-52.250407019399589 -20.800327196380238 -28.421149947668084 209 163 147 255
-52.634716531796300 -20.089652045167639 -28.119583753431897 202 153 138 255
-52.653312892879399 -18.619079266436017 -28.423903584271585 185 136 121 255
-52.455594500682665 -16.686815088353654 -29.089315937746676 148 102 84 255
-51.571500556757755 -13.295062840736591 -30.899255933842625 125 99 67 255
-50.551548514897092 -20.680355854649321 -31.846519595402611 190 155 126 255
-51.603201844717830 -21.314025162960547 -30.441022739228572 206 156 138 255
-52.356546515279192 -21.353342312541827 -29.527476385297291 210 162 146 255
-52.777857834891833 -20.717423351413345 -29.164578245330887 212 163 148 255
-53.271873204381677 -20.233562214596645 -28.680167841405421 206 157 142 255
-53.183068397884782 -18.535482491834188 -29.168831660941208 194 146 130 255
-52.625998851408355 -15.841094487309306 -30.443979611860840 136 99 77 255
-52.059632859458617 -21.082245526730730 -31.310478319993535 200 155 133 255
-52.921198990410744 -21.346317744936357 -30.210799538987885 209 156 141 255
-53.415273615950142 -20.861170976943839 -29.725252490961481 208 155 140 255
-53.799643857671839 -20.150258311100089 -29.423522576671360 199 151 136 255
-53.749688304274144 -18.527959620889703 -29.853521538589717 186 142 125 255
-52.836912742264005 -15.072097895369438 -31.742395675945772 136 109 80 255
-52.189138276800975 -20.175268187628433 -32.735365115196146 182 166 131 255
-53.377058538469754 -21.113564839586559 -31.078821795745341 200 153 131 255
-53.907263419560778 -20.702946056003839 -30.530921202940391 201 145 127 255
-54.147478910122061 -19.688505993420335 -30.473926022416663 194 141 123 255
-54.064595945061654 -17.988960492191211 -30.966735185965291 178 133 112 255
-53.327898881264801 -19.827570685310206 -32.811411310294346 183 162 125 255
-54.364248405592406 -20.469410328156641 -31.399263857674271 182 145 119 255
-54.497869929293742 -19.227082558330409 -31.527009968452376 179 134 110 255
-53.952677402315345 -16.539362097039373 -32.819377506220235 163 126 97 255
-53.818413239849676 -18.123550475554424 -33.998035120665605 150 152 105 255
-54.064415710747568 -17.101245503925611 -33.939128244691915 157 144 101 255
49.080494116918118 -1.091845275230867 -17.827111776529676 143 126 87 255
49.539609654462325 -1.605464004450141 -16.235179581802839 139 116 80 255
49.721590534336713 -0.872637442251516 -15.742483331146445 125 106 67 255
48.173682665238772 -2.220005034054850 -17.620507812018900 165 136 102 255
48.970849289577671 -4.210304744050177 -14.725928483923354 160 120 94 255
49.291582594950100 -4.107321330977584 -13.689202570006387 151 114 87 255
49.489296132735532 -3.459657322271880 -13.132818326532060 141 105 76 255
49.704295889659861 -2.891024753611532 -12.508643297355064 133 101 68 255
49.797701728892662 -1.771982349622078 -12.360959979802459 120 95 57 255
49.908944918219447 -0.729765400871202 -12.144004808843391 103 83 44 255
46.278584202088069 -0.607166820831253 -21.007790857474930 161 146 109 255
47.036415497734325 -2.339814829202965 -18.307374721216007 175 139 114 255
48.219157137330896 -5.949911283190858 -13.970261772442655 172 130 108 255
48.861887272772577 -7.249006450282337 -11.703106957301685 156 116 91 255
48.987269876042376 -6.295354614096084 -11.424286193556668 152 112 87 255
49.166038658069709 -5.575327137898910 -10.940174091465877 144 106 80 255
49.380071619414011 -5.012385698187927 -10.320102911015653 137 103 73 255
49.506001128036658 -4.056681827260604 -10.039925724473591 125 95 63 255
49.527126685643722 -2.625952690580107 -10.165126038598402 109 83 50 255
49.444434623643559 -0.716233706112973 -10.693039502966940 90 77 42 255
45.418216079616826 -1.972512437085811 -20.594523473246710 160 143 111 255
46.312397891476294 -4.239029982324098 -17.413115856191638 180 138 121 255
47.075303007352602 -5.981041004522837 -14.723594632735029 173 131 115 255
47.798523457488969 -7.581981595139723 -12.180524501630174 165 122 105 255
48.356153764676051 -8.495694458121193 -10.261232270523550 156 114 94 255
48.462007968784889 -7.467376012218296 -10.052416764447997 151 109 89 255
48.657918170298899 -6.828717348676406 -9.502356182164789 147 107 84 255
48.800109053531855 -5.955069023915371 -9.156251116144375 137 100 76 255
48.978149750991932 -5.238017167170426 -8.674146333079335 124 91 65 255
49.014110930779751 -3.889539781453209 -8.732694574491319 111 81 54 255
48.891601077778461 -1.825197312491866 -9.395771928631149 88 75 45 255
43.968456826917773 -0.879841664053004 -22.386723392391360 158 146 114 255
45.337655765202427 -5.054454507084245 -17.481232890320001 177 143 121 255
46.202089922819724 -7.174325654668650 -14.447844552448288 177 130 115 255
46.878660447991678 -8.536873968187990 -12.110312040789381 170 123 109 255
47.259053872429774 -8.669956054150248 -10.874213442340420 160 117 101 255
47.711321865394012 -9.119177699319465 -9.368660172385603 154 112 93 255
47.834044770366603 -8.170537034380970 -9.092328643544789 149 106 87 255
48.011577545927395 -7.455378015214251 -8.611472909679321 144 102 83 255
48.098571825437588 -6.347924091033377 -8.469383799141099 130 93 72 255
48.204165455329587 -5.317008999049676 -8.258259620691121 123 89 66 255
48.202210638073296 -3.810922493708119 -8.450685853948556 104 74 50 255
48.129580082767291 -1.983960174261540 -8.909396570744576 84 69 42 255
45.406655131212403 -8.672831518565431 -13.897283876264225 179 136 117 255
45.959917540890928 -9.490833852784164 -12.040025056277528 173 127 110 255
46.399271107080835 -9.853644673282304 -10.598879930242475 167 120 103 255
46.670011090289790 -9.524603390208512 -9.775810000379096 161 115 99 255
46.903177757106874 -9.042254832447213 -9.090387484862902 155 114 94 255
47.025283966071271 -8.093255988214054 -8.813376442711927 146 108 87 255
47.166112771503236 -7.221217387243144 -8.467755339914788 138 102 80 255
47.252122391461455 -6.113016577692036 -8.324436604226605 123 92 69 255
47.356967969532860 -5.081331995041410 -8.112211212854476 109 83 58 255
47.407545040280041 -3.811279878659661 -8.100807384719673 99 78 51 255
47.277080678111645 -1.747137345957356 -8.759104668862193 85 72 42 255
43.159082510595127 -5.768216744305562 -18.443361880574599 164 148 117 255
44.407196613559819 -9.323745009891809 -14.101779286998948 181 139 122 255
45.061248230146006 -10.520750326732866 -11.901138204443299 177 133 116 255
45.523445497700607 -10.957838333306540 -10.391727020914601 170 123 107 255
45.851998096865728 -10.860358572583607 -9.364412323925961 163 116 98 255
46.010453418047689 -10.068603068920737 -8.952246756557031 159 110 93 255
46.094021995360507 -8.965426402677764 -8.811563919240740 153 109 91 255
46.215513115078565 -8.016068692676583 -8.533873795197707 143 105 84 255
46.281414443516738 -6.830845022528592 -8.458251860077183 132 98 76 255
46.347967679900037 -5.643035262070072 -8.380897273985084 118 88 64 255
46.452230791981862 -4.609920035871824 -8.167127033869178 107 82 55 255
46.538457985513674 -3.496234344509276 -8.019409160757704 96 75 46 255
46.477884613531302 -1.747745855809740 -8.406617192508520 86 73 41 255
43.251993200144938 -9.364388762057558 -14.855921579385978 173 142 121 255
43.971685164624191 -10.782913909031691 -12.447600708263337 179 135 118 255
44.400254226723973 -11.061016111528460 -11.073595140486617 173 127 111 255
44.884830389385698 -11.576140260916077 -9.498736492362440 166 119 103 255
45.176707462590784 -11.325420557663278 -8.609683034779863 162 113 96 255
45.296566050949380 -10.379763552140332 -8.334037365242921 157 108 91 255
45.359789195344845 -9.199639096144409 -8.260965958251148 151 106 87 255
45.480448216809819 -8.250802623184995 -7.983189426076876 140 103 81 255
45.582553379229410 -7.222527641144296 -7.772079053515341 129 96 73 255
45.572169055784428 -5.722167933622700 -7.963999017777638 111 81 55 255
45.656703124683816 -4.610545430647278 -7.816934177875055 103 78 50 255
45.760493890798244 -3.575612142861075 -7.601367269015128 98 77 48 255
45.771441296165349 -2.143683434843808 -7.719248076564185 89 75 44 255
45.746172348309216 -0.549287575992537 -7.968047372583413 77 72 40 255
43.092994855772005 -11.888869494144814 -12.240123400810972 179 137 121 255
43.486170254622834 -12.011381991213113 -11.003233441704594 174 127 111 255
43.819802424672332 -11.908318622359758 -9.974460718005901 168 121 105 255
44.171928884043979 -11.885900175128057 -8.879982152628571 165 116 99 255
44.426400082184614 -11.481155825136966 -8.128087150219898 159 110 93 255
44.545484571935418 -10.535796336073844 -7.852206179293290 154 105 88 255
44.664885500370929 -9.589179617407353 -7.575482576235316 144 100 81 255
44.803772018001354 -8.719236315289322 -7.230386146652819 135 98 76 255
44.923756784884063 -7.770320488321175 -6.952124824226729 125 93 69 255
44.853483605683678 -6.036416915138886 -7.345359924572591 116 86 60 255
44.879644200724044 -4.689809948121933 -7.399361385060502 106 80 53 255
44.944574780157069 -3.497361531504907 -7.317163163582933 103 82 51 255
45.029055482095629 -2.381357581313694 -7.166442961024615 100 83 53 255
45.001048419183718 -0.787685378692174 -7.414138210346749 87 81 49 255
38.427733139861331 -1.410689647544530 -24.848087022631830 141 145 101 255
42.097495811114143 -12.536075235182352 -12.444015203767691 180 139 121 255
42.652317358115667 -13.266311748153555 -10.659042628267684 175 128 112 255
42.948511737346550 -13.009368768542487 -9.767528420180980 170 121 105 255
43.244030610552556 -12.755141205060738 -8.877839106904702 166 117 100 255
43.519252197511605 -12.426600135644293 -8.057968944506683 163 114 97 255
43.715635448931636 -11.791340852910281 -7.511012760269409 157 110 90 255
43.814323748840437 -10.769251138411988 -7.302891526320195 152 105 85 255
43.913436950391286 -9.745465134886786 -7.093632117610326 143 101 81 255
44.071191911826389 -8.953705299953668 -6.681027552287020 130 96 71 255
44.190346867503365 -8.005310795331525 -6.402681314120542 121 91 65 255
44.174752943800570 -6.507217335468567 -6.593235971667013 115 85 59 255
44.198729324880063 -5.161916250336844 -6.646959080108161 109 84 54 255
44.300323062499217 -4.128303789393840 -6.431118207478647 107 86 55 255
44.344957846200543 -2.855958795513629 -6.414124485299936 103 84 52 255
44.256818814145049 -1.025983500929442 -6.860702647200981 91 82 51 255
41.120857592398607 -13.260250997152895 -12.579390967346200 181 141 124 255
41.781714088521340 -14.366148896577272 -10.451534904777333 178 132 116 255
42.159567351396220 -14.413911333376916 -9.287196269401562 174 126 110 255
42.396510522397534 -13.930218363029297 -8.603010187245104 168 119 102 255
42.672937551904113 -13.601485293861117 -7.783730726647235 165 116 99 255
42.829631453091977 -12.813009138820632 -7.373181144159133 161 114 96 255
43.026031386322217 -12.178608616226740 -6.826945276275609 156 110 89 255
43.084042837666289 -11.002613426022180 -6.754047436301221 150 107 85 255
43.221486544111144 -10.134696676267424 -6.409729373733313 140 101 79 255
43.260923811426892 -8.876545536249409 -6.401238523091195 128 96 71 255
43.320704763475248 -7.693479291367112 -6.323595082546774 119 90 64 255
43.361600407059242 -6.429508773545990 -6.311199976867925 115 87 58 255
43.442213070916807 -5.319604523046223 -6.163117674995135 112 86 56 255
43.523368509290378 -4.207556913806798 -6.013600883743464 110 89 58 255
43.527590491268469 -2.777426452215366 -6.128787088473729 107 86 55 255
43.436221780074476 -0.947365718225569 -6.573286708694894 93 82 51 255
40.852223886271787 -15.236491653793593 -10.449312957205848 181 134 118 255
41.273608671684912 -15.434142622507750 -9.148204847637487 170 125 107 255
41.511288946896499 -14.950298887954602 -8.464352388750143 168 120 106 255
41.708201799401166 -14.314776387148868 -7.917507855340517 166 117 100 255
41.945292006828666 -13.833285327632183 -7.235233527140480 163 116 98 255
42.121737788640331 -13.122252680447957 -6.757113314695431 160 115 94 255
42.258077263718150 -12.256893437429255 -6.414223060991191 153 111 89 255
42.334650291634418 -11.158465581686698 -6.273116941551280 145 104 82 255
42.411755904578911 -10.057903727850004 -6.130577736410459 135 98 74 255
42.489395866765150 -8.955206479331167 -5.986605387816610 125 93 68 255
42.508094380455304 -7.616133334466639 -6.042195916526282 119 91 63 255
42.606743656442461 -6.586800112486571 -5.828062144582219 115 88 59 255
42.686106971859942 -5.477247109310156 -5.679493495874567 113 87 57 255
42.805336068974185 -4.523032321514336 -5.396381668288456 113 92 61 255
42.826853831203579 -3.172753417642184 -5.444461030600593 106 85 54 255
42.731929092950224 -1.343926987551640 -5.887770261322743 90 79 47 255
39.799210363543878 -15.652651917567937 -10.858061500531818 179 136 114 255
40.348070464114514 -16.301297486548208 -9.145804413807269 175 128 110 255
40.648268406341487 -16.045077570781984 -8.257377005166290 169 122 103 255
40.927284483546117 -15.715286191590792 -7.438832253845305 167 121 100 255
41.083053385162856 -14.928691572242258 -7.029263077848981 165 118 100 255
41.259301685072202 -14.218465704322170 -6.551687061992283 161 116 97 255
41.313508853997803 -13.046587295517895 -6.479827462489737 156 114 94 255
41.490047140485089 -12.335186221687593 -6.001460178859418 147 109 88 255
41.545203535277167 -11.159486922452857 -5.927031951444746 139 103 81 255
41.681692756111460 -10.291674900680704 -5.582207059890749 131 96 72 255
41.697677929722246 -8.956038415822206 -5.638951810693897 124 92 67 255
41.754653578259166 -7.773056286292928 -5.559633837510688 116 89 62 255
41.772257630722009 -6.430945710039794 -5.612032860596287 115 88 61 255
41.890500427218413 -5.477854194573638 -5.329236464782952 116 89 62 255
41.989165900401005 -4.444786937697131 -5.112025800506700 113 89 61 255
42.048574802281280 -3.252145824595118 -5.026235419713657 101 80 51 255
41.910733034618431 -1.265360772867496 -5.600024538129759 81 71 42 255
33.836229090025029 -1.318890545446493 -27.097089578956229 138 143 94 255
38.596441542586660 -15.543653355243435 -11.746668930374369 178 137 112 255
39.360285870933950 -16.941242985134920 -9.348490219291506 177 128 111 255
39.808317212658608 -17.213828164955601 -7.982023475533566 173 126 108 255
40.026172407244516 -16.655684998583467 -7.368295375390204 168 121 101 255
40.202306118201776 -15.945963607956770 -6.891065175176522 165 120 98 255
40.337048025056021 -15.083340745068853 -6.549443896617305 163 116 98 255
40.471986456898293 -14.219913148045293 -6.207279517278408 158 113 94 255
40.627697711020431 -13.432609763609065 -5.797088558690291 153 110 91 255
40.742459363535133 -12.490638820577374 -5.521321400926752 141 103 82 255
40.796135636968998 -11.315306888066317 -5.446276680030365 135 99 77 255
40.830041523590467 -10.059812408387927 -5.436543228003899 127 93 68 255
40.885054841970046 -8.879115578878725 -5.357894543374357 121 89 64 255
40.920410507871182 -7.617813200243091 -5.344260981190331 115 88 61 255
40.956521046359271 -6.353494685251064 -5.328603258519536 115 88 61 255
41.074157042686210 -5.400044277961342 -5.045132912635466 114 89 61 255
41.171977036538038 -4.366643860081240 -4.827121182141894 106 85 56 255
41.230063946653161 -3.173719601550090 -4.740274833255057 95 78 48 255
41.088521166995278 -1.186895558123240 -5.311730778694852 75 70 40 255
37.429014461185346 -15.590929991726767 -12.498695174225190 180 137 115 255
38.371199024132096 -17.582278962182812 -9.551267915940002 174 126 106 255
38.738617003278478 -17.548816817733552 -8.457166237280404 177 128 111 255
39.062849388138730 -17.367795843647968 -7.501975085246073 170 123 105 255
39.260101211533254 -16.733793376668871 -6.956597918221178 165 118 99 255
39.457217687937529 -16.100311770762829 -6.411567206086971 163 116 95 255
39.591434843650148 -15.237953728916580 -6.069838617124987 162 116 97 255
39.746715059079719 -14.451477832684532 -5.660063771947080 156 112 93 255
39.860458372648992 -13.510825960392737 -5.384753995974080 149 108 88 255
39.953752233925158 -12.491801437296743 -5.175813034744010 137 99 78 255
39.902542983823679 -10.929663976856659 -5.435153436812357 132 96 74 255
39.914465505706431 -9.595453898245694 -5.490551639798610 122 89 64 255
40.009623552361489 -8.568938656164562 -5.276577003467281 118 88 62 255
40.125745323219206 -7.618738135992032 -4.994851968462996 114 88 61 255
40.139760834417331 -6.276148749246488 -5.044624139817813 115 89 62 255
40.215931533696477 -5.165444469804470 -4.893118854204744 108 85 57 255
40.190764539701277 -3.659266347835285 -5.071038217617598 101 83 53 255
40.146364227145170 -2.069860824982129 -5.312069004233763 86 74 44 255
37.380801044012301 -18.224412707754567 -9.754138009964066 180 135 116 255
37.901034661639855 -18.715588012850560 -8.181649047079247 177 130 112 255
38.098809069646862 -18.080506787424326 -7.635704953709734 174 127 109 255
38.403063345420378 -17.824850207061047 -6.750265103212428 168 123 104 255
38.493942379112184 -16.811916285228222 -6.544857989340755 166 118 98 255
38.670089935159297 -16.102183973270201 -6.067627367921915 163 115 95 255
38.740413898231509 -15.010326384525541 -5.928067875072998 158 113 94 255
38.874576249345367 -14.146328969178569 -5.584949928124047 154 111 92 255
39.029985757667731 -13.358409882788749 -5.174062365953318 146 105 85 255
39.080505757952665 -12.184617134210669 -5.098327831844841 130 94 72 255
39.026957710781147 -10.621645931412814 -5.355524929013995 129 94 72 255
39.016367853953156 -9.208988454380233 -5.475947620226094 123 90 66 255
39.152568772035181 -8.336777457902599 -5.127306815085433 119 90 64 255
39.288974792874214 -7.463756368839540 -4.778123812126495 114 89 61 255
39.384142726800349 -6.433517854432466 -4.561077258070128 110 86 58 255
39.376398620930047 -5.009470627903852 -4.673853152885357 104 84 55 255
39.266563792809421 -3.188311474276134 -5.114231314627432 90 74 43 255
39.055459547819083 -0.966737660654815 -5.879991952331153 73 68 36 255
36.497986175299417 -19.242021444960756 -9.614933022992375 184 136 120 255
37.131411140613750 -20.105317450099733 -7.701082623608386 180 134 115 255
37.480780271602143 -19.998864621221941 -6.679291550473607 176 129 109 255
37.461764038174721 -18.611922253532327 -6.815734445876785 173 127 106 255
37.680880893716491 -18.054410801877765 -6.203312971403506 169 122 102 255
37.813722451152657 -17.193959709203909 -5.862305658970001 166 117 99 255
38.054017056829963 -16.713692243423310 -5.183035078216051 161 114 96 255
38.101379580051969 -15.547076469459398 -5.111270797666464 157 112 93 255
38.170717095134904 -14.454534284385488 -4.970532062730314 150 107 88 255
38.219290548492879 -13.283010818248442 -4.895463387805705 142 102 81 255
38.226031853480961 -11.954766637468992 -4.952572466192180 131 95 73 255
38.127733671085167 -10.236585694765836 -5.341382326462650 128 93 71 255
38.242081660679105 -9.287935237022083 -5.059835973908406 123 90 66 255
38.398880853375758 -8.493513765214630 -4.644436801697793 118 90 63 255
38.576790131248458 -7.776682267426452 -4.162432487248509 112 87 59 255
38.587004062138476 -6.434492385973726 -4.210171471429703 107 85 57 255
38.556270093411115 -4.932051496636234 -4.387719423867225 98 79 49 255
38.338960086278576 -2.717706173677584 -5.155597769446587 86 72 41 255
36.168151260031735 -20.817611167648863 -7.834952769433499 183 137 118 255
36.541926029469280 -20.783951677851661 -6.744639992670443 178 131 113 255
36.739410061517347 -20.152022228441467 -6.201120974325704 174 127 108 255
36.783772597114009 -18.992042109524618 -6.132977345285639 171 125 104 255
36.981358281332845 -18.359623338923768 -5.589116998129043 167 121 102 255
37.178805423837673 -17.727729941684942 -5.045604850039211 164 118 99 255
37.419495916137635 -17.248705289960526 -4.367607840248837 158 113 94 255
37.400206017462068 -15.854373997969788 -4.497772102469781 156 112 93 255
37.425037393861516 -14.609384171385017 -4.491081277586574 148 106 86 255
37.407558741023891 -13.207724224398447 -4.616312931765179 137 99 78 255
37.433985502643083 -11.956285400815517 -4.605282518829057 131 95 73 255
37.418323834290774 -10.547293738163944 -4.725582602427494 127 92 70 255
37.531800730408008 -9.599377590134566 -4.444101747418955 120 87 63 255
37.602973768620501 -8.494787119278442 -4.294543734036552 114 86 59 255
37.717184117187983 -7.543936519262729 -4.011092930778858 105 83 52 255
37.768114347469989 -6.357373644496676 -3.925056253824465 100 80 50 255
37.777401586175031 -5.011490190733412 -3.969165597307722 91 76 47 255
37.492307442366638 -2.561830002635588 -4.931986440133215 74 67 37 255
34.847166466733654 -20.336849345661676 -9.062093300185836 186 140 119 255
35.469376972266687 -21.120216505600041 -7.219066637095466 183 138 117 255
35.778538228516965 -20.861849419798489 -6.334436680904219 178 131 113 255
35.931979935980038 -20.079351377626409 -5.926807355716591 173 126 108 255
35.997129625901408 -18.994552569273708 -5.789866551650420 170 125 106 255
36.150945580405192 -18.210465397218172 -5.381156148960798 168 123 104 255
36.392772615307109 -17.729733824467928 -4.702454605675058 163 120 101 255
36.678099516698268 -17.402705122441404 -3.890117257689582 157 114 95 255
36.700371388123244 -16.161543498410651 -3.884999986928221 152 110 90 255
36.745202395466862 -14.993968542145126 -3.810868884810162 146 105 85 255
36.703609420808078 -13.516595890586785 -4.002389888405474 136 98 77 255
36.706506508898528 -12.188956454689958 -4.057608945755163 131 96 74 255
36.710257581898219 -10.857872147956527 -4.110511022379825 127 92 70 255
36.779664505009023 -9.755750704411071 -3.961896174559968 120 89 64 255
36.849600595026089 -8.651503446393349 -3.811852881453262 112 86 59 255
36.898576682055563 -7.467219117321235 -3.726484999027548 105 83 52 255
36.862449829353920 -5.967845776240267 -3.903216139157166 96 80 49 255
36.827403594515957 -4.464141167746561 -4.077038404942044 85 75 45 255
36.494862897312515 -1.856120737241667 -5.167191083418487 65 61 31 255
33.267416025088238 -19.046591230053423 -11.041750974878596 187 142 122 255
34.370602107930566 -21.384975205649880 -7.761947526837588 188 139 119 255
34.794426493535539 -21.497498496908690 -6.535854028642461 183 136 118 255
34.992613561237036 -20.864746355593610 -5.992091963941505 182 135 117 255
35.101116987137928 -19.931556080389385 -5.719693096267349 177 130 112 255
35.321567076051451 -19.374444715735734 -5.108431255563374 174 129 110 255
35.474940136473890 -18.591253899263563 -4.700186529046107 170 125 106 255
35.650613272673141 -17.883612527587559 -4.224389558616309 166 122 103 255
35.737593226493289 -16.871562138405181 -4.017288791617972 160 117 98 255
35.736537773367957 -15.552457692627968 -4.077106491410973 152 111 91 255
35.824558416871284 -14.536169435863144 -3.867149241042227 148 108 88 255
35.846985970838418 -13.287847694668898 -3.856209421865060 141 103 82 255
35.935998283500282 -12.267538374468216 -3.643544445866809 135 100 78 255
35.894070311268024 -10.782196744870362 -3.828269149708319 128 95 72 255
36.006082348203861 -9.834646792546209 -3.546180321699666 121 90 65 255
36.031270619684562 -8.575191154411868 -3.527752356141264 110 85 58 255
36.013750089779535 -7.156957751060872 -3.639256540910054 103 83 53 255
35.953850258780250 -5.578624493279449 -3.879804744285053 88 73 44 255
35.808661645160072 -3.682217720678011 -4.379869113837856 74 66 37 255
35.471017288104917 -1.072365353073792 -5.465334340922567 28 28 2 255
33.107662759885798 -21.132954152178570 -8.782656097574289 190 143 124 255
33.808976348285881 -22.134266462489052 -6.737364275596917 185 139 117 255
34.166745757810773 -22.024162207349292 -5.717777029908717 185 138 118 255
34.296825693455744 -21.167703423919306 -5.378353283097340 182 135 117 255
34.404466959802306 -20.235235341168419 -5.106015449779136 178 131 113 255
34.580108047519246 -19.527849155593174 -4.630409519423125 172 127 108 255
34.688176504229432 -18.593575777115234 -4.356844817377095 170 125 106 255
34.863919059712373 -17.885705277932175 -3.880901583380222 166 122 103 255
34.994824132366617 -17.025722917389686 -3.539077853728344 160 117 98 255
35.036522516792331 -15.859666094843647 -3.464254239456295 153 112 92 255
35.101145549561650 -14.767590484150560 -3.320970208134526 147 109 88 255
35.210770610700621 -13.826916468897423 -3.043081787675533 143 107 85 255
35.231958849987564 -12.577081038358386 -3.030120098798221 135 100 78 255
35.121106372140915 -10.861038642457800 -3.412892846112015 126 94 71 255
35.122035071557576 -9.526455904046657 -3.461148051796215 118 89 64 255
35.167862375098366 -8.343711239791503 -3.375095410070031 108 86 55 255
35.192361718884911 -7.080540402693401 -3.353167744258741 98 81 51 255
34.976577691021447 -4.955466818066441 -4.051922834179038 85 74 44 255
34.631602395332109 -2.352733494877043 -5.138715760879535 66 64 33 255
31.836345123913063 -20.887939207117711 -9.803947860220916 187 148 122 255
32.660619843700019 -22.251978878085708 -7.415602963320310 190 146 125 255
33.136407463575637 -22.510483631210207 -6.054752017405093 189 144 121 255
33.426968800953503 -22.176794782433348 -5.240162938409156 188 142 119 255
33.579451385815673 -21.395564762603385 -4.832985607921017 184 137 119 255
33.709147359159985 -20.538791710239337 -4.493063340654288 180 133 115 255
33.861834815120517 -19.756641582690747 -4.085252717766139 174 129 110 255
33.991847694462081 -18.898506130830754 -3.744401163946947 170 125 106 255
34.122048346584734 -18.039578137034454 -3.403011147463275 166 122 103 255
34.252438113889440 -17.179856757937443 -3.061082805675397 161 118 99 255
34.270081160819103 -15.937863681358664 -3.052400401209525 153 113 92 255
34.310995790120245 -14.769388027463521 -2.975089851437616 147 109 88 255
34.419975404107234 -13.828562061324931 -2.696674533924693 142 106 84 255
34.484412364371153 -12.732585628842685 -2.550049973846086 133 101 78 255
34.303317747638090 -10.785547329224244 -3.129807592346907 126 94 71 255
34.235521806675948 -9.218527252931096 -3.374799458483324 116 88 61 255
34.213427830771465 -7.801976903441215 -3.484851705039461 104 83 52 255
34.281118876159425 -6.692890469874499 -3.329412063640660 92 76 45 255
33.994938879489581 -4.332764346548117 -4.221702729122228 72 63 33 255
33.490085108606593 -1.180695756042496 -5.762074017013020 49 51 21 255
30.744063028796887 -21.240705362345068 -10.279748178203306 187 150 124 255
31.647048259059304 -22.818650232753214 -7.685554192231450 192 148 125 255
32.126866968944739 -23.073199042236070 -6.323938979395734 191 144 123 255
32.442377776430391 -22.812023308244079 -5.440934635612933 192 144 126 255
32.594732684941960 -22.030490169349861 -5.033427336664431 186 139 121 255
32.747160370478156 -21.248609285028806 -4.625677799109695 186 139 121 255
32.968959422893064 -20.691887769815253 -4.015576908188535 182 135 117 255
33.144416507504133 -19.985360523813426 -3.540566675682356 176 131 112 255
33.204892483035266 -18.900873725647159 -3.400978141166291 170 125 106 255
33.288819077094232 -17.890103571183090 -3.193037466955644 167 123 104 255
33.487554193158516 -17.257913974167565 -2.650081187466981 162 119 100 255
33.594849071909721 -16.321168522089266 -2.373991861240938 152 114 93 255
33.679673953433038 -15.306696778708670 -2.163549518149665 146 110 88 255
33.719478200606588 -14.137125140567150 -2.084642577490996 141 105 83 255
33.759914176765264 -12.964995140316887 -2.004013363666132 132 100 77 255
33.597522527508616 -11.095935568656500 -2.515990709074202 126 94 70 255
33.504405757537015 -9.452469409643413 -2.825915542211391 113 86 59 255
33.435078397849608 -7.881392551019701 -3.066601536870820 101 80 49 255
33.322049631081583 -6.149926318715302 -3.435270241732240 86 72 41 255
32.829827187787572 -3.086255259831660 -4.912699811043439 70 64 34 255
30.442203499527409 -22.796375049146548 -8.500692282427110 190 148 126 255
30.997329158953363 -23.267326110221404 -6.933176306000661 194 151 129 255
31.267983705486671 -22.854278975629057 -6.184478583306600 193 148 129 255
31.679169508057441 -22.889992638016281 -5.030902122510525 193 146 130 255
31.807859944758945 -22.033764937977651 -4.690805555909407 190 143 127 255
32.006908329743808 -21.401522841615190 -4.148000635607644 184 139 118 255
32.205811278633647 -20.769815369549292 -3.605547275936345 181 136 115 255
32.474417543409629 -20.364737804058052 -2.862164644630894 175 130 109 255
32.649641592845370 -19.659172447208562 -2.387804735882554 171 126 105 255
32.639449593059680 -18.347248602545903 -2.447878469017098 166 124 102 255
32.722575701146326 -17.335995165355570 -2.239040594133229 161 119 97 255
32.690792330028231 -15.941833796994501 -2.361578077847952 153 115 92 255
32.890054494631698 -15.308466984166927 -1.817976251619626 147 109 86 255
32.905547312719506 -14.062128105053091 -1.804364322493200 142 106 82 255
32.967579736098614 -12.966606973386973 -1.656621251003514 132 101 73 255
32.847376906597546 -11.251944529735795 -2.034721656333630 126 95 67 255
32.819734133536286 -9.841032776501550 -2.145985668422895 113 88 58 255
32.679377484342211 -8.038398216655480 -2.582702715338229 100 80 49 255
32.291043457397777 -5.374006629527116 -3.735439583188622 85 72 41 255
