ply
format ascii 1.0
element vertex 653
property float x
property float y
property float z
property uchar red
property uchar green
property uchar blue
property uchar alpha
end_header
-11.258769365656150 -25.695414606450143 -17.221352832709805 215 177 158 255
-11.679300039597024 -25.112399155118155 -17.166171935284190 213 175 156 255
-11.805385555579846 -24.439398435182426 -17.152320202465170 212 175 157 255
-12.618200856079966 -23.984154133630895 -17.042044061724660 217 180 162 255
-13.921326443303030 -23.689761790250500 -16.862895259596407 221 184 166 255
-14.635651696503032 -23.213132229095578 -16.766403221351617 224 187 169 255
-15.447899277302696 -22.772196094568116 -16.656140821513837 225 188 170 255
-15.573518181068494 -22.110974478478710 -16.642310833680597 221 184 166 255
-16.973816754115319 -21.871157870355162 -16.449408028293526 214 177 159 255
-18.275768912162988 -21.606338162030781 -16.270286999146158 211 173 156 255
-19.381374370298147 -21.282792772941377 -16.118723325103645 209 165 154 255
-19.800587976167208 -20.733006238119671 -16.063593431243170 209 165 152 255
-19.729657671073369 -20.018201955255876 -16.077347113308569 207 162 148 255
-19.658747001394886 -19.302918174640951 -16.091108715249398 200 154 139 255
-19.881825417356140 -18.689115716916476 -16.063553131680045 194 148 133 255
-20.692733644601333 -18.281993901059352 -15.953355242874743 194 148 130 255
-21.405500644125595 -17.844711875860895 -15.856941919311147 197 150 131 255
-22.118116369594475 -17.411253603467614 -15.760538380781014 192 144 125 255
-22.634687310782112 -16.911479967788125 -15.691695517407119 183 134 116 255
-23.151150274597768 -16.414442471409686 -15.622863350360802 180 129 111 255
-23.863356262579487 -15.991351125354214 -15.526491774742325 183 132 114 255
-24.183753065890528 -15.428559118865294 -15.485232876409746 189 133 116 255
-24.308277494527658 -14.795118072147247 -15.471536783193180 187 133 116 255
-24.824353458636324 -14.307903627228583 -15.402751967102638 184 132 113 255
-26.906442457561752 -14.410382863813780 -15.113573470637284 181 130 109 255
-32.805080665794435 -15.965486406535689 -14.287163831099960 201 150 129 255
-36.451628364548100 -16.696777226042428 -13.777598796516877 201 151 133 255
-39.216730329860837 -17.110573934219119 -13.392023896711954 196 148 135 255
-40.415799193161860 -16.935232249160663 -13.226870218407363 202 154 147 255
-40.929809848782867 -16.500114187268096 -13.158159791423202 198 153 150 255
-41.834987312309067 -16.220902258362841 -13.034360827841667 103 59 57 255
-44.304891968506467 -16.563722905623095 -12.690162155727652 195 152 147 255
-46.285278708633541 -16.725791240057006 -12.414855013269964 201 155 147 255
-47.091807005796682 -16.429258069608537 -12.304873365507376 198 151 141 255
-47.898165984636677 -16.137012670813434 -12.194906992322828 193 146 136 255
-48.606591366291497 -15.809396777317190 -12.098732502496766 180 132 122 255
-48.923854308325247 -15.325825793021252 -12.057679833452667 159 111 101 255
-49.143312893882950 -14.803636824880599 -12.030421243617234 140 94 88 255
-49.264999564259426 -14.242015247972333 -12.016957580207883 70 33 25 255
-50.754769861519236 -14.251142870178583 -11.810637137519223 27 7 0 255
-51.560246160116662 -13.981287460444676 -11.700770727648720 19 12 0 255
-52.365554615874800 -13.715686743234741 -11.590921799898485 15 12 0 255
-52.486870251906794 -13.163535146372467 -11.577532027695810 17 15 2 255
-53.096561745925641 -12.820913329241108 -11.495275267300499 7 8 0 255
-52.241111769460304 -11.850205677923597 -11.619703519631273 6 7 0 255
-49.628033126212529 -10.112193444948744 -11.992160154819210 5 7 0 255
-53.948428792822313 -11.385753510468305 -11.386402786835561 1 3 0 255
-54.069554614666117 -10.838571078180095 -11.373118813758897 0 3 0 255
-54.288289560832624 -10.334988760545784 -11.346079195855374 0 3 0 255
-54.604601623025985 -9.875811371290254 -11.305283677090433 0 2 0 255
-55.116062054459576 -9.505548246426144 -11.236952821210799 0 2 0 255
-55.139458959342733 -8.917993062462912 -11.237541127688274 0 2 0 255
-56.529007159787341 -8.949741021430228 -11.045239490559741 0 2 0 255
-56.649838427722727 -8.410224648902428 -11.032095066744475 0 3 0 255
-56.380414912997765 -7.691963526138494 -11.074097412017835 0 3 0 255
-56.891459156698716 -7.332385740419070 -11.005883793554716 0 3 0 255
-57.402403700591009 -6.975360357767372 -10.937694260761226 0 3 0 255
-57.133026134943265 -6.256094587293589 -10.979779275775702 0 3 0 255
-58.521511761092000 -6.314812634511313 -10.787607217364986 0 3 0 255
-60.397235378311962 -6.611642819461764 -10.526543740469929 0 3 0 255
-60.907621697546404 -6.268833720289081 -10.458448233383933 0 3 0 255
-56.446193041949329 -3.547749046061156 -11.093299956173887 0 3 0 255
-54.617562169501610 -2.069264651396864 -11.356073609304659 0 3 0 255
-55.639270585766923 -1.360556664634984 -11.220130023086153 0 3 0 255
-56.929510067882035 -1.392086310222680 -11.041924000465265 0 2 0 255
-56.563160418028019 -0.613777470210309 -11.098083649093816 0 4 0 255
-5.995418773406811 -26.977406543898397 -18.675073484491911 210 184 153 255
-7.398149562307140 -26.669259426020275 -18.478271368137555 213 177 158 255
-8.309866291862761 -26.220467753990619 -18.351708139159733 215 177 158 255
-9.712041031567992 -25.926319213428101 -18.154911037864615 211 174 155 255
-10.525189167103179 -25.458610108311163 -18.042400461905032 213 172 154 255
-11.534380948199669 -25.056273874583312 -17.901798810295006 214 175 155 255
-12.150958984741806 -24.536455248617770 -17.817389437073423 214 178 158 255
-13.257845349871474 -24.175050280889138 -17.662748788408216 217 180 164 255
-13.972182739875336 -23.694534610189166 -17.564301070564085 220 183 167 255
-14.588300093207692 -23.186331061430906 -17.479905325601031 222 185 169 255
-15.400397517420458 -22.745104660397729 -17.367421142489498 221 184 168 255
-16.114275248550939 -22.276183452138767 -17.268989868950136 215 178 162 255
-17.220137897835912 -21.940585749978808 -17.114377649626483 212 175 159 255
-18.129714573145890 -21.545729555723327 -16.987866198295364 211 174 158 255
-18.843069843619475 -21.089990825786259 -16.889455745833054 212 171 155 255
-19.066261494914841 -20.472216450635401 -16.861286778139153 212 171 153 255
-19.387399813372070 -19.889031736516131 -16.819079055125080 207 165 148 255
-19.708471989190741 -19.307526650093308 -16.776879838266574 203 160 143 255
-20.225418354326109 -18.795670027421139 -16.706596273331861 199 154 135 255
-20.742256035902329 -18.286565214080241 -16.636322259629473 197 150 131 255
-21.454882471023581 -17.849260280875100 -16.537964976914296 197 150 130 255
-21.971481906609625 -17.346186962137963 -16.467711482240226 188 140 120 255
-22.781754756120108 -16.951050495110863 -16.355329032112998 178 130 110 255
-22.808523760267860 -16.277584677656080 -16.355331041650963 175 124 105 255
-23.422726645456407 -15.817784097549065 -16.271065127242586 173 122 103 255
-23.449430577989176 -15.145999847183205 -16.271091418729632 181 125 108 255
-24.063440103115596 -14.691110000523807 -16.186850667908985 185 128 109 255
-24.579447534224272 -14.203063695322612 -16.116669832283229 185 128 109 255
-25.976113513514889 -14.047891337042586 -15.920082306360236 180 125 105 255
-30.308042801890025 -15.008909805862558 -15.302106013674162 193 141 121 255
-35.519601445714812 -16.328690080686243 -14.557720221135888 203 152 133 255
-38.871241817422543 -16.964687312237800 -14.080234637945672 202 154 142 255
-40.265755524634443 -16.863757254088767 -13.883698583444136 210 162 157 255
-40.975305896444411 -16.504141708408881 -13.785505190798276 131 85 85 255
-42.662692390254449 -16.531321911765318 -13.546856992907877 97 54 55 255
-44.838654660346521 -16.760522692355011 -13.237987571340387 205 164 162 255
-45.840822739627072 -16.535463201831917 -13.097697530519245 198 152 146 255
-46.940544749475947 -16.354887122683550 -12.943375869804900 197 150 140 255
-47.746766491125840 -16.062070788876596 -12.831211943771699 193 146 136 255
-48.650564028200392 -15.813189186877466 -12.705017167198342 181 133 123 255
-48.967766770067129 -15.329594578564851 -12.663124405580390 164 116 106 255
-49.187184903185852 -14.807383218550072 -12.635297742936089 134 85 80 255
-49.308850868727461 -14.245740455237524 -12.621538010212841 89 51 45 255
-49.235095245001162 -13.603119972503507 -12.635894034342641 30 10 1 255
-50.919805427790692 -13.697924477631460 -12.397405414427663 26 20 4 255
-52.115752567827087 -13.595485451392165 -12.229173896597395 13 12 0 255
-52.334749733548080 -13.084042346269484 -12.201444081089413 10 10 0 255
-52.944344144150932 -12.740849007831400 -12.117541186987111 6 7 0 255
-53.065573673015649 -12.190407861773537 -12.103902429565675 5 6 0 255
-52.405687588928714 -11.301607639348219 -12.202678036135513 3 5 0 255
-53.307983885223223 -11.090879371733379 -12.076693140940783 1 3 0 255
-55.674330732512260 -11.528293462164100 -11.739987400477183 0 3 0 255
-56.478484921935205 -11.287980395059890 -11.628089257696637 0 3 0 255
-55.818557443628379 -10.400396074407183 -11.726960160316509 0 2 0 255
-55.353954325524370 -9.596316766656358 -11.797759627485718 0 2 0 255
-54.401601396149886 -8.569545338749776 -11.938839601150633 0 2 0 255
-55.010464150668355 -8.245133327735999 -11.855140926307065 0 2 0 255
-55.911858921385090 -8.057373684103666 -11.729313075777782 0 3 0 255
-57.105688955526830 -8.008696182308384 -11.561353654294741 0 3 0 255
-55.080786661333065 -6.479538261291026 -11.857116818977779 0 4 0 255
-53.934016187639770 -5.346789889968917 -12.026455151073549 0 6 0 255
-56.200299225167754 -5.803270726150146 -11.704002346607908 0 3 0 255
-58.856084298102729 -6.455511941287753 -11.325352827318156 0 3 0 255
-61.706268717018446 -7.214485953307545 -10.918607711241037 0 3 0 255
-62.411368966535576 -6.967983341784503 -10.821044744185741 0 3 0 255
-56.488709471356259 -3.550786098514905 -11.679162477585848 0 3 0 255
-53.198641210478712 -1.368014219309657 -12.157899191591820 0 3 0 255
-53.612166134847513 -0.961078561475532 -12.102622851591164 0 3 0 255
-55.584535992593089 -1.316015353132386 -11.822495973002056 0 3 0 255
-57.264219160725361 -1.538288613523832 -11.584551507999063 0 3 0 255
-56.508274093987382 -0.568614146380540 -11.698024996965245 0 4 0 255
-6.538572827918927 -27.128007826677930 -19.326710530424691 190 196 146 255
-7.254040320040019 -26.615441136579051 -19.226286096645673 209 179 153 255
-8.067475429246656 -26.136427612004937 -19.111544678348444 207 171 151 255
-9.076957459450512 -25.721708205561484 -18.968168016479972 206 170 150 255
-10.184321500137230 -25.342698581077101 -18.810475941895540 208 170 151 255
-11.487625402671370 -25.030679626426746 -18.624150315784526 211 174 153 255
-12.398329981784030 -24.602806982588774 -18.495104660466971 212 177 156 255
-13.406906361982720 -24.210903779517096 -18.351745124487771 215 180 160 255
-13.924976397932681 -23.668072292463705 -18.279984228788351 217 182 163 255
-14.933170797604873 -23.285799372136978 -18.136635727574372 219 184 165 255
-15.941147639503754 -22.909011593150936 -17.993293617478386 218 183 164 255
-16.948907107478419 -22.537705181782584 -17.849958363641306 212 176 158 255
-17.270346080165581 -21.945324316763603 -17.806859235412169 209 174 155 255
-17.885730349488000 -21.452540447424695 -17.720812082999437 211 175 157 255
-18.207003727593559 -20.864352616031823 -17.677727653656454 214 175 158 255
-18.626193233948470 -20.311025719013188 -17.620333003509657 216 175 157 255
-19.143266863533171 -19.793366134277917 -17.548628775840704 212 171 153 255
-19.660231499581613 -19.278465529805672 -17.476933756607465 209 166 149 255
-20.079136934726876 -18.732335719396389 -17.419566559372740 204 159 140 255
-20.595894869299229 -18.222671762943023 -17.347891386212360 199 153 133 255
-21.406331205817366 -17.819327743700384 -17.233272698243276 196 149 129 255
-22.216594961875671 -17.420346303550872 -17.118665317959632 185 137 117 255
-22.537148860851886 -16.850403958778514 -17.075659771122204 173 125 105 255
-22.466050731100637 -16.140782795809614 -17.089938257350404 170 119 100 255
-22.884403885960324 -15.608672401730431 -17.032639243967509 166 115 96 255
-23.302671053303641 -15.078749275662645 -16.975353309124479 171 116 98 255
-24.014446242017357 -14.659438354043886 -16.875126993323924 175 118 99 255
-24.628217640122443 -14.207511873533917 -16.789232699544073 175 118 99 255
-25.241860782834806 -13.758838651817015 -16.703352899976785 173 118 98 255
-27.714192042057164 -14.015509733548853 -16.345445692926674 175 123 102 255
-33.903212738939345 -15.700118342068649 -15.443467362598390 208 156 140 255
-38.232474563425285 -16.706373019852080 -14.813544676631828 203 155 141 255
-39.333385418533538 -16.490228850977019 -14.656132577608439 194 147 142 255
-40.140693185156692 -16.165918384449057 -14.541690437214328 135 92 91 255
-42.903407054877448 -16.611937663730060 -14.140900287940291 105 67 64 255
-45.078913643333749 -16.841622446342981 -13.826033843739928 199 158 154 255
-46.080862139191765 -16.617067588778482 -13.683002193383793 194 152 141 255
-46.984851752461879 -16.358772858567235 -13.554305572879095 191 146 134 255
-47.986386647702972 -16.144685159534305 -13.411307546548386 189 141 129 255
-48.792259370533969 -15.856658652715566 -13.296963895490535 181 132 120 255
-49.402534520182257 -15.493069728899016 -13.211275501258065 162 115 105 255
-49.719573026419368 -15.012104561466984 -13.168562135705368 138 93 85 255
-49.743471733278653 -14.411329334204069 -13.168825240618567 125 87 79 255
-49.181280878623170 -13.566120416148905 -13.255023531530966 42 18 8 255
-50.865666743926823 -13.660605299080132 -13.011904009680435 28 20 4 255
-53.233316754238558 -14.053090966959232 -12.668566369663310 15 13 1 255
-53.061555855607850 -13.378433656878272 -12.697550102075546 7 8 0 255
-53.573317313987502 -12.995288369412052 -12.626319800989155 4 4 0 255
-53.401576782849588 -12.320203475599143 -12.655349865993816 3 4 0 255
-54.010826413235577 -11.982750191897281 -12.569844466815823 2 4 0 255
-53.741489577252992 -11.264864799906917 -12.613243045267421 2 4 0 255
-56.595302567968702 -11.917748277155411 -12.198414228858340 1 5 0 255
-57.301617118992993 -11.636669338010250 -12.098652272406014 1 5 0 255
-56.739315946050027 -10.794663806027870 -12.185084286584612 0 4 0 255
-56.372278358543383 -10.036700619429368 -12.242903250763785 0 4 0 255
-55.029801880755372 -8.836735654754776 -12.443965103283361 0 3 0 255
-56.028652056274950 -8.690878312049108 -12.301342118096734 0 3 0 255
-57.027294231650558 -8.550295206943773 -12.158741664449149 0 4 0 255
-57.635645156190463 -8.235848763091269 -12.073452926983535 1 4 0 255
-57.366283997938041 -7.519016810133124 -12.117092650290061 2 5 0 255
-54.757012758313778 -5.712614326809600 -12.504513333903361 4 7 0 255
-55.170476501118685 -5.304884405925321 -12.447962522150156 1 4 0 255
-58.118283533557673 -6.091675268414505 -12.019026884779926 0 5 0 255
-57.849043875291159 -5.372014990028461 -12.062791372793107 0 4 0 255
-57.018452251914425 -3.787219437179928 -12.193398019088335 0 3 0 255
-53.631565555308640 -1.558867537554036 -12.695673610717915 0 3 0 255
-53.168157061833767 -0.727978857477979 -12.768245734900802 0 3 0 255
-56.309143710231865 -1.651419713351842 -12.310794256081603 0 3 0 255
-55.845573923299469 -0.824704058032836 -12.383429251340747 0 4 0 255
-6.717551766950180 -26.444120802237151 -20.033703644172427 185 188 141 255
-7.530890096422297 -25.963467830891730 -19.916737004114545 195 172 142 255
-8.638327666652231 -25.577035844986042 -19.756001458528061 199 167 147 255
-10.137848928230085 -25.317455941618832 -19.536907727162820 203 167 148 255
-11.342833829229903 -24.974667155601082 -19.361590984093446 207 170 151 255
-12.057260267007166 -24.484749436938770 -19.259231795423844 209 172 153 255
-12.967630536018021 -24.060729989535929 -19.127696970079192 212 175 156 255
-13.877804417350603 -23.641662168460513 -18.996168041037272 213 178 159 255
-15.375945655351956 -23.416856823731990 -18.777104434821034 215 180 161 255
-15.893596791025061 -22.882012130193104 -18.703949659971236 215 180 161 255
-16.705155325576783 -22.446225112252407 -18.587031564349502 210 175 156 255
-17.026564303923948 -21.853021445578619 -18.543070910687973 210 175 156 255
-17.445890885636231 -21.294143252665606 -18.484527856780254 213 178 159 255
-17.767155830264528 -20.704591733329664 -18.440582750682630 218 179 162 255
-18.284280159385816 -20.183071621569468 -18.367466693022230 218 180 161 255
-18.997199695604252 -19.731199182145957 -18.265180587229146 217 176 158 255
-19.807908835428293 -19.316877690986047 -18.148314913233115 215 172 155 255
-20.030860607781904 -18.703035152999306 -18.118997272584416 208 165 146 255
-20.743368114702662 -18.261586266642638 -18.016742566109663 204 157 137 255
-21.651542895250770 -17.893008477552385 -17.885320435010748 197 150 130 255
-22.559523723899048 -17.529332490385386 -17.753910457195978 184 137 117 255
-22.684208252418415 -16.890057907944112 -17.739228183575342 173 125 105 255
-22.710993700572658 -16.216027499184833 -17.739147786017142 168 117 98 255
-22.933511556304069 -15.613232788919163 -17.709901753809397 157 106 87 255
-23.449553338769960 -15.119159992278384 -17.636901484886302 161 106 86 255
-24.161177824282930 -14.700091767096481 -17.534736959348507 165 108 88 255
-24.481315654397065 -14.139176168914560 -17.490944422236787 164 107 87 255
-24.801389645471716 -13.579894655312671 -17.447167170309733 165 109 88 255
-26.099527607038596 -13.391748756882933 -17.257512923961485 154 102 81 255
-31.309469122780484 -14.699438329732331 -16.484303236413886 194 143 124 255
-36.518275049014676 -16.035725518001428 -15.711108744693298 205 157 142 255
-38.596966740677601 -16.192288365469651 -15.404787444491738 211 164 155 255
-39.893050631056354 -16.055936833036668 -15.215197044786827 140 97 93 255
-42.459726176225132 -16.424480826080980 -14.835961200224773 145 107 102 255
-44.928097500719844 -16.768467896807593 -14.471330595401952 182 139 133 255
-45.832131731347999 -16.504498569577805 -14.340147794761954 192 149 136 255
-46.833702196618077 -16.284468843075956 -14.194393211540891 187 140 128 255
-47.932776911112427 -16.109183640685785 -14.034066963959724 182 134 120 255
-48.738501919038526 -15.820853817165315 -13.917527952421779 177 130 116 255
-49.544058285695030 -15.536801372255383 -13.801007842334975 158 113 100 255
-49.567974029441075 -14.935515497438587 -13.801226148771555 133 91 81 255
-49.982586476215346 -14.496011967724385 -13.743105734056165 83 46 38 255
-49.615816420039920 -13.732787455876434 -13.801727216736737 69 45 33 255
-50.030350819354879 -13.295326791181211 -13.743650114686162 25 15 1 255
-52.885830358985714 -13.891660170864029 -13.320835237641568 11 9 0 255
-54.178606131666839 -13.838973734947771 -13.131483855746829 8 9 0 255
-54.104433160875828 -13.207918670427105 -13.146421853487684 4 5 0 255
-54.518330869704698 -12.786632472971874 -13.088430091416910 1 2 0 255
-55.322540200180072 -12.536812847579256 -12.972097497470745 0 2 0 255
-56.516932364210874 -12.461696468662069 -12.797422188466427 0 2 0 255
-56.149847006821346 -11.706747270544128 -12.856230890405580 0 3 0 255
-56.758511946577471 -11.381121062013818 -12.769150961038868 0 3 0 255
-56.586613663593937 -10.711193749832972 -12.798830289246158 0 3 0 255
-56.707397942068042 -10.171167221997337 -12.784761571526865 0 3 0 255
-55.950365897766886 -9.235827915145165 -12.902051848352773 0 5 0 255
-56.656354711494515 -8.959639602664922 -12.800485123358506 0 6 0 255
-56.387080449478958 -8.241991536918349 -12.844873128103931 0 6 0 255
-57.190391906020977 -8.015175928581982 -12.728767085196083 1 4 0 255
-56.531182724343296 -7.116755713438423 -12.831589698319910 2 4 0 255
-56.554490425169973 -6.531651053980411 -12.832290666777727 0 3 0 255
-55.895525012163830 -5.627225117749589 -12.935182722688012 0 3 0 255
-56.308758388911770 -5.223349789855590 -12.877571763422850 0 3 0 255
-58.281070895277225 -5.559638359149091 -12.586471879327416 0 3 0 255
-58.693977903728012 -5.164073379219971 -12.528915204682349 0 3 0 255
-57.181607067493417 -3.252086930399244 -12.764201372883296 0 3 0 255
-57.302333280172746 -2.714263318834071 -12.750537943077667 0 3 0 255
-57.228262623243978 -2.081783321585092 -12.766103555986369 0 3 0 255
-8.297961372350414 -25.462361449278120 -20.531641804630688 190 170 140 255
-9.895287892961164 -25.231867842911598 -20.293560545893918 195 165 140 255
-11.296166237177488 -24.949180973258891 -20.085210049877340 204 167 148 255
-11.520263331054309 -24.305275934771515 -20.055210872424055 204 169 150 255
-12.430517436671295 -23.879613313022588 -19.921182445185352 203 170 151 255
-13.830666723819974 -23.615303700851399 -19.712851192783710 209 174 155 255
-14.838482261200483 -23.232441437753167 -19.563974996745507 215 180 161 255
-15.552089848116964 -22.759601493441480 -19.459691496765565 214 179 160 255
-16.363530682091039 -22.322712124623038 -19.340554054825972 211 176 157 255
-16.978846603835308 -21.825497587422930 -19.251147896962308 211 176 157 255
-17.594031474941744 -21.331595615407210 -19.161750215725341 215 180 161 255
-18.209085476098750 -20.841002615611984 -19.072361531552595 221 184 166 255
-18.628122378364338 -20.287373237949794 -19.012704796928567 221 183 164 255
-19.047071678193788 -19.735965594111278 -18.953057774715433 218 179 160 255
-19.465933559577536 -19.186776037843202 -18.893421001616424 215 173 155 255
-19.884708209399918 -18.639800849290125 -18.833795013899966 210 167 148 255
-20.890797681280787 -18.300539672825607 -18.685014817201150 206 161 141 255
-21.896671632758370 -17.966723775720254 -18.536247235310121 197 150 130 255
-22.902330265578087 -17.638348905659882 -18.387492717886481 186 138 118 255
-22.929092344525088 -16.964809123178057 -18.387359173672266 176 128 108 255
-23.151568791134650 -16.361965085483760 -18.357517212012588 169 118 99 255
-23.374002075897437 -15.760232102987047 -18.327688994776089 157 105 86 255
-23.889900340281628 -15.267214922210343 -18.253293230497398 156 101 80 255
-24.307866270049203 -14.740779805569588 -18.193773112512453 156 100 77 255
-24.530117706817492 -14.143703776913341 -18.163989637366562 157 101 78 255
-24.654523010336419 -13.511042701207330 -18.149082677329396 158 103 80 255
-25.463459291524259 -13.137573079557754 -18.030168514808132 152 100 78 255
-28.521219479624136 -13.624452854976937 -17.569479433418870 149 98 77 255
-34.413693750009799 -15.215222250235527 -16.677852571282095 205 158 140 255
-38.349664191884131 -16.083199246331404 -16.083453362394216 208 160 148 255
-39.743273214575566 -15.984025149308124 -15.875445385680784 160 117 109 255
-40.941104829853657 -15.815797156945877 -15.697176335231163 146 108 100 255
-43.506883499551520 -16.193972046428186 -15.310876864288282 106 66 58 255
-45.094926468633759 -16.197781827842277 -15.073201204594433 182 138 125 255
-46.194092183936903 -16.014663585342575 -14.909847255430613 177 130 117 255
-47.586114243867002 -15.955581213642304 -14.701929959940664 173 125 111 255
-48.587095471229730 -15.745431226663825 -14.553474802237098 168 124 108 255
-49.392515030576249 -15.460804258243158 -14.434761086234559 138 98 83 255
-49.709444439222466 -14.979516784118232 -14.390372615959684 93 56 43 255
-50.514581208052135 -14.702080163394371 -14.271700269892399 72 38 29 255
-51.221907179015318 -14.388179931616733 -14.167910131702534 53 31 18 255
-51.245661877327422 -13.791023288696266 -14.168170799204837 36 24 10 255
-53.124227735402712 -13.977860831620617 -13.886087731244224 18 12 0 255
-53.831061995220921 -13.676450600757775 -13.782362727525637 12 10 0 255
-55.318550055823039 -13.713195621875442 -13.559766434638910 5 5 0 255
-55.439472373337708 -13.168889458046905 -13.545257087749548 4 4 0 255
-55.950692238901468 -12.794422541592141 -13.471324744751961 2 4 0 255
-55.681268837458191 -12.081629016720512 -13.516314843509825 2 4 0 255
-54.924131284404098 -11.152679433154532 -13.635645187670889 1 5 0 255
-55.435272091570766 -10.780345719412210 -13.561791605446068 1 5 0 255
-55.653705595127690 -10.280320218406374 -13.532552567012672 0 5 0 255
-56.749824499124657 -10.174540909172222 -13.369573044797193 0 4 0 255
-56.383005622511774 -9.415059355440249 -13.429567965801425 0 5 0 255
-57.381323542812595 -9.272629930407092 -13.281503642743530 0 5 0 255
-56.819556527765116 -8.423321769774162 -13.371286917003999 0 4 0 255
-56.647852932181621 -7.749744070030061 -13.401647673777454 1 3 0 255
-55.988846931569867 -6.849679126187311 -13.506363839695631 1 3 0 255
-56.694440123328917 -6.580169845861235 -13.403008844656448 2 5 0 255
-55.743255098628538 -5.539215150338833 -13.552390230400121 1 4 0 255
-56.253871003669076 -5.180622602973472 -13.478829056316201 0 4 0 255
-57.251526471053182 -5.055233384706426 -13.330968914902094 0 4 0 255
-58.443809364412061 -5.027891213104240 -13.153403315300821 0 3 0 255
-57.882535502837726 -4.166683785777963 -13.243463910507920 0 3 0 255
-58.003168052000149 -3.630658200101351 -13.229495496479508 0 3 0 255
-59.974092414517969 -3.992136539669957 -12.933079307701277 0 3 0 255
-56.004810242975452 -1.467316937397442 -13.543630246834930 0 3 0 255
-10.633255021564480 -25.448314440802747 -20.900455683148500 180 180 137 255
-10.857409412433412 -24.801876164533738 -20.869860244705080 190 169 139 255
-11.375577690457334 -24.248825594192837 -20.793867979884801 198 168 144 255
-12.775719486626627 -23.977641392259855 -20.581679153371788 200 168 145 255
-14.273556316325482 -23.745388412093561 -20.354365157026102 204 172 151 255
-14.791189461317799 -23.205838703574216 -20.278393475618209 208 176 155 255
-15.112758230178912 -22.605433807785630 -20.232695407790040 209 177 156 255
-16.120025010591036 -22.231349136351668 -20.081072920256943 209 177 156 255
-17.322986203906453 -21.927458580580790 -19.899193852702162 211 179 158 255
-17.742127895157495 -21.369089212454782 -19.838388182861074 218 185 164 255
-18.552918682489434 -20.944543928821503 -19.717060547475192 224 187 169 255
-19.167688899950747 -20.458045479914333 -19.626008778188528 221 183 164 255
-19.782328684075992 -19.974848014990485 -19.534967642445487 217 179 160 255
-20.005229907912280 -19.360112318656135 -19.504467622217426 217 176 158 255
-20.032304145224430 -18.678553021946669 -19.504243382020562 216 173 154 255
-20.842422260585181 -18.271033913541203 -19.382971848225971 210 164 144 255
-21.750237734283871 -17.902398600941567 -19.246581186720825 202 155 135 255
-22.657859411529273 -17.538664103955156 -19.110204275751833 190 143 123 255
-23.076045142359902 -17.004534707608343 -19.049502042404228 180 132 112 255
-23.494144692541227 -16.472599218681182 -18.988813860017437 172 121 102 255
-23.814331237251025 -15.907255543907453 -18.943272244228304 159 108 89 255
-23.938820837561735 -15.271822256470273 -18.928009499656703 156 102 78 255
-23.867678028572129 -14.564676270437388 -18.943025912481879 151 95 72 255
-23.992146815651637 -13.929824036720049 -18.927794530129468 149 93 68 255
-24.409947235501875 -13.405557150462343 -18.867184402778364 148 93 69 255
-25.414303285394197 -13.105140137282973 -18.715801069271713 144 92 68 255
-27.102784891118318 -13.070641336378955 -18.458513672763473 139 87 66 255
-31.821214581450278 -14.207398521594143 -17.732161159603017 185 137 117 255
-37.711511444701273 -15.823127189106543 -16.824247104997262 204 157 141 255
-40.179954570694946 -16.140308018050135 -16.445962536197541 198 154 142 255
-41.377505897331304 -15.973118603417234 -16.264409367050412 177 139 128 255
-42.867929188843164 -15.928083873583660 -16.037480050857020 109 66 57 255
-43.674144560942068 -15.619272319356625 -15.916492613460207 174 130 118 255
-45.554754763416639 -15.744909762169044 -15.629074987126700 166 122 107 255
-47.141929385187439 -15.762643457722419 -15.387072382057063 158 114 98 255
-48.826429836560465 -15.828620821793422 -15.129957610724823 148 108 91 255
-49.631669747978634 -15.544497883265393 -15.009050695859521 98 63 47 255
-49.948517898405498 -15.063722672616890 -14.963825463127101 77 46 31 255
-50.948743125330793 -14.867698789639874 -14.812697508755534 65 37 26 255
-51.753511125146673 -14.595567713461051 -14.691855722541256 49 30 16 255
-52.850948987041221 -14.450678420649993 -14.525639145939536 36 23 10 255
-52.776934003561763 -13.816486055447143 -14.541034517623636 22 16 2 255
-53.971628296773275 -13.721632682928259 -14.359731057227116 16 14 0 255
-55.166069671282514 -13.633183178223675 -14.178449879394407 7 7 0 255
-55.091854624040366 -13.004159560600172 -14.193919219040247 4 5 0 255
-54.529872708219642 -12.162782002668223 -14.285081012636986 3 5 0 255
-54.650861640958851 -11.616374484981193 -14.270339322221858 3 5 0 255
-54.674297838561642 -11.027521425217131 -14.270758685508333 2 6 0 255
-55.185372841759346 -10.654340637429144 -14.195538273249106 1 5 0 255
-55.403799628698380 -10.153472182367253 -14.165746554161537 0 6 0 255
-55.914705160052478 -9.784656067126420 -14.090581307392483 0 6 0 255
-55.743050764269697 -9.110650768380779 -14.121384563356642 0 6 0 255
-56.838731544709475 -9.010519355605325 -13.955469603575899 0 5 0 255
-56.569565848998081 -8.293090098730715 -14.001468886185762 0 4 0 255
-56.787782272539658 -7.797786623437830 -13.971826018443572 1 3 0 255
-56.421257365190570 -7.033118800130353 -14.033027725183977 2 4 0 255
-56.931790231377903 -6.674008908634519 -13.958042988495720 0 2 0 255
-57.149935664689849 -6.180669706758593 -13.928497480624948 0 2 0 255
-56.686116188812349 -5.367208828696945 -14.004940847253103 0 3 0 255
-56.612046072868623 -4.735391280505965 -14.020875698485455 0 3 0 255
-57.511978797910814 -4.566886587666730 -13.885474707573884 0 3 0 255
-57.048318976443966 -3.749615102017486 -13.962030620206271 0 3 0 255
-56.316085582408590 -2.200758847999580 -14.084990768673961 0 3 0 255
-54.295100205418379 -0.615430559410086 -14.403896812336221 0 3 0 255
-10.250961538740455 -23.885070133346431 -21.687616404284988 181 181 138 255
-13.022808440869113 -24.044698681817749 -21.255904270573346 194 171 141 255
-15.304156754598864 -24.063163079567616 -20.901230151042689 201 172 148 255
-14.841899082936692 -23.210832661644517 -20.977904653287432 205 173 152 255
-15.261363206447726 -22.642231891203593 -20.915941407237696 207 173 152 255
-16.562259649958889 -22.364651208052862 -20.715344597798151 208 175 152 255
-17.275258708642639 -21.900025010679315 -20.607185558863556 211 179 155 255
-17.792254804852035 -21.373996336880325 -20.529845088869315 219 185 163 255
-18.700799889602109 -20.982323554772108 -20.390897562812405 223 186 168 255
-19.707053926180038 -20.628741973501263 -20.236557325598831 221 184 165 255
-20.419412442848255 -20.180309586936090 -20.128441268819536 219 181 162 255
-20.837972134481276 -19.634592794483680 -20.066548902484193 219 178 160 255
-21.060701368721652 -19.023135214291003 -20.035476015808953 219 176 158 255
-20.989803702944243 -18.310066829516131 -20.050626266056163 212 167 148 255
-21.701728448857978 -17.872638333426380 -19.942559825161290 203 158 137 255
-22.511341877695884 -17.473817172656368 -19.819104058295004 194 147 127 255
-23.418612031702196 -17.114408780987603 -19.680259742529948 187 139 119 255
-23.445326164919777 -16.441955914512093 -19.680061025113567 179 128 109 255
-23.765462231400392 -15.876321816800981 -19.633667187026838 165 114 95 255
-23.792144124519325 -15.204735362049291 -19.633498670970553 161 107 83 255
-24.014398132179650 -14.605442590129655 -19.602539819541839 153 97 74 255
-24.041059353319696 -13.934435964489509 -19.602403937769090 149 94 68 255
-24.458779200700178 -13.410144251313497 -19.540673131980974 143 89 63 255
-25.365183005659759 -13.072745674217529 -19.401945543889532 139 87 63 255
-26.662367134620183 -12.889067654920666 -19.201625196105603 139 88 65 255
-29.034329341879754 -13.124736069138066 -18.831892284953959 125 76 54 255
-35.216920560095645 -14.845775810132338 -17.861465993136200 209 162 144 255
-39.932499451670736 -16.030436271618328 -17.122104596769120 198 155 139 255
-41.716046522438660 -16.092160670124059 -16.844850753729197 187 149 136 255
-41.545421327382712 -15.392301327642429 -16.875675397772604 161 118 108 255
-42.546985789873361 -15.157344648680990 -16.721685790769861 157 113 102 255
-44.720353972075571 -15.396999778120374 -16.382881662993825 168 125 113 255
-46.893253008159661 -15.648495468080554 -16.044098028063495 126 85 71 255
-48.675097027977301 -15.753254495952419 -15.766947041743286 113 78 61 255
-49.577836084459705 -15.508468366764276 -15.628444836984947 58 30 14 255
-50.382760473863499 -15.228310376338342 -15.505367947381522 61 35 20 255
-51.187516915228230 -14.952419170964262 -15.382313698869289 58 36 23 255
-52.382519904486202 -14.843682022258520 -15.197669127990167 46 30 15 255
-52.503748308277437 -14.290439433871541 -15.182484868578179 31 21 6 255
-53.893526954934543 -14.274088277414180 -14.967079781485467 21 17 2 255
-53.917010715968331 -13.683763010294200 -14.967348633255433 15 12 0 255
-54.038060114612080 -13.135162791329023 -14.952240213066091 8 8 0 255
-53.183594762337975 -12.166286626652351 -15.091198140869636 5 6 0 255
-52.329328491594310 -11.192458012698083 -15.230186738212907 4 6 0 255
-52.645601895573066 -10.725033233951763 -15.184355615228164 2 4 0 255
-54.814651319856750 -11.073921199306383 -14.845867782091482 1 5 0 255
-55.130603902499814 -10.614665048554230 -14.800089760504250 0 4 0 255
-54.666530001387287 -9.809521523136468 -14.877579782594871 0 4 0 255
-55.079938558356247 -9.394808857361227 -14.816456967649550 0 4 0 255
-55.200844648474913 -8.850237628052867 -14.801579876806457 0 4 0 255
-56.686229621877743 -8.925378079182082 -14.571055921883080 0 4 0 255
-57.391675266382407 -8.652445244268065 -14.463803713076643 0 4 0 255
-57.609767080496681 -8.159271159187654 -14.433611622647391 2 4 0 255
-56.463784124129546 -7.036358438673105 -14.619142826106689 2 4 0 255
-57.266481799757116 -6.813163093624240 -14.496580280429264 0 3 0 255
-57.289737105277823 -6.229419680656463 -14.497304764589025 0 2 0 255
-57.313001855836916 -5.645504379816259 -14.498065151099688 0 3 0 255
-59.284041610682863 -5.984041754150212 -14.190705034196476 0 3 0 255
-58.722845425990243 -5.126767266288581 -14.283980985057902 0 3 0 255
-57.772322741763332 -4.079350435091612 -14.438933989837722 0 3 0 255
-56.140536278108328 -2.697690646679405 -14.701797340610547 0 3 0 255
-53.925058775008353 -1.023294470989669 -15.057172032101818 0 3 0 255
-12.611906994559632 -23.192512847983082 -22.038326166289018 188 178 140 255
-12.247993580338971 -22.364165651688865 -22.100632226599039 197 176 144 255
-14.626421365156119 -22.424552659223608 -21.724008487013272 202 172 145 255
-16.122988208827962 -22.209217974345847 -21.488484182979747 205 174 146 255
-16.737983904257050 -21.710864411857997 -21.394055811327945 210 178 151 255
-17.157037504091022 -21.150571724141926 -21.330989262253205 218 183 161 255
-18.457057348085385 -20.888562131796689 -21.126851742811347 221 186 164 255
-19.952564928004534 -20.699966523420400 -20.891376336590518 219 184 162 255
-20.958381975996076 -20.352355076195025 -20.734292251144204 221 185 163 255
-21.376806785284543 -19.807969064973022 -20.671273335183749 219 181 160 255
-21.110180515482625 -19.027970645929088 -20.717993075729872 220 177 160 255
-21.039300066304691 -18.314891670879305 -20.733374109404437 211 170 150 255
-21.848915282096840 -17.911951408467090 -20.607693197629636 203 160 141 255
-22.658358298445336 -17.513371131572299 -20.482027412439997 194 150 131 255
-23.467629319573263 -17.119146655206706 -20.356377274312358 185 138 120 255
-23.689938090586963 -16.517327593951833 -20.324791143006415 177 128 111 255
-23.912203907962862 -15.916617758806254 -20.293220618072212 166 115 97 255
-24.036650009372920 -15.281148986620849 -20.277340789461270 161 108 87 255
-24.063308765625976 -14.610107596791309 -20.277152051618309 152 99 77 255
-24.187723618836060 -13.975487182068136 -20.261306193149231 147 95 73 255
-24.605352258557616 -13.451439734238178 -20.198455542509464 142 90 67 255
-25.316098428044427 -13.040389018372650 -20.088601238069231 139 87 63 255
-26.222142492845478 -12.707545606455014 -19.947418443191516 137 86 61 255
-27.127995044418157 -12.379557919497529 -19.806256145043371 133 81 57 255
-38.024408694399739 -15.274222428538380 -18.066306258075521 208 159 141 255
-40.491578451273710 -15.598543399471581 -17.674424435036450 194 148 132 255
-41.395498163511405 -15.319342267374822 -17.533349035554131 194 151 137 255
-42.396886379120417 -15.083806244842023 -17.376621264357404 175 131 118 255
-44.374545878785426 -15.244656546364240 -17.063174794309113 185 144 131 255
-46.937604713576832 -15.652497753193046 -16.655705626860538 88 50 36 255
-48.133332960360065 -15.519352672092523 -16.467695875675837 69 38 24 255
-49.231190976261132 -15.352730746959537 -16.295382943646374 51 26 11 255
-50.133605769971609 -15.111636458034766 -16.154441499114171 47 29 12 255
-51.231020543620645 -14.956250899349087 -15.982175007999864 55 37 23 255
-51.352364133326091 -14.399534034571872 -15.966675959592401 40 26 12 255
-51.278544282440038 -13.761311651055138 -15.982551537014601 28 20 4 255
-52.863311936634318 -13.823922762854338 -15.731985970779753 21 18 3 255
-53.667327212619909 -13.562850979289806 -15.606841433276827 12 12 0 255
-53.788389098404963 -13.013411501179476 -15.591446222778153 5 6 0 255
-54.494616090046179 -12.716857285579934 -15.482029126985708 2 4 0 255
-54.420542677208118 -12.085261188405795 -15.498039624955034 2 4 0 255
-54.151479327619455 -11.367804828081418 -15.545430407942952 2 4 0 255
-53.005005290939351 -10.262684751648123 -15.733931518756194 0 4 0 255
-54.295975530411852 -10.229783033764164 -15.530576590086312 0 4 0 255
-54.904337896856447 -9.899835419275277 -15.436978913875684 0 3 0 255
-55.317646902848850 -9.485625598700949 -15.374762838007470 0 3 0 255
-55.828332059599035 -9.117416831986390 -15.296901209740348 0 3 0 255
-56.533805429998182 -8.840249366619744 -15.187717176677452 0 3 0 255
-57.044269264293490 -8.477721263889023 -15.109916997454420 0 4 0 255
-56.970098241556542 -7.849100552524291 -15.126211315142534 0 2 0 255
-56.603722049879508 -7.084647331777674 -15.189573681226896 1 3 0 255
-56.140040088388560 -6.272551602681659 -15.268652179442867 0 2 0 255
-56.650377259580523 -5.913462118179567 -15.190989609910496 0 2 0 255
-58.134410071331729 -6.015499835363485 -14.956576339582568 0 3 0 255
-59.910234579336816 -6.263879445782635 -14.675153464622319 0 3 0 255
-63.340762749513686 -7.310656055682273 -14.127208408517085 0 3 0 255
-58.496051219347407 -4.409061375956981 -14.912041402209873 0 3 0 255
-54.625793551906810 -1.949576108487747 -15.540155364665857 0 3 0 255
-13.991749855517952 -22.206945492866524 -22.535829461643310 188 184 140 255
-15.194371534019211 -21.893433524094704 -22.344030381539376 199 179 142 255
-15.417766922850348 -21.262946473680032 -22.311717715567589 206 180 149 255
-16.522090730702672 -20.927217569544410 -22.135889141855706 212 184 158 255
-17.626176695635053 -20.597496134930978 -21.960073504025338 217 185 162 255
-19.121482999580707 -20.406430668324546 -21.720483489164252 220 185 163 255
-20.127197221597953 -20.056358802300124 -21.560642718498791 223 187 165 255
-20.643480369110449 -19.543226758792414 -21.480549518730840 221 185 161 255
-20.866158106131962 -18.930927399676236 -21.448309278205372 219 183 159 255
-21.186613566252333 -18.353999351994020 -21.400135787581064 214 174 153 255
-22.191680175552648 -18.020325593914507 -21.240352422402168 205 162 143 255
-22.805331072399497 -17.552959894732027 -21.144370039587066 197 153 134 255
-23.321063465908509 -17.053817317996987 -21.064349638468990 184 137 119 255
-23.445573488413515 -16.416116802752768 -21.048129233522339 179 131 113 255
-23.765598114136992 -15.850169801609368 -21.000033229772335 169 120 102 255
-24.183315938482536 -15.321729083957507 -20.936008595502983 165 113 92 255
-24.405455257049340 -14.723204009829757 -20.903893127987267 155 103 82 255
-24.627552336983939 -14.125774858652832 -20.871795825806835 147 95 73 255
-24.849607399794650 -13.529437237640622 -20.839717333457017 144 92 70 255
-25.169335100892056 -12.971128071189966 -20.791712888268471 141 89 67 255
-25.586703508599072 -12.451652228004335 -20.727783317027402 141 89 64 255
-25.906294711589879 -11.896852447269879 -20.679819992644461 140 88 64 255
-26.616552446581352 -11.494668758001140 -20.568097113302862 139 87 64 255
-37.412062898180153 -14.377482100640137 -18.813980204633928 213 165 147 255
-39.878549329268196 -14.706573012360181 -18.415314197131515 198 154 137 255
-42.735059642065437 -15.204451876266589 -17.952890659409171 189 146 130 255
-44.321778276096609 -15.209652708733216 -17.697777502082253 185 147 134 255
-46.396246294945684 -15.420304691853943 -17.362961607560301 111 77 67 255
-46.713337575673364 -14.928737141491709 -17.315182774396099 45 16 7 255
-47.811139671801072 -14.758022788116747 -17.139866336951066 44 23 12 255
-48.518366526199998 -14.432479635631978 -17.028355345109993 38 22 9 255
-49.810897070989370 -14.353359366240880 -16.821197201649206 39 25 12 255
-50.127510183572923 -13.874004161199352 -16.773517947653225 30 19 7 255
-50.248956338310677 -13.314225849949509 -16.757756163222957 23 17 3 255
-50.858099666007718 -12.961216085861295 -16.662293728771026 20 17 2 255
-51.467119119561914 -12.611372165486713 -16.566858246958510 12 13 0 255
-53.051227825575694 -12.682686745004617 -16.311991805539023 5 8 0 255
-53.952424380746208 -12.468070584376491 -16.168772320207822 3 7 0 255
-56.023430735614312 -12.766307873671153 -15.834226687731714 2 6 0 255
-54.194429987426730 -11.371384537182294 -16.137555920319947 4 8 0 255
-53.048192235032843 -10.266253079805651 -16.329297517308618 2 6 0 255
-53.266764670224347 -9.758638236768448 -16.297822477220343 0 4 0 255
-54.654782172417384 -9.773045338714297 -16.075017110209238 0 2 0 255
-55.945059519132144 -9.751211090545937 -15.868186014696526 0 3 0 255
-56.942758724826973 -9.604395464469960 -15.709224566137650 0 3 0 255
-57.550552456778576 -9.285926485538738 -15.614082677005811 0 4 0 255
-57.184088158437049 -8.525531298354892 -15.678450745121985 0 4 0 255
-56.330703971378824 -7.538954470030390 -15.822597157806811 0 2 0 255
-56.159267398244623 -6.862665879233006 -15.855146392218060 0 2 0 255
-55.987883039775710 -6.185134006973897 -15.887734056879353 0 3 0 255
-55.427069119404990 -5.324004762305279 -15.984157248181610 0 3 0 255
-57.300387917075057 -5.605890438177354 -15.681887833296592 0 3 0 255
-59.975105119422835 -5.689616950773612 -15.252876856034995 0 3 0 255
-56.980976184280848 -3.665310911287207 -15.748216776457433 0 3 0 255
-53.403629824225163 -1.342326029093030 -16.339330267505240 0 3 0 255
-10.183016384124926 -19.521084250980820 -23.885688410986106 180 188 137 255
-15.495949345867871 -20.573449011317521 -23.009418145617978 207 190 154 255
-16.893500803147191 -20.339398622931625 -22.781917449695293 217 185 159 255
-17.801526254181084 -19.947165573087858 -22.635523816238035 220 184 162 255
-19.296361834178754 -19.760438455681950 -22.391835187328134 221 183 162 255
-20.301757575265697 -19.413360336034188 -22.229253350507349 222 186 164 255
-20.915687130438130 -18.935848707658550 -22.131558590950995 219 181 160 255
-21.529487110816348 -18.461624280922464 -22.033878734469425 217 174 154 255
-22.240948946756021 -18.025193984400303 -21.919996784218462 206 163 144 255
-22.756699152161218 -17.523021113633845 -21.838566097352768 199 155 136 255
-22.979032442859364 -16.918431621234674 -21.805803777098980 186 141 122 255
-23.396840868308516 -16.385595251827411 -21.740623321642495 183 136 118 255
-23.814563614091782 -15.854946299289580 -21.675460256095754 174 126 109 255
-24.134463250519900 -15.290620336652921 -21.626532167383097 165 116 95 255
-24.258845221682435 -14.655673530219872 -21.610056224969789 160 111 90 255
-24.480922673711120 -14.057682219180435 -21.577382191774760 152 101 80 255
-24.702958187650125 -13.460781788021521 -21.544727699232382 147 95 74 255
-25.120341528291107 -12.938846796739341 -21.479660221892679 144 92 70 255
-25.439956460291114 -12.381863569110251 -21.430830432945974 144 92 69 255
-25.661835373679196 -11.789017997193184 -21.398238757540121 148 94 68 255
-25.786010665751860 -11.159495886126422 -21.381885673210000 149 95 72 255
-26.984337385334214 -10.948708654326268 -21.187175422132988 139 86 65 255
-29.256461931125415 -11.165555897193272 -20.814109914338310 119 68 49 255
-36.995400460261806 -13.554069594637781 -19.532957186465339 188 140 122 255
-40.632619234045137 -14.354403427659847 -18.932915271179617 205 163 148 255
-43.097739391576681 -14.705498310138637 -18.527493507007769 186 149 137 255
-44.976736797887469 -14.833843601718101 -18.219393922520631 162 131 120 255
-44.708404192169780 -14.100369489871994 -18.268077313352300 54 28 19 255
-43.952255600108032 -13.165691693675683 -18.397868099262489 34 17 6 255
-46.123264729318691 -13.431980317194700 -18.041195242248158 28 17 4 255
-47.903584394847542 -13.548300681710430 -17.749412990550518 28 19 4 255
-49.098254370577024 -13.429973587618676 -17.554954925508660 22 16 2 255
-50.000069686687141 -13.195098204374489 -17.409172796199506 18 15 0 255
-50.511604078700884 -12.799981765685416 -17.328284259554245 14 13 0 255
-50.925523806654297 -12.365962414598670 -17.263640683800070 11 12 0 255
-51.241861347441187 -11.892224626004307 -17.215242913658905 6 10 0 255
-52.923012480655359 -12.008976281473878 -16.939837314349369 2 6 0 255
-54.311363651908181 -12.007806781546535 -16.713109424634240 1 5 0 255
-54.822195492474634 -11.630627995096589 -16.632364240420891 1 5 0 255
-54.163422707324202 -10.741500909275032 -16.746258788531712 0 4 0 255
-54.089494479186101 -10.107375837890260 -16.762882989217367 0 3 0 255
-55.379714285147600 -10.080470558336259 -16.552491638617376 0 2 0 255
-57.254219566346478 -10.322616135313396 -16.244820738740891 0 3 0 255
-57.472258552879651 -9.827581440346449 -16.212886567143123 0 3 0 255
-57.787667102449831 -9.377727230661023 -16.164768159731274 0 3 0 255
-56.934290919793170 -8.395334302946736 -16.311309647782032 0 4 0 255
-57.152332886254015 -7.900421601765075 -16.279483050787285 0 3 0 255
-56.786105815228240 -7.136178243961240 -16.345009052296184 0 3 0 255
-56.809420862097880 -6.550865043698792 -16.345697063065423 0 3 0 255
-56.345991044583087 -5.737458538175957 -16.427524288979676 0 3 0 255
-56.758739702137518 -5.333873275085253 -16.363411390639818 0 3 0 255
-57.755387762002385 -5.209038451694227 -16.202011594798748 0 3 0 255
-56.805460923858561 -4.161468587129590 -16.365068336880604 0 3 0 255
-50.601148006204511 -0.588110937626524 -17.404139743452397 0 3 0 255
-57.579963048687034 -2.146628188948327 -16.255333154279889 0 3 0 255
-15.867627080595668 -19.982706652062021 -23.657527651512886 202 195 154 255
-16.873416033604400 -19.620633348312268 -23.492158998788433 217 191 161 255
-18.759319027784272 -19.564881244384466 -23.178399655443933 218 180 159 255
-20.742617158177069 -19.553142297257523 -22.848169917560732 216 179 160 255
-21.356383525242990 -19.076685323393420 -22.748808858472252 212 175 153 255
-21.872238112322691 -18.569275829657869 -22.665952397618263 213 171 152 255
-22.192441708648147 -17.995591185457513 -22.616089557588857 206 163 144 255
-22.512580511053528 -17.423565701459623 -22.566242577418400 198 155 136 255
-22.734904594684679 -16.818146713100447 -22.532900706402835 188 143 124 255
-22.761706904371550 -16.143201998014689 -22.532552637603892 184 139 120 255
-23.570338916498258 -15.752992760808965 -22.400315067154885 174 129 110 255
-23.792491927665509 -15.151975191587312 -22.367026437661032 166 119 99 255
-24.210017160125517 -14.624312827614759 -22.300780571379413 160 113 93 255
-24.236671259721930 -13.953232546907159 -22.300506607262058 153 105 85 255
-24.654069681952677 -13.428834345658231 -22.234301048011908 150 100 79 255
-25.364408929576769 -13.017414064198775 -22.118653525776544 148 97 76 255
-25.683942028983751 -12.460943381055756 -22.068979235575235 150 97 74 255
-25.905758852075991 -11.868611564425322 -22.035814992401392 154 98 75 255
-25.736962944682830 -11.126363046294003 -22.068623878072941 156 99 79 255
-26.642166640636788 -10.801209261212747 -21.920093646460941 154 97 78 255
