ply
format ascii 1.0
element vertex 648
property float x
property float y
property float z
property uchar red
property uchar green
property uchar blue
property uchar alpha
end_header
-44.814971444180145 -10.754179334431456 -19.874731881514535 22 0 0 255
-44.871424809034721 -9.579541290696966 -19.899320783848708 14 0 0 255
-46.488484263760853 -10.783162138514456 -20.788715680601939 10 2 0 255
-48.321947971709704 -12.337672798642132 -21.798122829667264 6 5 0 255
-46.879141593541789 -8.860227608475157 -20.991711467950154 3 5 0 255
-45.334528051167126 -5.196481579045326 -20.128690146051582 1 3 0 255
-45.729452111199691 -4.524645735474678 -20.340655298496344 0 4 0 255
-48.064336981744844 -4.327528811386571 -21.614093931038326 0 6 0 255
-48.074342677081034 -3.052298428927372 -21.612552176495271 0 6 0 255
-48.958084989706350 -3.166769073507908 -22.095488598889716 0 5 0 255
-48.480592347160808 -1.103111884397094 -21.823487596326984 0 5 0 255
24.523268690822334 -21.620355999282253 16.854588308293557 204 168 144 255
22.663435136538823 -22.235095682156896 15.841946351538567 202 167 145 255
20.479963340868181 -23.198982452512610 14.652221144431664 205 172 147 255
18.566431966705210 -23.902301339809270 13.610060674039062 209 177 153 255
15.740477204606748 -25.572640287505834 12.068747069593513 213 181 158 255
14.233494896254484 -25.887891579884695 11.248808323253073 217 182 160 255
12.600196874834467 -26.348139383051375 10.359716165235639 216 181 159 255
11.949754900334113 -25.781224679736482 10.008227130897495 217 182 160 255
10.909805399601083 -25.631348297899109 9.443631643137422 218 182 160 255
9.937269808595971 -25.416203237052173 8.915880347287697 215 180 158 255
7.541368048935112 -26.738438390031519 7.609371303033143 215 179 157 255
6.770187583271536 -26.325987910137968 7.191690677269435 215 177 156 255
5.935889492628831 -25.986101494553111 6.739450806184152 211 169 150 255
5.103272544612480 -25.649068855846792 6.288103596315466 211 168 149 255
3.886733741769604 -25.738581866444576 5.626655920020980 213 167 148 255
3.314812025603402 -25.125246413842547 5.317899990527550 209 162 142 255
2.423500371927815 -24.868292528268228 4.834352535003546 207 160 140 255
1.406396963373226 -24.757230565005358 4.281939272386026 206 159 139 255
-0.373056128205519 -25.508618075431400 3.312292476319712 205 158 138 255
-1.256409676303576 -25.265190557579899 2.832997828351807 204 157 137 255
-2.137820973045621 -25.025063388272002 2.354739720870867 203 158 139 255
-2.257247143194604 -23.921855674734672 2.293502373537734 206 160 143 255
-3.325982396296155 -23.902887008445930 1.712678673901863 203 160 143 255
-4.455052720048400 -23.961221380635436 1.098797601631603 201 158 141 255
-5.706999874169441 -24.170410831292656 0.417622066096499 209 166 150 255
-7.583477210966038 -25.116624089153845 -0.605457880110791 221 178 162 255
-9.203079029340188 -25.780044576242119 -1.487984033121734 225 181 168 255
-10.317236622463213 -25.863745503928328 -2.093865237763268 216 172 159 255
-11.053951229012682 -25.509864823845191 -2.493145720933725 211 167 154 255
-11.789264031160997 -25.158367549317916 -2.891675882698408 210 166 154 255
-12.771747695142011 -25.106174422157267 -3.425547921784286 207 163 151 255
-13.565740372725173 -24.834797759325454 -3.856244258710049 211 168 152 255
-14.296191949818024 -24.491568743090596 -4.252167714762166 213 170 154 255
-15.148737135814997 -24.300530721513098 -4.714959737354121 211 168 152 255
-15.937743907859442 -24.037636400797908 -5.142979340390866 210 168 152 255
-16.417689839948792 -23.400774224693862 -5.401774311561468 209 167 151 255
-16.835954603546440 -22.688895380205508 -5.626795049916396 209 171 154 255
-17.315367567832055 -22.052940116001935 -5.885303589033754 212 176 160 255
-18.405280162308628 -22.177892395539459 -6.478162016689552 213 176 162 255
-18.760807463526902 -21.392796060791540 -6.668838074982588 218 181 167 255
-19.724719213528601 -21.372207895915324 -7.192725099012023 221 185 171 255
-20.200699063089587 -20.742099138991534 -7.449381315253206 225 189 177 255
-20.918568354014354 -20.420287161797262 -7.838532183946626 224 190 177 255
-21.453791588791461 -19.869347497048523 -8.127645860056006 225 191 175 255
-22.169295390612206 -19.551565780376620 -8.515517467265141 221 186 167 255
-23.003734213171242 -19.391354675151547 -8.968552462329995 217 180 161 255
-23.536144736778084 -18.845210007283242 -9.256140667957069 213 175 156 255
-23.888297073338919 -18.065874898893185 -9.444974193217931 206 168 149 255
-24.300423277646388 -17.364465601703586 -9.666658188869349 198 153 134 255
-24.831756322403749 -16.820165592494845 -9.953649752967564 189 144 123 255
-25.422009219998728 -16.355585913891758 -10.272923790873975 179 131 111 255
-25.833333392333117 -15.655554486283449 -10.494156165689006 175 122 104 255
-25.948457643466185 -14.559672055240128 -10.553073649505876 166 112 93 255
-25.946663756629590 -13.302794515168614 -10.547899926861106 160 102 86 255
-26.300482915466574 -12.520655172083650 -10.737578890348090 148 89 72 255
-26.948703839708486 -12.137438051725439 -11.088588417388024 144 81 64 255
-27.595832843613181 -11.756085582463243 -11.439000735283187 139 76 59 255
-28.417584481915014 -11.617524551225813 -11.885121136829767 164 103 84 255
-29.120579136689429 -11.321099569503929 -12.266158738030697 142 81 62 255
-30.463597115269096 -11.915334369552085 -12.998013668255709 180 123 103 255
-31.627839704762891 -12.273859255479266 -13.631905015791389 190 133 113 255
-32.788625574489487 -12.638274659219405 -14.263925319528425 184 127 108 255
-34.003867848638833 -13.090010079976253 -14.925822143308196 188 133 113 255
-35.157616528937297 -13.466417857999602 -15.554032655335888 195 140 120 255
-36.653794393616607 -14.340002888349147 -16.370002536946799 191 140 121 255
-37.224714701798831 -13.908427837452109 -16.678717447875201 187 138 121 255
-37.909597457803983 -13.642892482342234 -17.049911372813099 180 133 113 255
-38.707653192432389 -13.544740514557702 -17.483159541542463 174 126 104 255
-39.675210601054403 -13.698097563662770 -18.009357961547636 168 121 100 255
-40.070265414443980 -13.025893190706142 -18.221622679589288 171 126 107 255
-40.806446040507382 -12.853085551462527 -18.620943738682598 164 119 98 255
-41.427602858374712 -12.516065221069141 -18.957182458986324 157 112 94 255
-41.877941153750584 -11.929798695289577 -19.199728614077458 160 112 99 255
-42.045736575911633 -10.924448302188949 -19.287289633402040 105 53 45 255
-42.439905630710172 -10.253809804826091 -19.498986238454748 116 63 59 255
-43.171254503878203 -10.089283683777211 -19.895616868541666 168 112 111 255
-43.396483390309157 -9.166217400152760 -20.014607362712596 163 110 110 255
-43.958106271498337 -8.750601161709966 -20.318108787130313 105 60 59 255
-45.858105627941086 -10.376993143410630 -21.355851953221347 15 1 0 255
-48.474653972672428 -13.123778350188616 -22.786787035295276 9 5 0 255
-50.969601117584176 -15.717542604505553 -24.151105721305129 2 2 0 255
-48.855034654227580 -9.957409596093157 -22.981606487373710 0 2 0 255
-48.423822231481353 -5.472590550182417 -22.730648185044828 0 2 0 255
-50.237712380660810 -7.065641304647158 -23.721319137358051 0 3 0 255
-49.860456921814801 -5.188223389804136 -23.509375630181594 0 3 0 255
-49.759347633126850 -3.740801788390797 -23.448936075407303 0 3 0 255
25.876874680992813 -20.699123963286866 16.484001237394864 200 165 139 255
23.020861831825215 -22.325498637094938 14.937812327074212 198 167 143 255
22.088076798378864 -21.999508915725301 14.434388157470579 202 172 146 255
18.523202189048476 -24.401528644326305 12.503718855585959 208 175 151 255
16.351012285161033 -25.389769681375242 11.328153535588541 211 179 156 255
13.792327796369875 -26.801359548420237 9.942959417857125 216 181 159 255
12.224024084972342 -27.195629133974506 9.094761632423470 218 183 161 255
11.444152141910536 -26.769451187944441 8.674077713232776 216 181 159 255
10.600511701050863 -26.414926233276049 8.218793232555441 214 178 156 255
9.563398000676301 -26.271688044150892 7.658567984809906 214 178 156 255
7.814657295936769 -26.899403030642731 6.712397472211748 213 176 154 255
6.978326367322126 -26.557293523939933 6.261005833058576 212 174 153 255
5.885065664068492 -26.498663718496772 5.670254769272006 210 167 148 255
4.859069966715282 -26.374315930760247 5.115960245856954 211 168 149 255
3.513618672862862 -26.607224279880199 4.388387519764805 211 165 145 255
2.814513407725656 -26.138253053295358 4.011337667733841 209 162 142 255
2.244797606391217 -25.529105868778856 3.704449677076624 207 160 140 255
1.419745291794669 -25.206151109227108 3.259061020114615 207 160 140 255
0.277095623822333 -25.243615928883202 2.641395043026719 206 159 139 255
-0.480214131206708 -24.855752310759613 2.232714091272896 206 159 139 255
-1.236112718354548 -24.470285331520898 1.824784254079475 205 160 141 255
-2.117514087696122 -24.231598001960265 1.348765687973398 207 162 145 255
-3.313593822562979 -24.358298926335237 0.702041137877472 206 160 144 255
-4.316832719496574 -24.272625072278686 0.159898839491447 203 160 143 255
-5.569835242123219 -24.482629565911168 -0.517744461870677 209 166 150 255
-7.071010040676043 -24.991020913474074 -1.330032549806077 219 176 161 255
-8.944352323540357 -25.947149342105320 -2.344235696106296 227 183 170 255
-10.310231774194875 -26.325415752493257 -3.083185711656782 224 180 167 255
-11.171833988275779 -26.120399090841033 -3.548595193371156 218 174 163 255
-12.093898931383450 -25.992667261331235 -4.046818167728205 215 171 160 255
-12.764717760286629 -25.571774308990143 -4.408751911771290 210 166 155 255
-13.745051695862173 -25.525059353610004 -4.938610779829077 215 169 154 255
-14.350942831616351 -25.034474956083159 -5.265338203434055 216 173 157 255
-14.955967046582117 -24.545364837992963 -5.591601125302930 216 173 157 255
-15.621857824353839 -24.132853760891237 -5.950892400202974 217 174 158 255
-16.225019225298894 -23.646912577587642 -6.276155571548827 216 174 158 255
-16.950252130045811 -23.313595004130946 -6.667655228859886 216 177 162 255
-17.490088404531804 -22.755237973457895 -6.958569314087612 218 182 169 255
-18.151734005501140 -22.349951338752703 -7.315577950017982 217 181 168 255
-18.629045109486867 -21.717818232835953 -7.572571301179195 218 182 171 255
-19.288841307986843 -21.315680682200025 -7.928582729918759 219 183 172 255
-19.704294749503902 -20.608636695244854 -8.152012446756572 221 185 174 255
-20.362379867628306 -20.209414028436498 -8.507099165972207 222 187 175 255
-20.958806369655605 -19.734941360243681 -8.828729880128591 224 188 173 255
-21.856423814377479 -19.648817152300012 -9.313802892223194 219 182 164 255
-22.510763779061421 -19.255974767551834 -9.666865191262872 214 177 158 255
-22.983559350609170 -18.631539679238017 -9.921409361252799 209 171 152 255
-23.336014276715957 -17.851538227146136 -10.110643301452996 202 161 143 255
-23.868321099235800 -17.306016086872035 -10.397475393583576 190 145 126 255
-24.459797070927749 -16.839986270698546 -10.716415875607893 181 136 115 255
-24.990817344484668 -16.296661436265595 -11.002543852171101 177 128 108 255
-25.283331763697191 -15.438499827956548 -11.159224069819004 176 123 105 255
-25.635681998778978 -14.658696970401991 -11.348369637697260 169 116 96 255
-25.810599173905189 -13.640306954534452 -11.441204273552458 165 106 90 255
-26.341052487663916 -13.097966539833237 -11.726996671436936 158 99 83 255
-26.753031106592715 -12.396886876361521 -11.948478097828882 158 95 78 255
-27.459085290352704 -12.096268347590296 -12.329570024644681 160 97 80 255
-28.046405068005043 -11.637353165191627 -12.646210361702231 171 109 91 255
-28.691459401237921 -11.260374489204821 -12.994183323327732 152 91 72 255
-29.510706232274771 -11.127509527189034 -13.436706286018207 189 130 111 255
-30.561253149250547 -11.321755239735296 -14.004784988654691 201 143 123 255
-31.143576944402383 -10.871370340614988 -14.318694825810297 186 128 109 255
-32.305384151963693 -11.236653118774456 -14.947173361397063 173 116 97 255
-33.463739387021064 -11.607818108982599 -15.573783762013065 169 112 93 255
-35.196301125638399 -12.803630474118677 -16.512126315998529 176 123 104 255
-35.770105187805427 -12.367776516557484 -16.821404741306424 171 123 103 255
-36.228103772075229 -11.768644649268026 -17.067801451236420 165 118 97 255
-36.972677896729152 -11.582739542514645 -17.469772614286640 156 110 87 255
-37.887374966935113 -11.647875401540659 -17.964102923796972 151 106 83 255
-39.028114824413279 -12.049069936651620 -18.581160340326264 145 102 83 255
-39.709636278319294 -11.790314277148553 -18.948883446662748 143 97 77 255
-40.389841345945058 -11.533809173645864 -19.315882510918826 184 139 122 255
-40.728477755411632 -10.777503871490211 -19.497403907240653 149 100 87 255
-41.010811228834513 -9.936844542972381 -19.648332928695041 81 26 19 255
-41.688801934647785 -9.684141424580673 -20.014088595772733 125 67 64 255
-42.196549386360090 -9.180624226449112 -20.287385655933420 195 135 136 255
-42.422883381774909 -8.255119750120173 -20.407845742795104 137 76 78 255
-42.425837212028995 -6.989050141950088 -20.406971488111353 144 92 93 255
-42.933918068672767 -6.485004540666012 -20.680386608695017 19 3 2 255
-48.230579065094304 -10.805380510880752 -23.549401880614738 3 7 0 255
-48.297553139601405 -4.566870156592131 -23.572619240649757 0 3 0 255
-52.410118778083103 -9.820767176066909 -25.803899373959680 0 3 0 255
-48.708554186018290 -1.346076574862991 -23.787538294588074 0 4 0 255
27.034778515648526 -19.980414086753086 15.999469082955542 197 164 135 255
24.901563725669632 -20.859816877753360 14.853036272237176 199 167 142 255
21.056392344412188 -23.515687756333875 12.786360077593173 202 172 146 255
18.874173237153599 -24.492050250128813 11.613549666571586 208 175 151 255
15.908917164435906 -26.300391626730516 10.019816726165530 212 180 157 255
13.742324669554847 -27.303324832220909 8.855373194162283 217 182 160 255
12.435169546990124 -27.423896636992197 8.152889301879199 218 183 161 255
12.244008798866815 -26.377197438183430 8.050274971141548 216 181 159 255
11.268209043908797 -26.159752689249103 7.525879707221208 215 179 157 255
10.099109290203188 -26.154482004649111 6.897567049939127 213 177 155 255
8.542790956848222 -26.572514616357779 6.061099351416829 211 173 152 255
7.575232993373305 -26.369072210146754 5.541098753920508 210 169 149 255
6.350798546566466 -26.449989892232679 4.883007308653958 210 167 148 255
5.129641571019761 -26.536478103378613 4.226667061581963 212 169 150 255
3.847254641766284 -26.699138262759533 3.537403471366773 210 165 145 255
3.212145294615397 -26.159530654475105 3.196064994330939 211 164 144 255
2.320955075794558 -25.905638084484167 2.717065006844820 210 163 143 255
1.688140542336924 -25.369924482598066 2.376942700427051 207 160 140 255
0.416458550220028 -25.550778631366597 1.693398002527701 207 160 140 255
-0.085581909738238 -24.876846517267694 1.423555767604043 208 161 141 255
-0.842110460717748 -24.491340867725938 1.016909769448887 206 159 141 255
-1.533652102214404 -24.036045761533956 0.645189813661474 209 163 146 255
-3.175702214499097 -24.668866598948114 -0.237469378623942 207 161 145 255
-4.179518179044834 -24.584033200523095 -0.777060397948389 205 160 143 255
-4.991330193126913 -24.284809391946737 -1.213447759869268 209 166 150 255
-6.747149047948056 -25.084766246913432 -2.157278035584753 215 172 157 255
-8.371490391956172 -25.747708836491086 -3.030438794161242 224 180 167 255
-9.990712205983556 -26.419360800896754 -3.900851548726621 225 181 168 255
-10.978343745541821 -26.362054065802909 -4.431765285652389 223 179 168 255
-11.838482956494005 -26.160952267307039 -4.894150483398718 220 176 165 255
-12.571926806427712 -25.814699454842980 -5.288435156302029 216 172 162 255
-13.428469933060313 -25.619713864325092 -5.748892399435306 217 171 158 255
-14.283084352441080 -25.428009155863322 -6.208314759211959 219 174 161 255
-14.825849465519951 -24.865110514050485 -6.500108612113806 222 178 165 255
-15.491717495920824 -24.453473732008348 -6.858075684213375 225 181 168 255
-16.218175251243537 -24.119104420224943 -7.248612457026638 223 181 167 255
-17.004826642241369 -23.862676904952764 -7.671505542048763 223 183 171 255
-17.359639822013975 -23.078494680999142 -7.862270508376113 223 186 177 255
-17.837295802373205 -22.446018088749980 -8.119067093309965 220 183 174 255
-18.314621974861012 -21.814103403342187 -8.375685335463331 219 182 174 255
-19.096906093798424 -21.565109968555731 -8.796227215956947 218 181 173 255
-19.390140056680451 -20.705346871009482 -8.953886223467237 217 180 172 255
-19.987805385318637 -20.229401703850328 -9.275184870747793 218 182 170 255
-20.523956961617785 -19.677762865889292 -9.563414941505144 220 183 169 255
-21.301633130198837 -19.436617620766214 -9.981469102926638 214 177 159 255
-21.836082704339475 -18.887879621493084 -10.268777140807444 212 173 154 255
-22.309685013946847 -18.262314632765481 -10.523373544415250 206 165 147 255
-22.903232007152923 -17.793389714086544 -10.842439440436351 197 156 138 255
-23.315937417749097 -17.091085765402710 -11.064291929162962 185 140 121 255
-23.848326600195350 -16.545866473978947 -11.350472726450320 181 136 115 255
-24.320404642906709 -15.922909044985431 -11.604228234812567 179 130 110 255
-24.792172362865898 -15.300483867009149 -11.857810375927102 180 127 109 255
-25.323101845182720 -14.757761064751378 -12.143186865395862 177 124 104 255
-25.734784703520603 -14.057218082965989 -12.364456887244941 175 116 100 255
-26.324045040040431 -13.595616975473916 -12.681172654903961 173 114 97 255
-26.558032542503383 -12.656348318065113 -12.806909062732927 170 107 90 255
-27.264309547659764 -12.356377892233695 -13.186507809912371 166 103 86 255
-27.851612955228717 -11.898123899012887 -13.502144935961027 170 108 90 255
-28.496769825415527 -11.521800333295516 -13.848870443319484 155 94 75 255
-29.023750530675983 -10.985836883690354 -14.132061925818363 185 124 104 255
-29.900655350119251 -10.936654696858056 -14.603339071384568 200 139 120 255
-30.542298522259500 -10.566330788294124 -14.948143783384779 191 131 112 255
-31.589906678972881 -10.767796950523632 -15.511157780526318 187 128 110 255
-32.692607389064875 -11.055892730091045 -16.103774554753983 185 126 108 255
-34.081546786506237 -11.758769985282015 -16.850243642055119 178 126 105 255
-34.310926106517826 -10.827413238969314 -16.973392775503541 173 125 103 255
-35.002053127094484 -10.553295040937655 -17.344735468673548 165 120 97 255
-35.519385375802983 -10.033812629652516 -17.622642720284773 157 113 88 255
-36.609750961074894 -10.342939893568825 -18.208564750527003 155 112 90 255
-37.296372581373049 -10.076515371620985 -18.577443453796150 141 101 81 255
-38.038766836220418 -9.895565145342772 -18.976287411061804 137 96 78 255
-38.551737852223624 -9.383542246722754 -19.251790636388307 139 102 84 255
-39.121015667577211 -8.956085433911085 -19.557545030928210 142 102 89 255
-39.916296494902923 -8.865541410328092 -19.984770361208405 161 119 109 255
-40.935998754299050 -9.114601110395085 -20.532617148595222 146 102 95 255
-41.332056098736274 -8.440827365709708 -20.745206237006414 176 130 127 255
-41.277730609678628 -7.090500617451198 -20.715671416549682 114 69 66 255
-41.113204452228160 -5.566970579357900 -20.626876415275063 56 24 23 255
-42.301566281662673 -4.807825731395155 -21.264921220430892 1 4 0 255
-42.754978078723042 -4.216888188729399 -21.508241566463980 2 4 0 255
-47.383793639978819 -6.261674193984277 -23.994669252571114 0 2 0 255
21.145294525368882 -23.877710520779971 11.748992207683472 200 168 145 255
18.167504679330165 -25.672282254323022 10.160390512267142 203 170 147 255
16.255247652784874 -26.390921513430982 9.139565066223014 205 173 150 255
14.743883508419998 -26.708323864715595 8.332356076259629 214 179 157 255
14.025159708189875 -26.207700896361928 7.947481603602085 217 182 160 255
13.242028583939003 -25.778039237211203 7.528284012954330 215 180 158 255
12.394889646344012 -25.420018857833981 7.074978252620966 214 178 156 255
10.765934696970277 -25.898425767959424 6.205128592994058 215 175 155 255
9.207015637761060 -26.315433900548300 5.372603163431677 212 172 151 255
8.433011560767596 -25.901274072872127 4.958265189671110 210 169 149 255
6.881714897312037 -26.331238754113031 4.129814398453874 212 169 150 255
5.853100911449587 -26.206079244367231 3.579833684124992 214 171 152 255
4.503834113334733 -26.438112437629343 2.859030432090265 213 169 149 255
3.545335275604970 -26.251684823939684 2.346409958468925 213 166 146 255
2.460327028365498 -26.211111949604089 1.766397013992759 211 164 144 255
1.634971016703076 -25.890101059497511 1.324708669421241 210 163 143 255
0.362631370473025 -26.072447819149176 0.644911215395425 210 163 143 255
-0.074668490899711 -25.328358265301461 0.409942953931534 209 162 142 255
-0.384228140997237 -24.440498694631714 0.243013492319648 207 160 142 255
-1.203804841067864 -24.129304101622949 -0.195597038345412 209 162 146 255
-2.911590706878002 -24.834628439035555 -1.107322596053763 210 164 148 255
-3.662527684454574 -24.459659584419057 -1.509358811024228 208 162 146 255
-4.222163592823051 -23.868512628866057 -1.809498081581211 211 165 150 255
-5.539167932082364 -24.155395490501348 -2.513039463291165 215 171 156 255
-7.734828497875554 -25.475053656450626 -3.684560526229603 223 179 168 255
-9.293984997524774 -26.072142273205259 -4.517038497087256 224 180 169 255
-10.346153558360925 -26.087405425262716 -5.079472864060079 224 180 170 255
-11.270324919317829 -25.959338206072545 -5.573726633001371 226 182 173 255
-12.192299481804952 -25.835007416479868 -6.066802449054919 224 180 171 255
-13.049709508530583 -25.639973998695467 -6.525484528466421 219 175 163 255
-13.842954066211178 -25.373559150467031 -6.949986932695239 218 175 162 255
-14.448224188446801 -24.885307907461851 -7.274376463027281 220 177 164 255
-14.990656768485735 -24.323416105381767 -7.565299188883913 223 182 168 255
-15.779845258130223 -24.063901198241297 -7.987624839893797 225 183 169 255
-16.629081685967719 -23.882772926110079 -8.441919318422052 220 180 168 255
-17.291674036678785 -23.477545515435878 -8.796814280397754 222 185 176 255
-17.707374163853814 -22.770173123668968 -9.020233123380493 221 184 176 255
-18.306936764758660 -22.291633909723714 -9.341555329018391 216 179 171 255
-18.783287561137513 -21.661624216936104 -9.597264275876228 214 177 169 255
-19.320355540937811 -21.108863668689992 -9.885299657504049 213 176 170 255
-19.735008812402526 -20.403276811831290 -10.108149330540598 216 178 168 255
-20.514280885157035 -20.160642270183189 -10.525135674852208 215 176 163 255
-21.049317204966798 -19.611344007512855 -10.812071082772917 212 172 155 255
-21.583767717655746 -19.063044831450725 -11.098688109744018 207 166 148 255
-21.755336890602109 -18.048841108232921 -11.192095509854212 199 158 140 255
-22.229163800016948 -17.423140096407536 -11.446426114766567 192 149 132 255
-22.582437724719171 -16.641446488779366 -11.636568931828577 188 144 125 255
-23.235856765812230 -16.251850990912317 -11.986498772389652 185 140 119 255
-23.948023788918164 -15.942857907879159 -12.367692933965174 182 134 114 255
-24.599100771544528 -15.557255233655553 -12.716352284738932 186 133 115 255
-25.308665467367945 -15.252698380792765 -13.096135254261739 185 132 111 255
-25.600664478405633 -14.394725582101330 -13.253619072717527 186 128 111 255
-26.130452710347839 -13.854392693255818 -13.537678912042111 180 121 104 255
-26.363708743240778 -12.915822599173680 -13.663879691362638 175 112 95 255
-27.070209027855384 -12.616499790085612 -14.041985044636078 165 102 85 255
-27.598567688010888 -12.078615529631634 -14.325251419495174 163 102 83 255
-28.361553101381588 -11.863753310076277 -14.733392969046065 160 99 80 255
-28.770936306421845 -11.167201277045365 -14.953304937919611 172 111 90 255
-29.531487692571687 -10.956493314072759 -15.360118820115304 195 134 113 255
-30.232029119517705 -10.667340711222892 -15.734973889710716 197 136 116 255
-31.455642958410920 -11.113212513576798 -16.388209577203014 192 134 114 255
-32.326721667634303 -11.075579952413250 -16.853787248750791 190 132 112 255
-33.079662116535133 -10.877850485818328 -17.256467575575073 186 132 112 255
-33.425898649524214 -10.108227467873348 -17.442678224640190 176 128 106 255
-34.176568582458628 -9.914377258959234 -17.844113678608309 172 127 105 255
-35.040861288426044 -9.888322714921344 -18.305996034981803 166 123 99 255
-35.673131362123712 -9.534830265990308 -18.644378602969454 151 112 89 255
-36.304342057441261 -9.183149295088128 -18.982177994663758 123 86 68 255
-36.362377458332219 -8.001153735000173 -19.014942523671991 68 36 20 255
-36.764479404165542 -7.317087894392046 -19.230790271753264 37 12 0 255
-37.280482870933298 -6.800344896629923 -19.507232369920985 17 0 0 255
-37.739151461379009 -6.200609414927669 -19.753146810312188 15 0 0 255
-39.614659523732882 -7.704082013132336 -20.752953247550096 17 0 0 255
-40.465386968664092 -7.701184336661100 -21.207429268033479 14 0 0 255
-37.601279126877159 -0.838541274317947 -19.687076226636208 6 4 0 255
-40.654057464771881 -2.866939250044652 -21.314907146387668 0 2 0 255
-44.408213067362311 -7.312913778619247 -23.314028901487092 0 3 0 255
-45.536745732867331 -3.949220137952750 -23.921113645601707 0 2 0 255
-46.828939157219821 -2.112537923200648 -24.613374227352054 1 5 0 255
20.834985331708538 -24.646946974055737 10.503803273964365 196 163 140 255
18.052706717362724 -26.239462328047182 9.030285491364353 200 165 143 255
16.403156780274600 -26.686463622430807 8.155081740757623 204 172 149 255
15.813594157598089 -26.044938788391221 7.839716603053830 211 176 154 255
15.093027431998024 -25.542013932503551 7.455161304180777 215 180 158 255
14.504966850947028 -24.903030491121029 7.140580607333519 214 179 157 255
13.065445226451885 -25.165098168976527 6.376361294927776 213 177 155 255
11.433769259676922 -25.642473871007496 5.510700081845911 215 174 154 255
9.545857813280293 -26.406878898881160 4.509770941115221 213 172 152 255
8.510775360473019 -26.272547486070664 3.959195083750700 211 170 150 255
7.283136599874155 -26.352841066375504 3.306962811501094 215 172 153 255
6.188533848077924 -26.297979055712688 2.724992046588355 216 173 154 255
4.902437719087999 -26.459551010262118 2.041936526818603 216 172 152 255
3.942949214091385 -26.273064504649426 1.531335870763982 215 168 148 255
2.921192023557552 -26.161377938702174 0.987874650960151 214 167 147 255
1.901911484957509 -26.053900567858960 0.445736383330797 213 166 146 255
0.564035326551306 -26.308103921249511 -0.264568409004596 213 166 146 255
-0.065141492959981 -25.779848248470444 -0.600744941320485 211 164 144 255
-0.309747416012868 -24.821405151217874 -0.733924327838011 209 162 144 255
-0.810331079188330 -24.150432756382543 -1.002228728600969 211 164 147 255
-2.647908057471028 -25.000420404971209 -1.976213183354361 212 165 149 255
-3.335658975980664 -24.553241451450504 -2.343280444254404 211 165 149 255
-3.895432595389650 -23.962302586809528 -2.642799063836634 212 166 151 255
-5.150726005749277 -24.176240349009419 -3.309377107275154 215 170 157 255
-7.223464107043498 -25.349109998876827 -4.407316090345645 217 173 162 255
-8.406955008186287 -25.504459758497433 -5.035927196594855 223 179 168 255
-9.524298157611355 -25.591602762767963 -5.629604850719176 226 182 172 255
-10.450385211287568 -25.461900858167041 -6.122336544298648 230 186 177 255
-11.499517620640802 -25.484345998671671 -6.679974460629467 230 186 177 255
-12.608412458953779 -25.585859217834297 -7.269120625545284 226 185 173 255
-13.651961296264403 -25.617802500443162 -7.823762496868397 217 177 165 255
-14.568339836326942 -25.504614988961976 -8.311285770442623 217 177 165 255
-15.109980686388241 -24.944512265394337 -8.601089237682672 221 183 170 255
-15.527104551064070 -24.234764559130667 -8.825198885422125 221 183 170 255
-16.005985620803074 -23.600692002147667 -9.081886580197050 220 182 171 255
-16.607921170091288 -23.118752690700404 -9.403482691351911 223 186 177 255
-17.332117746438854 -22.790296952871927 -9.789560530147909 223 186 177 255
-18.177782199276265 -22.616674602141501 -10.239693571438821 219 182 174 255
-18.776343689153606 -22.140478217312022 -10.559473950355994 216 179 171 255
-19.129392461321430 -21.359002209150219 -10.749755660643800 213 176 169 255
-19.604707891064123 -20.731001192978113 -11.004520555383323 213 174 165 255
-20.079698762403069 -20.103554053514046 -11.259108511520722 212 172 159 255
-20.736667368687108 -19.708739202063953 -11.609657419882225 211 169 153 255
-21.149982133800307 -19.005482837626687 -11.831704752313442 199 158 140 255
-21.502739276551466 -18.224512507636462 -12.021814920156928 193 150 133 255
-21.916077357805420 -17.521221552661331 -12.243866799545557 195 149 133 255
-22.208887764751807 -16.661501039218422 -12.402362956540983 194 150 131 255
-22.802704745955424 -16.193396867748589 -12.719563930161243 189 144 123 255
-23.395679844797399 -15.726728603687803 -13.036307210476082 187 138 118 255
-24.047656193305073 -15.340428569032980 -13.384141953439212 190 137 119 255
-24.817948211142891 -15.114328663420338 -13.794333316112798 191 138 118 255
-25.288727377380127 -14.494078354238184 -14.046610547828180 190 131 115 255
-25.818646176952115 -13.953961600462662 -14.330052352295340 183 124 108 255
-26.170060326352399 -13.175309916543654 -14.519388356573074 179 116 99 255
-26.758423651085621 -12.716514731850111 -14.833612999028148 169 106 89 255
-27.345959895954394 -12.259132091970486 -15.147385036850508 172 110 92 255
-28.050503570924462 -11.964176988293218 -15.522808610330330 183 122 103 255
-28.636128456486318 -11.510057814115498 -15.835536084273471 185 124 103 255
-29.044977743474675 -10.814463267292410 -16.055084241211190 194 133 112 255
-29.629361489976731 -10.362468327446123 -16.367125410943004 189 131 110 255
-30.446481100294562 -10.237499857491485 -16.801790096045764 190 132 112 255
-31.261731690480161 -10.115718163521478 -17.235440263642033 182 124 104 255
-31.842621722904795 -9.669688102080300 -17.545572592470322 178 123 103 255
-32.596679171671752 -9.471285749530807 -17.946925378800998 158 110 90 255
-33.233421051713066 -9.110993527157376 -18.286440097758529 139 97 75 255
-33.580460431249463 -8.339863770244506 -18.473302970255958 116 75 53 255
-34.042948162236684 -7.733816691952143 -18.720976072436528 88 52 32 255
-34.160388764692669 -6.630347407655620 -18.786861993103187 76 44 27 255
-34.680467679784130 -6.107081384869360 -19.064847674680422 45 23 10 255
-34.971224217376658 -5.250997856437266 -19.222016960152104 15 1 0 255
-35.604916865780780 -4.895945939224589 -19.559811833345876 8 0 0 255
-39.311688001999897 -7.807698822054220 -21.520114063388860 3 2 0 255
-39.029833217405610 -6.118406454045697 -21.375589116073328 0 2 0 255
-38.355394683752621 -3.831826926840506 -21.024328433891640 2 2 0 255
-39.039757742117871 -3.571363153299103 -21.388668547656039 0 3 0 255
-39.610275530368654 -3.143109245788992 -21.693027958960585 1 1 0 255
-42.538014654821438 -6.295728623641594 -23.238607529157605 0 2 0 255
-42.597364953026386 -5.110458781070577 -23.273706657763995 0 2 0 255
-43.105361865363164 -4.607861632802155 -23.545026690216076 0 4 0 255
-42.553692130993994 -2.473975242846564 -23.258405062373257 0 3 0 255
-42.840767628510832 -1.624286700370931 -23.413390001053486 0 2 0 255
-47.197356646440824 -1.985534411769095 -25.725708188968582 0 3 0 255
21.186725981114847 -24.737442948674072 9.611951250798043 194 161 139 255
18.533014367442547 -26.193764992435916 8.216604003263683 198 162 141 255
16.748747761094194 -26.777049890647078 7.276496966555626 203 167 145 255
16.225111521497695 -26.067184434747617 6.996327569376021 209 172 151 255
15.767757137301572 -25.289138035815427 6.750845930210588 213 176 154 255
14.849904811206358 -24.994217414237170 6.264332704159983 213 175 154 255
13.211693972180939 -25.464080170956493 5.400822852154505 212 175 153 255
11.709424509732543 -25.803334428428542 4.608512975041918 214 173 153 255
10.538490973176209 -25.801586484958165 3.989645379169659 211 170 150 255
9.370570786949173 -25.804959434890151 3.372386720425183 212 170 149 255
7.358947927575059 -26.725150119226498 2.313686027189277 216 173 153 255
6.068784246314237 -26.882418632281343 1.632555096949147 216 174 153 255
5.041627094542662 -26.763376875489996 1.089070647935017 217 173 151 255
3.887482249335761 -26.790165397142800 0.479176141324032 217 170 150 255
3.059346228339308 -26.466890362767799 0.039866286938789 216 168 148 255
2.232889107632218 -26.146467386233667 -0.398548819428697 214 167 147 255
1.215108191637370 -26.043359964617395 -0.937026418993838 213 166 146 255
0.520808108236906 -25.585888755133396 -1.306275681373890 210 163 143 255
-0.044209928013260 -24.986482299214742 -1.607896123450928 210 163 145 255
-0.352872698766248 -24.099451231463803 -1.775438975532950 212 165 148 255
-1.682826662105953 -24.369928005439107 -2.477101096012930 214 167 151 255
-2.372282717370325 -23.920684894228771 -2.843770004916450 213 166 150 255
-3.187669932133161 -23.619071658367460 -3.276278378979185 214 168 153 255
-4.508618316997939 -23.904861907223818 -3.973117370612400 216 171 156 255
-6.268671895610197 -24.710178045879786 -4.899494560160591 215 171 158 255
-7.833656885047247 -25.304543768540100 -5.723807845561694 221 177 165 255
-8.889738519899680 -25.317187907406776 -6.282002567284948 223 179 168 255
-10.005964249393571 -25.408447199319113 -6.871602083973599 228 184 173 255
-10.868233035335919 -25.208003485169286 -7.328408771727098 232 188 177 255
-11.853787514345214 -25.159692254778975 -7.849631583949304 228 188 176 255
-12.836882033569680 -25.115565434200619 -8.369534733326134 223 184 172 255
-13.817518066214859 -25.075620748210270 -8.888118647926234 217 179 166 255
-14.484643958574111 -24.664351784749584 -9.242823494852786 217 179 166 255
-14.964405214006661 -24.029026763148863 -9.499599102348654 215 179 165 255
-15.381886785902935 -23.318718334310233 -9.723825686756413 217 181 169 255
-15.984739842050061 -22.835856986836973 -10.044911240098287 220 183 174 255
-16.956815582229439 -22.810476509441855 -10.558898077089097 221 184 175 255
-17.864893686643853 -22.713036258001608 -11.039412110725081 220 183 175 255
-18.463709656421457 -22.237045498806253 -11.358326485149291 218 181 173 255
-18.693967571240819 -21.302444532802610 -11.484694233218335 215 178 170 255
-19.230713849866646 -20.751115556183919 -11.771168486342376 213 173 164 255
-19.827889386300996 -20.277919791824360 -12.089195607358477 209 169 157 255
-20.485098734161653 -19.883530286206621 -12.438562845070805 205 163 148 255
-20.837421843374017 -19.103146288412631 -12.628678772141157 198 155 138 255
-21.371819544349790 -18.555820831058099 -12.913879656152247 194 148 132 255
-21.784655104378459 -17.853431733825857 -13.135588055836507 198 152 136 255
-22.076723833612988 -16.994626119550531 -13.294230697430464 197 152 133 255
-22.429496059201114 -16.213488585624958 -13.484571204633895 189 144 123 255
-22.962762414783668 -15.668099530696736 -13.769146367300749 189 139 119 255
-23.555413533648817 -15.202622690331509 -14.084710445357686 194 141 122 255
-24.266883197573662 -14.896883605780175 -14.462283820137955 189 136 115 255
-24.678506757554175 -14.196576859152174 -14.683309485814647 192 134 118 255
-25.507037657017236 -14.053569785066031 -15.121941494263098 185 126 110 255
-25.858224135238942 -13.275153453116218 -15.311393893740444 179 119 101 255
-26.565436583727433 -12.976674790840946 -15.686653831131323 173 110 93 255
-26.857119690969768 -12.118561347521450 -15.845032725119893 171 110 92 255
-27.680618286523867 -11.984135279050065 -16.280932115401200 171 110 91 255
-28.266623609305782 -11.530002098542496 -16.592869599104475 173 111 91 255
-28.557952198649787 -10.672508380251600 -16.751032108044555 172 112 91 255
-28.908422998653293 -9.895342055070898 -16.940049339235486 171 112 91 255
-29.259135060110424 -9.117771609203857 -17.129186157124082 163 104 85 255
-30.252215767214580 -9.237685189135902 -17.653419669564897 153 96 76 255
-30.543722095046064 -8.379914865352873 -17.811637129816859 130 78 57 255
-31.126295726857990 -7.931658370490027 -18.121671868033886 114 66 46 255
-31.476149362811412 -7.155576165750006 -18.310304130757345 105 62 43 255
-31.941950783021497 -6.544119375501452 -18.559398626612435 100 59 39 255
-32.580625033282530 -6.181381368734350 -18.898629202366351 91 55 36 255
-32.757578117946792 -5.156659178621339 -18.997060828748801 57 28 12 255
-33.452641143849945 -4.878943114954893 -19.365651855147703 15 0 0 255
-34.089066930768439 -4.520055252427653 -19.703636202043782 10 0 0 255
-35.410677655840630 -5.166747276874389 -20.398817013808085 7 0 0 255
-36.671015893712365 -5.736750523458113 -21.061976750949867 4 1 0 255
-37.585869650318955 -5.808897066013458 -21.544964982154625 2 2 0 255
-38.384779967917524 -5.716427953468781 -21.967466382520399 0 2 0 255
-37.708748442071510 -3.428859300130114 -21.621158738131115 2 1 0 255
-38.224802937604437 -2.912935649810834 -21.896205444905945 2 4 0 255
-39.529867913143335 -3.587830517436430 -22.582418475736205 1 1 0 255
-40.718209657948108 -4.099436878945767 -23.207725224396171 0 2 0 255
-43.362254856336079 -6.838885626742353 -24.591491868126610 0 2 0 255
-42.467918776506906 -4.199017815652894 -24.131440707091770 0 3 0 255
-42.697006971630202 -3.266665908849859 -24.256773727054622 0 2 0 255
-47.016272746833664 -0.986420522218737 -26.548103805782461 0 5 0 255
20.472935434412847 -25.913709761667349 8.167766984347509 192 159 136 255
18.482006404387192 -26.692812054263953 7.126580464434269 194 158 138 255
17.027829693095896 -26.935985999234646 6.363974532180180 200 164 142 255
16.769044710737035 -25.952404690154907 6.221587903149072 206 170 148 255
16.113240887959137 -25.380191822600693 5.873224084567056 207 169 148 255
15.458321207870966 -24.809477071067420 5.525325436788563 211 170 150 255
13.357032277507955 -25.763063208053779 4.427229222975427 213 172 152 255
12.050299816194382 -25.894777416519588 3.741338206014973 212 171 151 255
11.467811499456246 -25.266135383068502 3.431101722296262 209 168 147 255
10.428246655604511 -25.127822633321387 2.883841605714920 211 170 148 255
8.086127010052991 -26.396207194061105 1.661199459305152 215 173 151 255
6.663471766589225 -26.692953676801210 0.915431667365539 216 174 150 255
5.504834650541909 -26.714321502037507 0.306614012638988 216 171 149 255
4.478913136405509 -26.599199910467718 -0.233352552488725 216 169 149 255
3.520188802638160 -26.417259610177211 -0.738446093751548 214 166 146 255
2.563675307533543 -26.239076475839170 -1.242359089966186 211 163 143 255
1.544918137357456 -26.136131132639179 -1.778498548761235 211 163 143 255
0.914561565422929 -25.607146820161290 -2.113301145765149 210 163 143 255
0.798588897388214 -24.504185593145166 -2.181522421969419 210 163 145 255
0.745424964533839 -23.326940936217511 -2.217224797974097 213 166 149 255
-0.587697647689964 -23.594836534487513 -2.916176719072695 217 171 155 255
-2.172178033292965 -24.159641568625148 -3.745294228244887 218 172 156 255
-3.560827033714958 -24.514201305932914 -4.472868772497321 219 173 158 255
-4.500745287237919 -24.364226396373624 -4.967911170790131 216 173 157 255
-5.945590605021437 -24.804311472239903 -5.724466542582235 217 174 158 255
-7.069818006129339 -24.884177680202129 -6.314876357842564 216 173 157 255
-8.443552267870729 -25.264103371674054 -7.034456264496214 220 176 163 255
-9.687243688039217 -25.502995749785526 -7.686614995384204 220 176 163 255
-10.550247593380362 -25.302729566945402 -8.141573942714587 227 183 170 255
-11.160408590011542 -24.808076663531409 -8.465576103166370 226 185 173 255
-12.207868000224494 -24.837404781724615 -9.015977624402851 226 187 174 255
-13.252603409823280 -24.871366560295797 -9.564917655405850 221 183 171 255
-14.294616393420085 -24.909959534556094 -10.112396705291772 211 173 162 255
-14.711931333854437 -24.199982913388681 -10.336457957855032 210 174 162 255
-14.880916252068886 -23.187942877543009 -10.431983771481214 215 179 167 255
-15.236691148183866 -22.401527668329550 -10.624202177443550 216 179 170 255
-16.025265882891205 -22.146748163400360 -11.040402611370979 219 182 173 255
-17.182192519798463 -22.352113027552377 -11.647180843435791 221 184 175 255
-17.843593108415860 -21.951422687308877 -11.997495657348438 219 182 173 255
-18.074050188276061 -21.015939915600086 -12.124822865788929 215 178 169 255
-18.734134422969788 -20.617491375755947 -12.474427315957797 213 171 165 255
-19.270822798256603 -20.066704067968487 -12.760174666117237 207 164 156 255
-20.050946758333993 -19.826308693751344 -13.171827019227450 204 160 149 255
-20.525057280649634 -19.200851878161444 -13.425168879247920 199 155 142 255
-21.302554131019377 -18.964930006686956 -13.835404411763875 197 151 138 255
-21.714755089544923 -18.263667618437978 -14.056698191036602 196 150 135 255
-21.945473280527011 -17.327754108224667 -14.184144413584775 196 151 130 255
-22.176934259239374 -16.390579755320914 -14.311984957295948 189 142 122 255
-22.649988812012595 -15.766932430314256 -14.564739485948252 184 134 114 255
-23.122731657180765 -15.143818686726149 -14.817321514200557 187 136 115 255
-23.595164703072726 -14.521235507925724 -15.069731705523239 187 135 114 255
-24.067289913050445 -13.899179784771093 -15.321970751181084 184 126 112 255
-24.956893767823260 -13.834828699331922 -15.789960934136360 180 122 107 255
-25.606138231703682 -13.454858201458478 -16.133688274401308 174 115 99 255
-26.254288236072654 -13.076754041814013 -16.476821175968638 165 103 88 255
-26.545623889165711 -12.218882602053355 -16.635561678771893 158 95 79 255
-27.310694459311691 -12.004144253026766 -17.039058304851807 157 94 77 255
-27.660989598670454 -11.227111765873474 -17.228240312817249 156 93 76 255
-27.893739480776276 -10.287791222727321 -17.356699689012999 166 103 86 255
-28.186014748411168 -9.428342526161941 -17.515911227891763 167 105 88 255
-28.654674382804473 -8.812226826184030 -17.766220401407210 152 93 75 255
-29.298532017455813 -8.441462502132310 -18.106990207821227 131 76 56 255
-29.299329581497233 -7.172240745142574 -18.115667426700057 122 71 50 255
-29.826032344081710 -6.638531923918379 -18.395912082429504 116 69 49 255
-30.294095632574027 -6.023456755844450 -18.645860293987141 107 64 45 255
-30.935782619855132 -5.656411917464425 -18.985422936303877 93 53 33 255
-31.576405554839852 -5.291184447605701 -19.324403129233190 58 22 6 255
-31.696650160066241 -4.181056917390663 -19.394758642802671 34 5 0 255
-31.703074090970034 -2.902308241429523 -19.406385751349490 13 2 0 255
-32.285725986028012 -2.454594218753925 -19.715401699597976 7 0 0 255
-34.987900683604380 -5.102983573516781 -21.118075014140970 5 0 0 255
-35.964308257988762 -5.253340682073826 -21.630094466073473 5 3 0 255
-37.337375688523309 -5.996820787042253 -22.346688119335084 4 4 0 255
-36.941772537542107 -4.134130165476336 -22.150781098501426 0 2 0 255
-37.117658497474991 -3.110535851340387 -22.249719423278918 0 3 0 255
-36.728168576939595 -1.237466503127507 -22.057060605619867 0 3 0 255
-40.809132901156403 -4.800817063124384 -24.178075903743434 0 3 0 255
-42.390427029522215 -4.646913384803213 -25.009623721686879 1 3 0 255
-41.722751533185317 -2.341495926006075 -24.673506352181619 0 3 0 255
20.288743330890213 -26.546991167056774 7.006351626851639 191 157 133 255
19.161639809730502 -26.442954420860303 6.416537986546672 193 157 135 255
18.103723029749460 -26.275283644231763 5.862351319314129 200 165 143 255
17.313504305840866 -25.837702706265475 5.445846802531022 206 169 147 255
16.392361373998341 -25.540043513464354 4.962056942340865 205 167 146 255
15.539205541189659 -25.176710296879094 4.513251451485132 209 168 148 255
14.424116481015204 -25.093082258441086 3.929839122737164 212 169 150 255
13.114463043191336 -25.222439344055317 3.246481479595133 208 168 148 255
11.611443047764624 -25.566819299950623 2.463821486505793 208 167 146 255
10.505796102587226 -25.499238044876819 1.885451956451277 211 170 148 255
8.683808232169639 -26.207618480706856 0.939062266083681 214 172 150 255
7.193686675288774 -26.573925918758619 0.163301544051293 215 173 149 255
5.903223330075974 -26.735903950769995 -0.509795263647305 214 171 148 255
5.071109828730954 -26.408328144160748 -0.947368581431874 212 165 145 255
3.851638984741072 -26.509742498441540 -1.583871679310164 208 160 140 255
3.217801582741032 -25.975483055970642 -1.919527624154796 205 157 137 255
2.003682682994764 -26.085994651136929 -2.553169770236678 210 162 142 255
1.759446725792515 -25.126552105535495 -2.688708049076396 210 163 143 255
1.128649171203421 -24.597454129288735 -3.022747906102111 210 165 146 255
1.204655127178540 -23.276162852972703 -2.993897199494768 212 167 149 255
-0.578602605032074 -24.050392192040476 -3.919559054355389 221 175 159 255
-1.589289221677632 -23.962984688453673 -4.448527443332338 220 176 159 255
-2.980163547912070 -24.316765387449635 -5.172575576529979 218 175 159 255
-4.239687286245839 -24.531342096851517 -5.829121438974397 216 173 157 255
-5.686213263918347 -24.971771480119401 -6.581549107054798 218 175 159 255
-6.938279064421664 -25.199031694267944 -7.234098035550559 215 172 156 255
-8.060326220850669 -25.284822692559686 -7.819858564458571 216 172 159 255
-8.990039445671385 -25.153827832379278 -8.306880883214149 217 173 160 255
-9.602653567213395 -24.655642588324469 -8.631193463694188 220 176 163 255
-10.214397255921511 -24.158937143439346 -8.955040371656963 219 179 167 255
-11.389706549085219 -24.335441753357088 -9.567898021440527 223 184 172 255
-12.436596200302716 -24.367757965630346 -10.114823917259613 221 183 170 255
-13.480762985967118 -24.404705882776170 -10.660288970630361 216 178 167 255
-14.210621810869242 -24.069716166229654 -11.044540822119771 208 172 160 255
-14.752531639203340 -23.510482414289783 -11.332405803640739 208 172 160 255
-15.045633891349866 -22.649209846930887 -11.492715984279059 217 180 171 255
-15.524958512926361 -22.015119033779513 -11.748485653615603 224 187 178 255
-16.498251641893233 -21.991310463655907 -12.257406077945561 228 191 182 255
-17.345786299256844 -21.818787738590800 -12.701820918201889 225 188 179 255
-17.822268331422862 -21.189535077773115 -12.956061127846482 218 181 172 255
-18.359813874176183 -20.637729964579705 -13.241577074895517 216 174 168 255
-19.019285083839520 -20.241161482137642 -13.589538001215104 210 167 160 255
-19.677638404709114 -19.846496321803500 -13.936896425515002 207 163 152 255
-20.090902854954919 -19.143467781919981 -14.158693433669541 200 156 143 255
-20.808415599548510 -18.829491949667158 -14.536301558202453 195 149 136 255
-21.342365310222846 -18.283812995698838 -14.819873387559781 196 150 135 255
-21.754540644783361 -17.582643884959481 -15.041075399614385 197 152 131 255
-22.106200969169919 -16.803097995310736 -15.231289998711262 187 140 120 255
-22.699403646117474 -16.337953309581167 -15.545155340292808 178 130 109 255
-22.870368628856710 -15.321829647017466 -15.642866833711054 173 122 101 255
-23.222547752725291 -14.541410429108367 -15.833345374314106 174 122 101 255
-23.634882680105761 -13.839985193711726 -16.054608909193050 170 117 99 255
-24.824614115937806 -14.173314207425648 -16.673659115354951 168 112 97 255
-25.294820006048496 -13.554773832773151 -16.924475099934583 163 106 89 255
-25.883801269945678 -13.096831831957502 -17.236041244636326 160 102 85 255
-26.174921972313740 -12.238977225721783 -17.395214094369862 155 96 79 255
-26.940732611007832 -12.024204189952570 -17.797185625944806 153 92 74 255
-27.113504910203659 -11.005038439094932 -17.895816155518503 147 85 70 255
-27.346315684304130 -10.065067815439022 -18.025166275868941 140 78 63 255
-27.815404705596762 -9.448455479872933 -18.275338772684890 134 75 59 255
-28.636680755275819 -9.320672020919972 -18.705552095134550 148 91 74 255
-29.280244852671615 -8.951235525541108 -19.044863551207627 140 87 69 255
-29.396398582380698 -7.847089713599303 -19.114558328025893 129 78 57 255
-29.455507497752336 -6.658667749378878 -19.155121877525559 120 73 53 255
-29.807275344407714 -5.879017272054710 -19.345271203493326 103 59 40 255
