ply
format ascii 1.0
element vertex 653
property float x
property float y
property float z
property uchar red
property uchar green
property uchar blue
property uchar alpha
end_header
19.745065234923942 -25.249491848071784 11.372377178270114 137 102 82 255
19.861165336082678 -24.408348435508515 11.707830897028771 152 111 91 255
20.199664367426095 -24.174261557119053 12.554148729041486 176 135 113 255
20.814689894245248 -24.704917478851598 14.035066073304421 180 138 113 255
21.289593816267327 -24.860625864500747 15.193701632516166 187 142 116 255
21.652812544386052 -24.714720130916646 16.095624670936587 189 143 117 255
21.849891231719084 -24.110834500622872 16.616211601820055 190 144 118 255
22.129339546797112 -23.738728300694049 17.325595932833920 192 146 122 255
22.271084921766359 -22.981975851818902 17.719212800830718 196 150 126 255
22.467699988849716 -22.379919253062326 18.238575889013219 198 153 130 255
22.746195004880391 -22.011618711281045 18.945406717105698 200 155 132 255
23.215210469455613 -22.190897492102010 20.088217290384875 197 157 132 255
23.492400617287302 -21.827839135260547 20.791525597522735 196 153 134 255
23.796305756034400 -21.545029486011799 21.555756447845056 198 155 136 255
23.855575495772285 -20.556915042932815 21.760296722660087 197 154 135 255
24.294161507665081 -20.670899596958805 22.832131041012673 195 152 133 255
24.947709520780180 -21.421852798844725 24.394724420287190 192 149 130 255
25.410590250823532 -21.625835378753777 25.520926123550538 191 148 129 255
25.764654377789299 -21.516728627474663 26.398118555384940 191 146 127 255
25.983715678543092 -21.012170360645314 26.966797666334458 191 144 126 255
26.363288700168866 -20.988206295126929 27.901616579228602 188 141 123 255
26.554829220378295 -20.406705668120708 28.407140721646641 189 142 124 255
26.879656365180082 -20.227611881203131 29.216495123273148 191 142 125 255
27.257072761230560 -20.212419083058478 30.145403531089443 190 143 125 255
27.686751526347990 -20.362442796036930 31.192981614570897 187 140 122 255
27.982750948789075 -20.111722049802836 31.935599287590975 183 136 118 255
28.225278834730261 -19.700735206122545 32.556206476415412 177 128 111 255
28.282630725851590 -18.720766502614225 32.755204927083270 177 128 111 255
28.445831828286003 -18.065883612808761 33.195139885532512 177 128 111 255
28.635334615069752 -17.492964996569242 33.694836067252083 175 126 109 255
28.982189910007079 -17.413355910417238 34.552124266290008 170 121 104 255
29.197346826728761 -16.925073776050453 35.109775119126311 167 120 102 255
29.333894747490902 -16.189974869406228 35.488722081509565 165 118 100 255
29.418406699296170 -15.288875911177513 35.749506374478159 161 114 96 255
29.555307659738020 -14.552521329482204 36.129271928802950 158 112 94 255
29.692333190804021 -13.815753219786103 36.509301904467577 157 112 93 255
29.829485205704856 -13.078567905398899 36.889598151573892 156 112 93 255
30.044343575080205 -12.591987130655696 37.446028082624395 154 111 92 255
30.181590057874587 -11.854614731656085 37.826420263187032 150 109 89 255
30.190220313085945 -10.696241823337687 37.915450138169803 147 109 88 255
30.225227963188544 -9.619574151635220 38.064408315103861 147 109 88 255
30.363371089681436 -8.878926749514022 38.446950523945276 144 106 85 255
30.655164599641552 -8.646476383275854 39.177078737208575 141 100 80 255
30.793258249263374 -7.906259362252172 39.559295905922653 141 99 77 255
31.033397255132641 -7.506441039982747 40.172155150738689 153 111 89 255
31.069876583656864 -6.424470106265403 40.324582634854806 151 111 89 255
31.259137465595558 -5.854191414674347 40.822246759209577 151 110 88 255
31.245840522043935 -4.597358745928773 40.862432746854950 141 102 79 255
31.283866472699373 -3.509602804281258 41.018681209200139 131 100 75 255
31.246882526369347 -2.160684862756966 41.005847539053860 113 92 63 255
31.160531854177208 -0.635152778990118 40.881966487186105 90 87 49 255
9.445378599100195 -24.282275603847637 -11.494263928052931 209 191 153 255
11.058934296909314 -27.038902381411106 -7.726535109948969 219 185 159 255
11.735331860072080 -27.528006353637181 -6.105547922404952 223 189 165 255
12.351682515020400 -27.881216921177185 -4.622632413917984 224 193 170 255
12.560254304426337 -27.233413529214715 -4.072883571782768 225 193 169 255
13.029218579151078 -27.236000306078608 -2.927841972136832 223 191 166 255
13.381451648442976 -26.953421920634639 -2.049974271345832 218 184 159 255
13.906015984702137 -27.109482278966539 -0.778630064800097 213 177 153 255
14.400426469195239 -27.198091471010457 0.423349706735223 202 165 142 255
15.152148504068208 -27.949458029282482 2.212313588980578 194 156 133 255
15.700899339364938 -28.196613877378638 3.537185176972685 190 153 134 255
16.305414631266004 -28.596679865815645 4.988722968751262 186 149 130 255
16.679717469031800 -28.413484065050199 5.914583012960748 188 151 132 255
17.195756804432207 -28.603340282551130 7.163287897681784 189 152 133 255
17.653525150185118 -28.650221602324621 8.278671343392176 189 152 133 255
18.166953016099427 -28.850448334121438 9.520426389169216 180 143 124 255
18.622332350619473 -28.906814540120507 10.629453849657438 171 134 115 255
18.765384907683270 -28.144322628136990 11.027002904646110 166 129 110 255
18.908509763537467 -27.381497494281348 11.424782488800815 148 111 92 255
19.051707805013962 -26.618338577778275 11.822792514371741 151 115 95 255
19.391855879615605 -26.383442677508640 12.668753953814047 155 120 99 255
19.562888947103346 -25.696891337623015 13.130000348652743 174 132 110 255
19.845949638820599 -25.314263326203985 13.845837328323910 185 141 116 255
20.380182595728684 -25.619076812085268 15.132068637592312 189 145 116 255
20.829240513416991 -25.700534588647713 16.224282715037532 192 147 117 255
21.221469346416399 -25.633267429642217 17.187032524799235 191 146 117 255
21.334832805159095 -24.801265081423935 17.516630623251132 194 148 123 255
21.587092698062435 -24.353759914987222 18.161377418582447 196 150 127 255
21.838996721813189 -23.907672313439832 18.805173545198983 201 155 132 255
22.090546129083521 -23.463000562939669 19.448019641157515 203 158 135 255
22.314165679024399 -22.942026405512820 20.027436038276136 200 158 136 255
22.647629620573227 -22.733770486532251 20.855529511319304 200 159 137 255
23.007880884580061 -22.606401782142399 21.743972698838832 203 158 139 255
23.422168568261640 -22.638954723078939 22.754359941630895 203 158 139 255
23.561877734203904 -21.889587329436551 23.143137435742460 202 157 138 255
23.974703772864160 -21.928029802208584 24.149564458691657 199 154 135 255
24.468270431006260 -22.207622726555286 25.338054532092201 196 151 132 255
24.960507367147059 -22.492573195188356 26.522942167604157 194 149 130 255
25.098619812801132 -21.749685617305659 26.907355425518062 194 149 130 255
25.318079904628775 -21.245521501198255 27.475460757852971 194 147 129 255
25.618396190492660 -20.982057188974693 28.225929842083019 191 144 126 255
25.918155655455365 -20.720860891467169 28.974870115361142 191 144 126 255
26.190440718786419 -20.381574119769709 29.661575742888687 191 142 125 255
26.542874671001925 -20.285836451800662 30.528729314239087 189 142 124 255
26.948156668047005 -20.354827584758226 31.514591638289147 186 139 121 255
27.245430662321738 -20.103773160402966 32.256692758334367 181 134 116 255
27.435355329176460 -19.530033264452697 32.756805614805558 176 127 110 255
27.465298669103277 -18.468059651030586 32.896764581461895 174 125 108 255
27.602153801762427 -17.730635366577417 33.277442960612234 173 124 107 255
27.739122021293497 -16.992818776679940 33.658375355720665 170 122 104 255
28.035091470010713 -16.747286880084516 34.396721992144023 165 118 100 255
28.198388782011335 -16.092327064659571 34.836660731754051 163 116 98 255
28.335323324644023 -15.354851884532593 35.217331817254347 160 115 96 255
28.472377971639290 -14.616971302564338 35.598263382818743 157 112 93 255
28.557030542020271 -13.712698168556074 35.861584373844295 155 110 91 255
28.642026020376633 -12.807134186462662 36.125759333626291 152 109 90 255
28.753518783916206 -11.983706737568838 36.449431501955814 151 108 89 255
28.995737078184476 -11.577673202693035 37.066136217949520 147 106 86 255
29.159518034370009 -10.921361982957706 37.506891492299729 144 106 85 255
29.193380646539737 -9.844613419447882 37.656628419225541 145 107 86 255
29.331548355215062 -9.102913692009849 38.040025312559663 146 108 87 255
29.443973316397859 -8.276249054416667 38.365794143554979 147 106 86 255
29.789058184461226 -8.211440999815750 39.211946872325854 152 109 90 255
29.901486626469989 -7.384989195156891 39.537537588259994 161 117 96 255
30.219878116960558 -7.239149811233688 40.323401337557840 167 122 101 255
30.332373256661811 -6.412673391433316 40.648970936765892 162 121 98 255
30.419520266137738 -5.499672631033150 40.917956334053684 153 113 88 255
30.404838182067564 -4.241944888575745 40.959743436636188 141 104 78 255
30.288988161439676 -2.636849975419977 40.776103868912742 121 92 63 255
30.276147660080426 -1.372031846474272 40.822607740103450 106 93 59 255
9.060087457270839 -25.359630619568350 -10.131153442826133 215 185 156 255
10.125837040023185 -26.763513803842869 -7.638126198245004 220 185 163 255
10.924032818073272 -27.537132995086836 -5.752577983342405 223 187 165 255
11.573363805337010 -27.961465996628647 -4.205090349304641 224 189 169 255
11.957681501759623 -27.745363414907843 -3.258252244942895 223 191 170 255
12.487124048036137 -27.893365206132785 -1.983278752444448 224 192 169 255
12.840391057087785 -27.612384504394328 -1.107374677648522 218 182 160 255
13.425580803107863 -27.915137163593158 0.292754000250170 212 176 152 255
13.631870956551467 -27.277245662577258 0.835727092536274 206 168 146 255
14.504287157032650 -28.320350739243224 2.883966824859129 200 159 139 255
15.084877872957762 -28.641334229214976 4.271883141959989 192 154 133 255
15.721600443083844 -29.115620855797602 5.785912356115176 189 152 131 255
16.097285707584248 -28.933559544402101 6.709975045355975 189 152 131 255
16.500906982398931 -28.828645615816413 7.696765058484260 194 156 135 255
16.989687604570406 -28.949872422437863 8.875279651721087 196 159 138 255
17.477217820864468 -29.076063778150058 10.050467388698820 192 155 134 255
17.849164182318489 -28.908788446285882 10.964630863067981 183 143 123 255
17.935015282712840 -27.996430524690879 11.233890492725578 173 133 114 255
18.163527197248840 -27.458100382022849 11.824613639943323 171 130 112 255
18.391782528357737 -26.920760101493698 12.414677977938055 172 132 112 255
18.761601698674923 -26.761855620970238 13.323243675435833 177 136 116 255
18.989072294715726 -26.227594201420374 13.911250563558497 184 137 117 255
19.216289436076082 -25.694319434987790 14.498599350228830 192 146 121 255
19.612449154124093 -25.618933099990215 15.465617508684772 195 150 118 255
20.007698937124403 -25.547174675748295 16.430202150059756 193 148 117 255
20.430129477566211 -25.555633324404226 17.455445917881178 192 147 119 255
20.543163154426750 -24.723232112135634 17.785578788132199 196 150 126 255
20.768306692477324 -24.198174766980571 18.367423324198398 198 153 132 255
21.076978152960095 -23.905850553440303 19.136556708732257 202 157 136 255
21.385075240061511 -23.615823654369706 19.904147972395805 204 159 138 255
21.609153827694072 -23.095016251838047 20.483141125563691 202 158 138 255
21.916270582588652 -22.808917751435501 21.248094222202781 203 159 139 255
22.361344416248812 -22.915770977271762 22.321790565371458 204 159 140 255
22.694698325326897 -22.713705100475352 23.144835079339288 205 160 141 255
23.054970866095914 -22.592938030122127 24.027807405254492 203 158 139 255
23.441999058058514 -22.554127267589536 24.970265306278833 202 157 138 255
24.020537708286582 -23.072002225982544 26.340559112138010 197 152 133 255
24.377965221511189 -22.962699343225154 27.215822653220613 195 150 131 255
24.597728156138388 -22.459293438809766 27.783112885804485 196 150 132 255
24.680649700034976 -21.558483788370097 28.044646770034404 196 149 131 255
24.954758874645663 -21.215668768325656 28.733135174721468 193 146 128 255
25.282844932209869 -21.034905605951394 29.541843582133566 191 144 126 255
25.583107912318638 -20.776516880734277 30.288149770707292 190 142 124 255
25.855713665767240 -20.439840326149636 30.972498132194715 186 139 120 255
26.181972299017048 -20.266525759530509 31.776184833638467 182 135 116 255
26.345610244146130 -19.609965358751140 32.217235019039379 177 130 111 255
26.482307624376404 -18.872251740171350 32.598250668963175 173 126 106 255
26.538462758656394 -17.889863300936383 32.799993568077156 167 119 100 255
26.756031391408570 -17.395665460774467 33.361035614991664 165 116 98 255
26.866286818726238 -16.574917705706866 33.683261713198306 162 115 95 255
27.083643869802913 -16.081691448831606 34.243632084370830 162 115 96 255
27.220793982736268 -15.342460071461034 34.625621013695223 159 114 95 255
27.304841788986991 -14.437771631726491 34.889661326886198 156 111 92 255
27.389228077936053 -13.531800416186229 35.154551686620692 152 110 90 255
27.394453498664845 -12.375641207349275 35.243868278245458 150 109 89 255
27.400349819800851 -11.216874730443465 35.334923220985075 147 106 86 255
27.565263947307301 -10.555936020767319 35.778799586910907 144 106 85 255
27.835539522341548 -10.229521705686068 36.456112741152339 143 105 84 255
28.000271032257089 -9.569498079416860 36.899346133204659 146 108 87 255
28.138797312760843 -8.825421730223525 37.284484876431321 145 106 86 255
28.408314432359560 -8.502338090765647 37.959516065053577 155 110 91 255
28.625184602323813 -8.012006528349190 38.517796061236453 155 113 91 255
28.893986554349226 -7.692000681684306 39.190727432597640 162 120 98 255
29.110364825702391 -7.203859999386140 39.747502023213826 167 121 101 255
29.404411776050722 -6.972077401640973 40.475677210440125 162 116 93 255
29.568456587241613 -6.315564299359210 40.916435343002121 140 97 73 255
29.525796852692935 -4.974216187682828 40.900872289114318 123 81 57 255
29.432477829888697 -3.457688383111190 40.773879573247115 127 90 64 255
29.288831471587301 -1.764658243095369 40.536344259857600 112 92 61 255
8.324930597014145 -25.583748349880750 -9.571635386654378 216 181 155 255
9.486729066901958 -27.201119419211579 -6.883193413053135 221 186 164 255
10.348897331744553 -28.118284442472032 -4.868340406014482 221 185 163 255
10.883554176761322 -28.256896559814294 -3.588846136999649 221 186 166 255
11.387354240710565 -28.328995294683210 -2.379054563049010 221 189 168 255
11.919320330806187 -28.478225734803914 -1.106665706448609 221 189 168 255
12.244304022077927 -28.126246579135483 -0.298356410772186 218 182 160 255
12.598007027086396 -27.849188250337988 0.574033940031029 214 178 154 255
12.980264891962307 -27.647712968518533 1.510060124106730 209 169 148 255
13.770613590711278 -28.471976786359704 3.358618513369805 203 162 142 255
14.383688205674616 -28.866076301986936 4.809767469932837 194 156 135 255
14.907774098698440 -29.046474203307440 6.061289048516187 195 157 136 255
15.314325444830772 -28.937481930132208 7.049629027570518 195 157 136 255
15.864891481703935 -29.201738545645412 8.359234728127660 197 159 138 255
16.385053041153185 -29.397702914680337 9.600327137936915 199 161 140 255
16.759466439076874 -29.227262435158565 10.515573500774622 197 159 137 255
17.046602821343868 -28.836272337048030 11.235789619404841 191 150 130 255
17.218190563538911 -28.147943070672113 11.698160998891439 184 143 124 255
17.418453078180448 -27.534746970903171 12.224465581771625 182 139 122 255
17.761856818019425 -27.298322318802150 13.069666791112269 181 138 119 255
18.075962600152351 -26.989186034386279 13.849320329074175 185 140 119 255
18.503675024260730 -26.985101602524907 14.881649806813869 188 141 121 255
18.616943991968625 -26.150128122703848 15.213762913620457 195 149 124 255
18.957902944774290 -25.923385371362599 16.052479940048698 198 153 122 255
19.241405218987225 -25.546697409327891 16.763131690215147 197 152 120 255
19.722734377109376 -25.707839607324019 17.913280462721957 197 151 125 255
20.004913874110713 -25.336420738340678 18.620398580866805 199 154 131 255
20.286625918800013 -24.966862904069984 19.326268781393651 201 156 135 255
20.511544734704529 -24.444710074462392 19.905851837706621 205 160 139 255
20.708109327967989 -23.846086876578568 20.422407880520979 207 162 143 255
20.988700639924673 -23.481000949290632 21.125277878251183 207 162 143 255
21.324827381140040 -23.273543890377340 21.951055449838435 207 162 143 255
21.827938390955183 -23.537464249938495 23.146568409353591 204 159 140 255
22.050819310956456 -23.023478881373677 23.720666318186176 206 161 142 255
22.551805936063204 -23.295936650989944 24.910442060383531 204 159 140 255
22.912560088464460 -23.179921303450953 25.789186671367361 203 158 139 255
23.438878967051025 -23.540993180575072 27.033828855933251 200 155 136 255
23.687056449606786 -23.115789584626384 27.662676786024264 197 152 133 255
23.907275437865508 -22.612556377699605 28.229540717064367 197 150 132 255
24.044580749769622 -21.871337201472272 28.613076490638065 196 149 131 255
24.402029594754410 -21.768688105435160 29.482826020803458 191 144 126 255
24.648897593401230 -21.348840528070241 30.108060192192823 187 140 122 255
24.868032041025131 -20.850073848263037 30.671905867207272 184 137 119 255
25.059598777416710 -20.271726011234250 31.174807269388793 182 137 116 255
25.305623394289455 -19.855373418417201 31.797676438547001 177 132 111 255
25.496851558331869 -19.278468216038277 32.299595693092357 173 128 107 255
25.552082389728639 -18.296132442142380 32.501869697118963 170 125 104 255
25.607750373406461 -17.312094113665779 32.705279439414085 160 115 94 255
25.663857127018559 -16.326350467553539 32.909826198518147 156 111 90 255
25.747417013857472 -15.420743235976460 33.174929427680382 156 111 90 255
25.912183263085154 -14.760056860585507 33.618689123134857 153 111 90 255
26.076955130664487 -14.099413257908509 34.062409965021288 149 108 86 255
26.214885977373683 -13.356305591838037 34.447118072933023 148 106 87 255
26.218967551187717 -12.199179243051503 34.537945343867221 144 107 85 255
26.196978678450066 -10.956507557795788 34.571828128612680 142 104 83 255
26.149085630728308 -9.627628332698492 34.549210505116520 140 102 81 255
26.368376142090739 -9.129079571132024 35.112778999418168 142 104 83 255
26.667187275179160 -8.882234772000572 35.850444335102452 145 104 84 255
26.965468822063684 -8.637603104306095 36.586609300413130 145 104 84 255
27.210293043966232 -8.227099410342646 37.205389420902947 154 110 91 255
27.560450568072511 -8.154962715714078 38.054447109865549 155 108 90 255
27.751733945572099 -7.579027041979430 38.555530519356864 138 96 74 255
27.995534545339510 -7.172929669913401 39.171304282707553 127 82 61 255
28.160298029254477 -6.513389810223998 39.614117861921272 136 88 68 255
28.403663697612274 -6.109256807751819 40.228538061311411 153 105 83 255
28.594461200971693 -5.535712815883699 40.727946315073950 155 111 87 255
28.602617622653355 -4.363548661949892 40.828672128893913 147 110 83 255
28.455313800154030 -2.673945547536334 40.590577525078146 122 92 63 255
28.205482570598193 -0.634979121038782 40.129551669842897 86 77 42 255
7.830165666319033 -26.376008378533925 -8.480268787978900 218 181 157 255
8.969455689171440 -27.923505459222383 -5.863941466463785 220 184 162 255
9.836667629144785 -28.842068500794426 -3.853379893213258 221 185 163 255
10.195073671958014 -28.552223664591992 -2.973342717719731 220 185 164 255
10.641935183843557 -28.480873627798076 -1.897309209973969 218 186 165 255
11.206423715151132 -28.702136773056651 -0.560816084389472 219 184 164 255
11.532534445286871 -28.350454683374778 0.246546938155944 218 182 160 255
11.976274135525557 -28.291384374222815 1.314369530660940 213 177 153 255
12.477978728953971 -28.381990873389952 2.510163324384422 209 171 149 255
13.243445354586186 -29.134692007915135 4.289478817057841 204 163 143 255
13.859705650634254 -29.530169684795368 5.737507880294004 199 158 138 255
14.210241106422927 -29.271290387623509 6.596838734135133 199 158 138 255
14.706480013786518 -29.383552197156547 7.778127921634706 199 158 138 255
15.201465604230251 -29.500782805916714 8.956088549057029 201 160 140 255
15.666027672877874 -29.548863726191342 10.066256581189123 202 161 141 255
16.042099725039293 -29.378456249753555 10.980444466203750 201 162 140 255
16.242993869688178 -28.763898866140465 11.507481747782833 195 157 136 255
16.501752047439737 -28.299450790546473 12.162195390410631 186 146 127 255
16.731191070958431 -27.761436509007325 12.752081023808387 187 144 127 255
17.133751822605433 -27.675732202772821 13.723649591887266 186 143 124 255
17.535397218868766 -27.593663529627008 14.692781628609708 190 145 124 255
17.878555394727954 -27.363907554933746 15.532622447212418 193 146 126 255
17.991167596755446 -26.529854106706352 15.864383269735100 198 152 127 255
18.276026534366608 -26.151632684134142 16.575459301729495 199 154 124 255
18.560414158143885 -25.775277920233236 17.285285167453708 198 153 124 255
19.072866447359388 -26.013124062630709 18.496546409244814 200 154 129 255
19.384387698941438 -25.719022219675139 19.265377647182277 203 158 135 255
19.723788502974301 -25.504204911740146 20.095204505064061 205 160 139 255
19.835285635917316 -24.674507423829937 20.424057457883663 209 164 143 255
20.060365199361186 -24.153717256642324 21.002414050625163 210 165 146 255
20.454954943919006 -24.099760260288747 21.952692431314148 208 163 144 255
20.792167755961643 -23.893692583394341 22.776646171742101 207 162 144 255
21.241430776860085 -24.002689599656890 23.845965783724523 205 160 141 255
21.408296031014473 -23.333146795618234 24.295742210946287 206 161 142 255
21.883945359555682 -23.527445382643208 25.422011460086168 205 160 141 255
22.106204924650456 -23.017982290286824 25.992757059643992 207 162 143 255
22.663789357525275 -23.457038189554794 27.297364915801296 202 157 138 255
22.773284061831077 -22.635407535095851 27.620793860747341 195 150 131 255
23.189375579844793 -22.686406848856052 28.614809858373462 196 149 131 255
23.270878399088161 -21.785969311156919 28.876918141860784 190 143 125 255
23.713373288103284 -21.922239246503324 29.927898754245319 186 139 121 255
23.822487965626451 -21.102230428760407 30.250223175934622 181 134 116 255
24.069985938423244 -20.682822324602114 30.874702372473621 178 131 113 255
24.206827842736232 -19.942792556833837 31.257542953626000 172 128 107 255
24.426348325067181 -19.444552416498766 31.820713333683898 167 123 101 255
24.480823003523582 -18.461605008789320 32.023963085376352 165 121 100 255
24.508317193037385 -17.395797771593379 32.168613994709489 161 119 97 255
24.563718300273862 -16.409230393694884 32.374280444702691 152 110 88 255
24.674169536248073 -15.584159557937852 32.699958739640664 148 106 84 255
24.675836763502929 -14.430980120596615 32.789024072949701 143 106 82 255
24.786950215288556 -13.603370724031436 33.116389317313661 142 107 83 255
24.871146137816865 -12.692667380568366 33.385310124052324 140 104 80 255
24.955677449695315 -11.780686890570422 33.655078246713316 140 102 81 255
24.905385801168293 -10.453933375195106 33.632194501185609 139 103 81 255
24.936912770891638 -9.372454336651231 33.787294237780856 140 102 81 255
24.942077350019247 -8.205671876371611 33.885430998084956 138 100 79 255
25.216589759353923 -7.869853346102445 34.567884644941188 140 98 79 255
25.463866703381925 -7.452237032775656 35.191019965655613 144 99 80 255
25.898138491923021 -7.622531134485371 36.218984819463714 139 93 75 255
26.277927120779651 -7.629198929082179 37.128346037740101 125 77 60 255
26.683508372292025 -7.723625273694950 38.092994782030644 126 77 60 255
26.901971400013110 -7.230824492633843 38.652325816934848 155 108 88 255
27.120240434231945 -6.738903674782335 39.211049984629653 173 126 106 255
27.285349817593954 -6.078070242533556 39.654717925135287 169 120 100 255
27.529775515910870 -5.672570662135399 40.269608861441753 159 112 90 255
27.694781265047681 -5.012377138587908 40.712812213259639 148 108 83 255
27.649267068255341 -3.667745246794766 40.701738525507693 123 94 64 255
27.447081204278120 -1.804945299707640 40.353200317650703 96 84 48 255
7.158982087072175 -26.741820417763904 -7.789915761660438 218 182 158 255
8.124983451559274 -27.862061208875360 -5.575879714042884 219 183 160 255
9.118134450308034 -29.065358573014123 -3.303512632338681 219 183 159 255
9.537940349390084 -28.919110787146849 -2.292613589770355 216 184 161 255
9.926852773165720 -28.704631816478610 -1.349974305724913 218 183 163 255
10.314944293435644 -28.493363360649255 -0.409478824947655 218 183 163 255
10.702215763595774 -28.285304975555164 0.528872689145459 218 182 160 255
11.148259842823265 -28.225550177865841 1.595828504372690 215 179 155 255
11.712228207762223 -28.460959458169583 2.920950275490810 211 173 151 255
12.334089213206198 -28.848204590268125 4.372303272105682 205 167 146 255
12.894991228830406 -29.095770839905157 5.689281126012162 203 162 142 255
13.276964138231051 -28.908610611884370 6.613650077058651 202 161 141 255
13.835245282759104 -29.166561831052150 7.923671986770074 201 160 140 255
14.421517891748522 -29.504237357922591 9.294256375889375 201 160 140 255
14.829745937924429 -29.403650561767620 10.274605054008077 202 161 141 255
15.237052921015163 -29.306706596538788 11.252514798756806 200 163 140 255
15.555539148233095 -28.989803267748698 12.035866081066928 197 161 139 255
15.873436526621617 -28.675216826712159 12.817668060547049 191 153 133 255
16.219936325143919 -28.437920906707575 13.661664719775473 192 151 133 255
16.536604071051215 -28.128185393365925 14.440220859959510 188 145 126 255
16.910846686206426 -27.971594570561052 15.344123756209655 191 146 125 255
17.197208733471015 -27.591289263561322 16.055988064315045 194 147 127 255
17.483097106083164 -27.212853822003979 16.766601022815081 200 154 130 255
17.797428348481276 -26.912363705946461 17.538966521244134 200 154 128 255
17.995736072680643 -26.308992854759225 18.058363780804740 201 155 129 255
18.395542300229934 -26.241787686287324 19.016351437289558 204 158 134 255
18.823190735310106 -26.254946259090104 20.034465741158670 206 160 138 255
19.192430494896655 -26.118253609972101 20.925028928715648 209 164 145 255
19.360387552270396 -25.444496247485802 21.377610791876094 211 166 147 255
19.499731978707359 -24.693438097152779 21.768012811070548 212 167 148 255
19.924472529924572 -24.718218740656795 22.778326884736117 211 165 149 255
20.205819623467676 -24.357863379698784 23.476816204933272 210 164 148 255
20.543547726313932 -24.155477883511480 24.297405492562149 209 164 145 255
20.738762709269935 -23.564430955863486 24.808537220276520 207 162 143 255
21.216965174714588 -23.758897540528181 25.933080285840759 204 159 140 255
21.411372518194497 -23.171105712221902 26.442023105538510 202 157 138 255
21.662056420782889 -22.741715070060678 27.072774252402411 194 149 130 255
21.771658234763009 -21.917934806741499 27.397913708831396 189 144 125 255
22.246666051767562 -22.125271836257042 28.513802784403737 191 142 125 255
22.468115026554514 -21.621141374922018 29.080643795266184 179 130 113 255
22.801263526401939 -21.437237397362452 29.888801398134888 177 130 112 255
22.882390781039376 -20.535704861782790 30.152048417243321 177 132 113 255
23.075330023192237 -19.953954124043207 30.656909735970032 168 123 104 255
23.184696014994017 -19.131279156548544 30.981282045673623 164 123 101 255
23.266510694331615 -18.227093595110603 31.246294971059541 157 116 94 255
23.404066467651802 -17.483485911131027 31.631649633591366 153 112 90 255
23.431111793434070 -16.414953021173261 31.778832926909189 148 110 87 255
23.569099789578217 -15.669704938156656 32.165275007798357 146 108 85 255
23.541929906111037 -14.434616933449036 32.196109352590156 142 104 81 255
23.543017719105848 -13.278300441789952 32.288128343402633 139 103 77 255
23.627070249898111 -12.365441716733216 32.558920172011426 139 103 77 255
23.547175352508305 -10.957901943140655 32.477353926321456 140 102 79 255
23.604899172130018 -9.958722454751438 32.692002885954679 143 101 79 255
23.526716736480395 -8.544454918890153 32.614933899147616 142 101 79 255
23.721687005378897 -7.955204599905926 33.124732493355253 138 97 77 255
23.862237270791326 -7.200198471130335 33.517648667643925 137 95 76 255
24.273970869275871 -7.278106945788579 34.492127946628301 133 88 69 255
24.684732810758973 -7.359990981445094 35.463924675620831 121 74 56 255
25.229506912823666 -7.864705138811246 36.722216472943501 138 88 71 255
25.557231884356781 -7.703651720451148 37.514855136303908 178 127 110 255
25.991866436335670 -7.882087350518816 38.535863779186087 178 127 110 255
26.157107574772695 -7.220617156554624 38.979976223859438 172 124 105 255
26.402704311842498 -6.813099395315305 39.595807568680755 166 118 98 255
26.354054158744844 -5.473333377760753 39.582660856495806 159 112 92 255
26.519648990055032 -4.810760429911056 40.027465065633038 146 104 80 255
26.552212178460820 -3.721634137481828 40.188242637370337 126 95 66 255
26.505684297871056 -2.373712725920711 40.180518639363470 102 91 53 255
26.301053798500675 -0.507772421880077 39.836096436889278 48 58 13 255
5.575593538975482 -26.140146961906908 -9.185581014289994 214 184 158 255
6.824240170381415 -27.888206534356868 -6.371426896776114 216 181 159 255
7.340182491765546 -27.943153571243101 -5.155004754565539 217 182 159 255
8.067035262723891 -28.503003962597973 -3.479998806238342 218 184 159 255
8.731339250879955 -28.927653537690361 -1.942081678132269 218 182 161 255
9.061622985458087 -28.569039392762022 -1.131582237789843 218 183 163 255
9.511887554172588 -28.501074320692055 -0.060462810529827 219 182 163 255
9.991201424918358 -28.509505337705662 1.073312903117653 219 183 161 255
10.499400081998061 -28.594994485477059 2.269299867249430 218 182 158 255
11.006339319217986 -28.685460278917958 3.461955578804407 211 175 152 255
11.541944875231081 -28.853865712924573 4.716229610682092 207 169 148 255
12.165791623212442 -29.247241867727780 6.161279486100057 204 167 145 255
12.609054662022714 -29.206923290740377 7.213896179674606 203 166 145 255
13.110801813960023 -29.317946252937077 8.392785030121644 202 165 144 255
13.611295091525051 -29.433939574612424 9.568344377187827 203 166 144 255
14.021587884178075 -29.332698423976098 10.547950352898084 205 167 146 255
14.519742007726975 -29.457966151333437 11.717296724524289 202 167 143 255
14.898489000270700 -29.290163695116519 12.627667990336874 198 163 141 255
15.276426919834989 -29.125561007985965 13.535896981398196 193 156 136 255
15.594698525131491 -28.814256571604403 14.314753037581426 193 152 134 255
15.853634866897110 -28.354926079066757 14.965125160073939 191 147 128 255
16.141524397898721 -27.972418744626509 15.677860260751402 193 148 127 255
16.428938982429912 -27.591783264800540 16.389343158051901 197 150 130 255
16.832716625590948 -27.516345820002869 17.351667466294742 202 156 133 255
17.148118943654325 -27.216383796211574 18.122930492575222 202 156 132 255
17.404740950785282 -26.766185051015100 18.767192146299919 204 158 134 255
17.719091044583266 -26.470397549860138 19.535658228189249 207 161 137 255
18.032861792060899 -26.176915211020429 20.302578793021354 209 163 141 255
18.346054363116991 -25.885736305533442 21.067954542813851 211 166 147 255
18.572030872700438 -25.365398644055347 21.645379408753598 213 168 149 255
18.884235354937431 -25.078160675027704 22.408111448735866 212 166 150 255
19.224635175720763 -24.870814353016357 23.231140877555816 211 165 149 255
19.506921837403155 -24.510576454100885 23.928948956425444 209 163 147 255
19.760086009851804 -24.074158328728856 24.563967794077627 208 163 144 255
20.012898848756478 -23.639151734182917 25.198038131621388 205 160 141 255
20.465214806310996 -23.754872006570338 26.259901537332894 200 155 136 255
20.631458029113389 -23.088140379777712 26.707740657638340 195 150 131 255
20.797682862263656 -22.421494040092057 27.155520703221327 190 145 126 255
20.935504648642635 -21.675797215397495 27.542437096594199 187 141 122 255
21.328400178558113 -21.643924426970386 28.475511554205895 184 135 118 255
21.579022629835166 -21.217780942394938 29.103616449563674 176 127 110 255
21.801081593580108 -20.713239630449209 29.670417881270595 169 122 104 255
21.797576493210073 -19.569546470477633 29.754856481382546 167 122 103 255
21.907166138286428 -18.744219111325663 30.081282502140994 159 114 95 255
22.073080150472450 -18.078987227661742 30.528086442449506 153 113 91 255
22.154980120458106 -17.171804581504830 30.795524060682766 147 109 86 255
22.097466011605007 -15.858906620086600 30.765676037420945 144 107 83 255
22.012931757290573 -14.461442645738032 30.678664344563828 141 105 81 255
22.040732206462991 -13.385408925133333 30.831579181925093 140 106 81 255
22.180211273278303 -12.633438939832672 31.222651317156760 139 105 80 255
22.097974819090780 -11.226915258771442 31.141700815982205 137 100 74 255
22.016726758821093 -9.816487542042637 31.063363328700575 136 100 74 255
21.881231662775846 -8.237732686112196 30.870161629098675 136 95 71 255
21.939893930804516 -7.231197510802787 31.090308166969436 141 94 74 255
22.246582255226670 -6.966788954988516 31.837596337267797 128 81 61 255
22.772364358657114 -7.367563294594987 33.049749833845254 125 79 60 255
23.077537322400559 -7.109371061550547 33.792841018423047 123 75 58 255
23.546241459348096 -7.353250860831139 34.882438868467347 137 88 71 255
23.931884650159375 -7.351402559108720 35.795200613439363 173 123 106 255
24.480075642180168 -7.855570039356252 37.051820055906177 183 132 115 255
24.754949050666767 -7.526234511320098 37.728689708045351 183 132 115 255
25.083653756635059 -7.367039797287816 38.519182656905059 177 126 109 255
25.195159383852470 -6.535241739826006 38.849766889644684 168 121 101 255
25.360938897481830 -5.871819707283237 39.295158227237891 158 111 91 255
25.311059248251681 -4.529638767383403 39.284772338416218 149 108 86 255
25.262085179758472 -3.183940098136759 39.276731585752856 131 98 71 255
25.214018981164045 -1.834719037863749 39.271038399918893 116 99 66 255
5.363199418049035 -27.566326383143519 -7.498969147716480 212 181 157 255
6.159303520245132 -28.253442136356625 -5.684481072224372 214 181 158 255
6.769515087591543 -28.522492434892115 -4.272046526625417 215 183 159 255
7.347579742037823 -28.726459027134268 -2.929694521418014 220 186 161 255
7.924159000567855 -28.936291450268413 -1.591268376204340 220 184 163 255
8.407935253150725 -28.936484459500718 -0.453456508774082 219 182 163 255
8.860175043724325 -28.869159563799627 0.615905673009365 220 183 164 255
9.341703216835384 -28.878206580235826 1.747795490913376 220 184 162 255
9.761533173683006 -28.746794571464307 2.746414698424331 218 182 158 255
10.240872238351443 -28.764471514029708 3.872531054169002 212 176 153 255
10.779390500495751 -28.932561787288790 5.125254788075580 211 175 153 255
11.346649644931546 -29.179229022649054 6.439023606011858 206 170 148 255
11.672004134285800 -28.844705043157830 7.232672014227148 207 171 149 255
12.176754856739677 -28.954115142049602 8.411026898911643 207 171 149 255
12.650308077805249 -28.994674043200121 9.521823610252710 209 173 151 255
13.122718371430395 -29.039761429688440 10.629587143496082 205 169 147 255
13.653653189472763 -29.237903473557651 11.862181458576401 204 170 145 255
14.064114629990627 -29.143515957962904 12.836016619679953 199 164 142 255
14.414210488767054 -28.903360246420959 13.680141806678051 196 159 138 255
14.763608118162068 -28.665962733769192 14.522420857177423 195 154 136 255
14.964243227614062 -28.055592257501246 15.046157826090621 194 151 132 255
15.401196691174377 -28.048704329062360 16.075059779458286 196 151 130 255
15.778118937152470 -27.894719607667469 16.975142246606055 202 155 135 255
16.242581533704296 -27.971350237984836 18.061769803851490 206 159 139 255
16.353193803241169 -27.140163665289720 18.392403921369436 205 159 136 255
16.669360914744118 -26.841936952823971 19.161756873240250 207 161 138 255
16.926380742646913 -26.393081328653921 19.804660828803321 210 164 141 255
17.183040645127846 -25.945650554875812 20.446610614460610 212 165 146 255
17.439341716921334 -25.499643105640445 21.087606811044139 213 168 149 255
17.753522023528717 -25.209315120129702 21.851665016922567 215 170 151 255
18.154316837446615 -25.153334871027283 22.799758316435430 212 166 150 255
18.467181266732211 -24.868266636978888 23.560286323375891 210 164 148 255
18.808425746049210 -24.663284252950575 24.380836333602247 207 161 145 255
19.091190177334795 -24.305017921645884 25.076717466934525 204 159 140 255
19.344649120564725 -23.870374544291764 25.710085842988832 200 155 136 255
19.655335919722717 -23.594039967017267 26.464747496530578 192 147 128 255
19.879251180910998 -23.083985395730593 27.034952722587718 190 145 126 255
20.016889915681503 -22.338228973102787 27.422032190264844 182 137 118 255
20.154620838733564 -21.592116743709539 27.809348492855406 178 131 113 255
20.406724226850670 -21.162962864937469 28.439021403726343 175 126 109 255
20.572938909338006 -20.496561207508677 28.886605478876533 170 121 104 255
20.739140008154465 -19.830236966869450 29.334133997867440 165 118 100 255
20.763302625878765 -18.764044996862481 29.481174224773525 161 116 97 255
20.816353093120227 -17.775936094893041 29.689576472356407 153 109 90 255
20.869832705466308 -16.786139254688408 29.899107352838399 146 106 84 255
20.839020528709469 -15.552708560074620 29.930836016038000 144 106 83 255
20.837155227916583 -14.397134344379680 30.024077326251671 141 105 81 255
20.610893496709352 -12.590287870379541 29.644249939613786 137 104 79 255
20.610773722660355 -11.427805490558057 29.742117091961802 135 103 78 255
20.387137618114338 -9.610531016248785 29.369278266913994 134 101 76 255
20.360802862976641 -8.359384088252796 29.412869472961461 133 98 73 255
20.474796212967959 -7.515042608743386 29.752276842144823 124 88 62 255
20.561154686661524 -6.587684761392438 30.033621616697729 103 62 38 255
20.981473738321426 -6.647914748067763 31.017378249729830 102 55 35 255
21.511802137718746 -7.042636757059654 32.231708810114441 119 71 51 255
22.096098482170490 -7.608793213753330 33.558508253423014 139 89 72 255
22.430019826627259 -7.433995295200759 34.358657309121327 158 107 90 255
22.818460720240722 -7.428428016472367 35.272754221601446 184 133 116 255
23.206037658804036 -7.426398794485010 36.184463314169619 186 135 118 255
23.647698941519138 -7.595348442641892 37.208945554050871 184 133 116 255
23.896351272987999 -7.181112025673713 37.828431596819030 177 126 109 255
24.144693355209384 -6.768205870478340 38.447010783060904 173 124 107 255
24.228874645059534 -5.850339449550745 38.721862471371765 160 114 94 255
24.313407799387122 -4.931160466800065 38.997580511089637 146 104 82 255
24.153503901254936 -3.247283653038266 38.762585451728086 133 98 72 255
24.022087984274009 -1.643173552666894 38.587809127612019 113 92 61 255
4.262097146589099 -26.941181875100824 -7.736332902266270 213 180 155 255
5.310779882722670 -28.192971790104735 -5.394705679460429 216 180 158 255
5.955339331282175 -28.532356604348251 -3.917897840927225 218 180 159 255
6.536612877125179 -28.735757516530384 -2.577073166890102 221 183 162 255
7.085666981080038 -28.873435970249915 -1.305757879098337 221 184 165 255
7.602668346127700 -28.944727895162032 -0.103506624372699 220 184 162 255
8.118407091102142 -29.021000426501899 1.095412092968786 218 182 160 255
8.571747609193466 -28.957748628205024 2.160722678384445 220 184 162 255
9.115587532694619 -29.116010800949255 3.418262892389635 216 180 158 255
9.718973344291811 -29.425080374213820 4.801856729835947 211 175 153 255
10.290366827101323 -29.667537128530796 6.116536053148678 210 174 152 255
10.647848653023743 -29.403903746406201 6.975478560306499 212 174 153 255
10.944040229317494 -28.996323944753499 7.703779884217539 211 175 153 255
11.330460182968025 -28.811357957127939 8.623570085579360 210 174 152 255
11.897160404278566 -29.072385067689765 9.925814943300963 211 175 153 255
12.522641387597048 -29.487302516349615 11.352040413425385 209 174 152 255
13.026140939275251 -29.611997600960763 12.518536914139389 208 173 151 255
13.498372375690508 -29.667200256425133 13.618049254628517 203 168 146 255
13.729767609473839 -29.129484922689215 14.206471559060702 199 162 141 255
13.930997756413888 -28.517863104538208 14.730873086363744 195 157 136 255
14.281340738762253 -28.282400563870539 15.570964746308363 194 153 133 255
14.779972244367997 -28.426403451932515 16.724525791269656 197 154 135 255
15.247616405656714 -28.499803365686716 17.811846217528426 203 158 135 255
15.476630436871858 -27.971458737119434 18.394002076618648 205 161 136 255
15.586863104437384 -27.140090978686231 18.725021982607274 207 163 138 255
15.904322577797089 -26.841511419321250 19.493863168365749 208 164 139 255
16.162156772471207 -26.392352888532685 20.136511243710601 211 166 143 255
16.360696486376511 -25.791292207357429 20.653854434528455 212 168 148 255
16.588509055215923 -25.267658747181628 21.232862481170571 213 170 153 255
16.933502585081840 -25.053424463170984 22.058730321244411 216 170 154 255
17.365716773486895 -25.073905235140188 23.067952741032343 211 165 149 255
17.709173928529381 -24.865812886233186 23.889698156979449 204 158 142 255
18.081139685018258 -24.738222734166300 24.771041457256075 203 156 140 255
18.452312957891280 -24.613808091852633 25.650252224510695 199 152 132 255
18.648198436254859 -24.023338255636503 26.160490014803287 193 146 126 255
18.843952597686268 -23.433399176538757 26.670370663542457 189 142 122 255
18.981630619020621 -22.686699510173668 27.058205495142033 184 137 117 255
19.206153664385639 -22.176240796653303 27.628366966888308 176 131 110 255
19.286122919558409 -21.271323857307038 27.895131839038811 174 129 108 255
19.481638380220673 -20.682388134517879 28.404331405055899 170 123 103 255
19.475753717997705 -19.537302607906554 28.491400473756158 166 119 99 255
19.614006818028400 -18.788378118828859 28.880717058102164 157 111 90 255
19.465917966038475 -17.239450567553689 28.670686444424319 149 107 85 255
19.576325655020383 -16.407415094663861 29.002149544599916 147 106 84 255
19.658408463094304 -15.494168471140370 29.274486639296924 139 106 79 255
19.569935378526083 -14.095932732375019 29.190561762433646 135 103 76 255
19.255045668272004 -12.047064463552999 28.634295285059949 132 102 76 255
18.998753910387336 -10.152915285856665 28.201437935759287 132 102 77 255
18.744102796403780 -8.252236668618821 27.772958539573523 135 99 77 255
18.717174437967941 -6.997042455613155 27.820264720904134 110 70 50 255
18.888449351424200 -6.310880076408779 28.281039201362347 84 43 24 255
19.341229097814193 -6.444182587337622 29.328078863117355 89 45 26 255
19.736723386832338 -6.417604362245982 30.255160592911778 114 67 47 255
20.299588985826972 -6.888867765959162 31.529858870297147 135 86 69 255
20.944882814424034 -7.614121251193978 32.974956357892012 151 102 85 255
21.560388592983145 -8.264058306386175 34.356964278117772 164 114 97 255
21.895385980579960 -8.090663316565156 35.155284537725009 177 128 111 255
22.174093208698125 -7.753415467303910 35.836311875820769 184 136 119 255
22.424607645779631 -7.334471797605232 36.458531768629086 186 135 117 255
22.730230831667782 -7.084263120034308 37.194742966441737 180 129 110 255
22.980007883042646 -6.668433176175142 37.814847148924827 170 123 103 255
23.091463635194202 -5.833250070743418 38.148260840645037 158 113 91 255
23.148064410436845 -4.828485916824206 38.368224898919067 145 108 83 255
23.095156819700193 -3.483667530851903 38.361901898671960 129 100 71 255
23.125463391771291 -2.389724204507161 38.528064708190840 110 95 59 255
22.992049571697322 -0.783492689437878 38.356284284424873 56 65 20 255
2.471975218907716 -25.925726733361245 -9.524636257031460 207 183 153 255
3.779992385407610 -27.730172858980012 -6.650134645556307 215 181 156 255
4.554615254192683 -28.345349405991271 -4.906692511111316 220 184 162 255
5.327087028721081 -28.969048984890833 -3.168959101953391 220 182 161 255
5.880210412118501 -29.101867886251284 -1.896156267874915 222 184 163 255
6.431958755975813 -29.240111645287925 -0.626983346158852 221 184 165 255
6.858661540180464 -29.096638144064343 0.377334339966239 220 182 161 255
7.222707728699788 -28.812806977339079 1.248893450073155 218 180 159 255
7.770888905891610 -28.965110284849942 2.508660935000933 215 177 156 255
8.409955593081492 -29.340179858035697 3.959382721411970 215 177 156 255
9.170109262335288 -30.012671889028695 5.664437175045407 212 174 153 255
9.560418767907265 -29.818994732567063 6.589010828241186 212 174 153 255
9.888738397691540 -29.482305067105301 7.382606186638810 215 177 156 255
10.094336658636337 -28.854614020409656 7.917576619309699 215 179 157 255
10.543593610025965 -28.815900873068671 8.965139642667594 213 177 155 255
10.930973580529852 -28.633731276372487 9.882021193606505 212 176 154 255
11.621203379636540 -29.194705772562997 11.434992762360338 210 175 153 255
12.218586035402637 -29.540654604018613 12.791830358637213 211 176 154 255
12.753874674015321 -29.744025112226751 14.017395459841083 206 171 149 255
12.955591511430924 -29.131590971698103 14.542165963821787 202 165 143 255
13.247598304989083 -28.744339301650228 15.256263528651687 199 161 140 255
13.629400533410916 -28.584253916821808 16.158355562211625 199 158 138 255
14.130539843214422 -28.728635074498982 17.310044773328599 202 159 140 255
14.510509776811716 -28.575825699850469 18.207260807080047 205 160 137 255
14.769971586955279 -28.123179053821445 18.851780643617474 207 163 138 255
14.969328127792153 -27.520005872218348 19.370362433159585 208 164 139 255
15.287805936433529 -27.222174965225065 20.137951596596992 210 166 141 255
15.427136593723631 -26.468138999133942 20.530823964788709 212 167 144 255
15.655664590633975 -25.943684719247642 21.110065805596435 214 169 148 255
15.943245244663416 -25.573933581803459 21.812447267127453 213 168 149 255
16.348742185948851 -25.514364520722864 22.760584134946015 210 165 147 255
16.664709063415984 -25.226519081286796 23.521479276060631 208 161 144 255
16.891641452955625 -24.708413904419643 24.096464250231776 199 152 134 255
17.236054187061171 -24.502246264605219 24.916024402429343 193 146 128 255
17.550407338900442 -24.220854714296053 25.672587313447622 191 143 123 255
17.776223801725450 -23.707216686809659 26.244573030050930 186 138 118 255
17.796932316070439 -22.645749478078585 26.389854685624243 184 137 117 255
17.935015980563719 -21.896652605613497 26.779419119902258 178 131 111 255
18.073189840851455 -21.147203765976514 27.169218453604657 170 125 104 255
18.211455098884855 -20.397401022562917 27.559253540481876 164 119 98 255
18.291718729674898 -19.488682678874028 27.828978054973703 158 115 91 255
18.198342118501373 -18.101728663778914 27.738775017382295 153 113 88 255
18.250625437057948 -17.109494756025299 27.951064386811282 147 105 81 255
18.043391374944761 -15.396125618568050 27.626002557277019 145 103 79 255
18.241159302573351 -14.799344827210973 28.140287345913038 141 105 78 255
18.179851287517664 -13.479666267907305 28.118403598474629 136 104 78 255
17.803513540709289 -11.269956995702501 27.445560948172840 131 105 78 255
17.343262558530668 -8.809510895713657 26.600552827526172 134 109 83 255
16.999851547008845 -6.663615360326787 25.998357793893177 107 74 51 255
17.001051766124775 -5.484966642433960 26.108769165362162 56 15 3 255
17.145400019371081 -4.711128729384995 26.514892526519020 78 35 16 255
17.773401108663762 -5.325757575666501 27.918321680462157 102 59 41 255
18.626759190644989 -6.602800945965697 29.785010927573751 127 81 63 255
19.194145276645358 -7.069072822157636 31.061025338309662 141 93 73 255
19.675161225831147 -7.294471805332023 32.158247138132964 153 102 85 255
20.126751143320206 -7.442168434292512 33.194126768160942 168 117 100 255
20.605420434944932 -7.677089968196896 34.284935113662073 174 125 108 255
21.026661891094363 -7.750847440488201 35.256934981890737 182 134 117 255
21.334686390976174 -7.495651326861264 35.995776431347196 182 135 117 255
