ply
format ascii 1.0
element vertex 654
property float x
property float y
property float z
property uchar red
property uchar green
property uchar blue
property uchar alpha
end_header
-30.469463877339621 -4.513096960164432 -40.742144417665223 126 74 55 255
-30.786546570166706 -3.975806664666365 -40.669275532413394 100 52 32 255
-31.782035031688508 -3.730354604581677 -40.426065478892561 171 127 108 255
-35.006298944597972 -4.450364320562713 -39.623009936741717 196 153 136 255
-37.067044509060366 -4.683910227605864 -39.112142265962412 197 151 134 255
-37.867769031948455 -4.378952544392675 -38.917811776735562 190 143 125 255
-38.087052335337319 -3.822836281649728 -38.869614878282711 182 135 117 255
-38.112565248175400 -3.181998834652902 -38.870177756604960 161 119 97 255
-38.331806092104330 -2.627211768187124 -38.822123394310843 148 109 86 255
-38.163625424102520 -1.899861890172218 -38.871523153718123 127 95 67 255
-38.286010162990777 -1.302191744122197 -38.847963035778896 117 89 60 255
-24.928484538509394 -6.279746782396430 -42.782111363479068 212 176 149 255
-27.476766298952725 -6.633287434753527 -42.141938516446679 214 169 148 255
-29.151785813777735 -6.642155166658355 -41.723358281013752 213 167 144 255
-29.953833416464391 -6.299043313594893 -41.526369404651021 203 152 131 255
-30.561824390117408 -5.879383640482828 -41.378671184421236 180 127 109 255
-30.975823536938151 -5.381547601572208 -41.280264594722631 166 114 93 255
-31.098970822855449 -4.762973424308370 -41.255765378287485 130 79 59 255
-31.512848131196250 -4.268439500848046 -41.157488139092074 101 51 32 255
-32.992585688292792 -4.232168602637969 -40.788516256526428 201 154 136 255
-35.537828337600757 -4.663090211986557 -40.148846593654731 197 150 134 255
-36.919939232753762 -4.603777286461025 -39.804617433752831 200 151 135 255
-37.429919562457030 -4.171335615827033 -39.681989413521258 193 144 127 255
-37.746082350958204 -3.656348001280449 -39.608661323698762 178 131 113 255
-37.868492642658481 -3.057182649119937 -39.584635692755803 158 113 92 255
-37.894054193074709 -2.415306455630230 -39.585299559120145 144 103 81 255
-37.725971920554201 -1.686528634754694 -39.635271448534304 128 93 67 255
-37.848396276900957 -1.087424203617033 -39.611472347894484 117 91 64 255
-25.365398792725443 -6.441716296808778 -43.358934520137311 212 175 148 255
-27.816171531505233 -6.756652330543318 -42.736621147116409 216 171 150 255
-29.103035468340721 -6.606845274650851 -42.412993599050772 212 166 143 255
-29.711065322688256 -6.183148570659966 -42.263624750355994 202 151 130 255
-30.512828005053734 -5.843383015895512 -42.064548503392778 187 134 116 255
-31.217511242419420 -5.467186074474256 -41.890421335081918 163 111 90 255
-31.340621377210908 -4.849086022868590 -41.865670587315364 132 81 61 255
-32.045086178089406 -4.478624634616111 -41.691674501563575 130 79 60 255
-33.912014380045690 -4.609503365636485 -41.219119754214745 200 152 135 255
-36.166034947758305 -4.917520136296176 -40.647087017520185 197 148 133 255
-36.966637733589721 -4.607655309336252 -40.448403682914716 200 151 135 255
-37.282821735839349 -4.090564671981525 -40.374218491805685 194 145 128 255
-37.889473705370762 -3.702625653883317 -40.225446103475171 176 129 111 255
-38.108688298514551 -3.146482877285521 -40.176290600039458 160 115 94 255
-37.940595370888389 -2.418877535449056 -40.226756445349714 141 100 78 255
-37.675749485848399 -1.646656674005811 -40.302187657708004 127 92 65 255
-37.894967815127842 -1.090841582579841 -40.253262460593469 115 88 61 255
-25.317404771486139 -6.407127803925931 -44.059356232907717 211 175 148 255
-27.961579786929860 -6.800838472401367 -43.379977173049966 218 173 152 255
-29.345110030541179 -6.691063191637042 -43.027690151657616 214 168 145 255
-29.953004342921503 -6.267834001725546 -42.876714205543834 207 156 135 255
-30.851499456980662 -5.968919178021665 -42.650334368279033 185 132 114 255
-31.556016990829363 -5.593456497066015 -42.474331349824006 169 117 96 255
-32.066621779148875 -5.139816940454182 -42.348706312726897 118 66 47 255
-33.061502549716636 -4.894770360563783 -42.097367642548974 177 126 107 255
-35.218546480044068 -5.152667617782512 -41.544220687467039 199 151 134 255
-36.697153414068481 -5.130164665433441 -41.167232833469335 201 152 137 255
-37.110179782346336 -4.653520525111901 -41.067033844896663 200 151 136 255
-37.426298880041031 -4.136623645147850 -40.992062645392302 191 142 125 255
-37.839185263637518 -3.663763776308528 -40.892007002082799 174 127 109 255
-38.251996747733500 -3.192922522717964 -40.792024682154107 156 111 90 255
-37.890338924785596 -2.379321646188075 -40.893377941878349 139 98 76 255
-37.819145334546590 -1.693491203663001 -40.919338337298804 125 91 64 255
-37.941541422748031 -1.094225687401476 -40.895062835034203 112 86 58 255
-26.044893573957239 -6.686958344176446 -44.556890186554426 212 175 148 255
-28.203868258534442 -6.884578615422740 -43.997352039809769 216 171 150 255
-29.296378944599212 -6.655721323184693 -43.717572643531078 215 169 146 255
-29.613475390790995 -6.111800428187479 -43.641271353804932 205 154 133 255
-30.414953388760921 -5.771335837292995 -43.437901568060745 184 131 113 255
-31.022514736102522 -5.353784390444986 -43.285451432917547 158 106 85 255
-31.823688144286734 -5.021226648849023 -43.082214807073576 120 68 49 255
-33.302685259430490 -4.981272828126976 -42.701057289291334 198 147 128 255
-35.071902425475486 -5.073728510109618 -42.243685373375421 200 152 134 255
-36.550240962599361 -5.050588028096911 -41.862661374052287 203 154 139 255
-37.253683736956901 -4.699355708450170 -41.685124165582572 196 147 131 255
-37.569738094887924 -4.182651370564372 -41.609368558264570 184 135 118 255
-37.595335094493038 -3.539770067232382 -41.609970566575520 169 122 104 255
-37.911315163114068 -3.025209057724894 -41.534364780693586 153 108 87 255
-37.936903361343866 -2.382831674556101 -41.535121074594478 139 98 76 255
-38.252810569825755 -1.870388113561020 -41.459670613286455 123 92 64 255
-37.891359204068550 -1.053937289263516 -41.562304196464659 108 83 55 255
-26.093731178876453 -6.691631365762319 -45.230503335926990 211 175 148 255
-28.349177962605637 -6.928720578820162 -44.639329776492964 217 172 151 255
-29.247687165619993 -6.620363810114426 -44.407986694508033 214 168 145 255
-29.758496787173470 -6.156329279458603 -44.279498856234291 200 149 128 255
-30.462943321915105 -5.775670356054647 -44.099682270443232 177 124 106 255
-30.876677034380180 -5.276730623630456 -43.997025641528246 139 87 66 255
-31.968258346492718 -5.066325797834622 -43.714554078992528 165 114 94 255
-33.737461379959711 -5.150136580677909 -43.252266452425779 200 149 130 255
-35.603111418824994 -5.285041535999412 -42.764347873447214 203 156 138 255
-36.403408287793525 -4.970990726856073 -42.559174812784015 201 152 137 255
-37.203543333166948 -4.661140881760730 -42.354072598149905 193 144 128 255
-37.519554695249838 -4.144085865240271 -42.277534671986935 179 130 113 255
-37.545167805889776 -3.500857061469290 -42.278168264840637 166 119 101 255
-37.667563523675085 -2.900297662540680 -42.253181002624821 153 108 87 255
-37.789949798079220 -2.300120796900202 -42.228272907455832 141 100 78 255
-37.912327008356812 -1.700319679849812 -42.203445484995392 120 91 63 255
-37.551003508776972 -0.882706555941880 -42.307201229373597 113 88 60 255
-26.239459896343504 -6.735585628289002 -45.878136078006328 210 174 146 255
-28.688209423961268 -7.051980343517585 -45.228819125600999 218 171 148 255
-29.392774327628047 -6.664671533680732 -45.046997088373573 211 164 142 255
-30.097197242449283 -6.281056248441402 -44.865241295326264 195 142 122 255
-30.510933790114450 -5.779981648461714 -44.761457639335383 168 115 97 255
-31.118268399953109 -5.362272545871335 -44.605805875620653 132 80 59 255
-32.306443508408563 -5.193244068949667 -44.294412854313414 203 152 132 255
-34.268897313724437 -5.360155112569146 -43.775340259489226 200 149 130 255
-35.262878970781173 -5.123118887691916 -43.516022131829509 203 156 138 255
-35.869478153669974 -4.724424506394314 -43.360650244170991 203 154 139 255
-36.669525931053926 -4.412861120424523 -43.153413038009226 187 138 122 255
-37.082321203936090 -3.936377549030922 -43.050126342923164 176 127 110 255
-37.495041704836808 -3.461914382474845 -42.946915700820448 160 113 95 255
-37.617434227794632 -2.861002925097921 -42.921692258445908 150 105 84 255
-37.739817473295005 -2.260472402887501 -42.896549390184568 140 100 78 255
-37.378544021319414 -1.443498927245869 -43.001342173566634 117 91 61 255
-26.288277775586977 -6.740217381019662 -46.551455644076036 206 172 142 255
-29.123984159810334 -7.214776433979750 -45.790435992751448 218 169 145 255
-30.118923218167623 -6.947989790284083 -45.528024627726985 209 158 137 255
-30.823137805907805 -6.566189246873890 -45.344397427037173 192 137 117 255
-31.043067871010692 -5.986172130867274 -45.292033711636918 159 107 86 255
-31.456599900640782 -5.488433045184109 -45.187261575697775 135 82 64 255
-32.838125958224197 -5.401969649892138 -44.820167793276617 200 151 133 255
-34.703341762255263 -5.528935513623281 -44.321946507028720 201 152 135 255
-35.600303472835833 -5.251428566525121 -44.086188873402058 203 154 139 255
-35.819658844845321 -4.686522144071219 -44.034181389775561 200 148 134 255
-36.619565608477245 -4.374598640218778 -43.824809878721432 186 134 119 255
-36.742039231671185 -3.770928667035022 -43.799194209228510 170 119 102 255
-37.154729997407770 -3.295295613005422 -43.694936037684116 155 109 90 255
-37.180420397729137 -2.650397655425280 -43.695720012552655 145 106 83 255
-37.302844034445201 -2.048426963386746 -43.670345579500271 130 96 71 255
-36.844999571948875 -1.186656386423763 -43.802504627187851 116 91 63 255
-26.433947839888503 -6.784123344997639 -47.198256074099426 207 175 145 255
-29.656443444316636 -7.417101787525951 -46.323369588830765 217 169 146 255
-30.457475897760389 -7.071907969915316 -46.111294801002394 210 158 137 255
-31.258345057048132 -6.730947024103628 -45.899288079542579 187 130 111 255
-31.381388570680798 -6.111560467822272 -45.872919272482683 134 81 63 255
-31.794814616503771 -5.614555512164628 -45.767091803381938 185 132 114 255
-33.176038410470966 -5.528808183597135 -45.396235808196600 205 155 138 255
-35.040853822441534 -5.656481239579946 -44.892899112699162 204 155 138 255
-35.550548277775277 -5.213847587347715 -44.760776511855944 203 154 139 255
-35.769880553343143 -4.648590649046753 -44.708260229270074 198 146 132 255
-36.085925144187598 -4.126283349416525 -44.629310288158642 184 132 117 255
-36.305183074779166 -3.563181571145321 -44.576949524121019 168 119 102 255
-36.717855102718204 -3.086105881046350 -44.471645969154274 154 108 89 255
-36.840317431286252 -2.482587378182018 -44.445957831455765 143 103 81 255
-37.059471910204422 -1.922535318161792 -44.393841214892120 125 91 66 255
-36.505074345308117 -1.016511274263891 -44.553909508996831 112 87 59 255
-26.579579020307108 -6.828001736764122 -47.844507155002638 203 173 144 255
-29.801420564075727 -7.461123414616424 -46.960711674411137 211 162 140 255
-30.795911487845473 -7.195789545387612 -46.692936095354490 198 147 128 255
-31.112595655265892 -6.655024209560523 -46.612693271318228 179 122 104 255
-31.042067343090991 -5.954268810867276 -46.639643575033112 131 78 62 255
-32.036134186096717 -5.699990200190513 -46.372078814040826 206 153 136 255
-33.610602171244210 -5.696525161208854 -45.943900682679860 205 155 138 255
-34.991221651866425 -5.619225965471273 -45.569355076662568 203 154 137 255
-35.597580303643525 -5.217697928569237 -45.409130496378403 197 148 133 255
-35.816878876080722 -4.652360125471930 -45.356106945216773 189 140 125 255
-36.229594883754032 -4.171971844549631 -45.249598487945121 175 124 109 255
-36.545522438498608 -3.651331409385094 -45.169950772447272 161 112 95 255
-36.861397295019827 -3.132164522278615 -45.090383745270238 153 109 90 255
-36.790450975300871 -2.443198833449628 -45.118029446862444 140 102 79 255
-36.816220561517724 -1.796611314548102 -45.118978713160523 121 89 64 255
-36.358650578514641 -0.933053301604929 -45.253933059719614 103 79 51 255
-25.272980627201264 -6.282459989716543 -48.895978986352439 201 174 142 255
-29.559151272569324 -7.346861443708306 -47.705712651316794 213 165 144 255
-30.553482935208564 -7.080628363131794 -47.435257603712706 199 148 129 255
-31.063706294985622 -6.619184550697312 -47.300129094881733 177 120 103 255
-31.089983133273591 -5.958463491301515 -47.300329129607682 138 84 68 255
-32.470894400747426 -5.866679927054875 -46.921882048609952 204 151 135 255
-34.045010375179373 -5.864196659781982 -46.489403264609059 207 157 140 255
-35.135105190361372 -5.664317233483800 -46.192254831760984 202 153 136 255
-35.160981490460586 -5.014217475763672 -46.192752164100220 192 143 128 255
-35.477016254490252 -4.489172584249374 -46.112172026048604 183 134 119 255
-35.696292843431650 -3.923610316765519 -46.058723813117943 170 121 106 255
-36.495703153640932 -3.612619094237957 -45.843039881516667 155 106 89 255
-36.714852740377097 -3.050549036582098 -45.789753888515897 152 107 88 255
-36.643954118277151 -2.360956825429710 -45.817712803873711 136 99 76 255
-36.476428468625443 -1.627566533379579 -45.872813900052343 120 88 63 255
-35.729054142579542 -0.632766932274336 -46.090332616174614 97 76 47 255
-25.031656651941887 -6.169141895859070 -49.654484742567583 199 173 143 255
-29.123436005420416 -7.153458909520609 -48.506979005811125 211 162 142 255
-30.795031114618268 -7.164610165908940 -48.042592352680607 198 146 129 255
-31.111618258063430 -6.623421031465909 -47.960784892285979 171 114 99 255
-31.524900478671299 -6.124122137142365 -47.851728306546669 170 117 103 255
-33.002238347678457 -6.073968191312431 -47.442200726085623 209 156 142 255
-34.382534727836060 -5.990905402865494 -47.060067648278540 206 156 142 255
-34.698645217808036 -5.462250301352825 -46.978556273338221 196 147 132 255
-34.821288169978430 -4.852174240540919 -46.951768530907280 187 138 121 255
-35.040617016369453 -4.284231080408304 -46.897738015545208 174 125 110 255
-35.743340983777131 -3.927227434250185 -46.707171843133089 164 115 100 255
-36.349251327543442 -3.531598424936149 -46.544009042573784 155 108 90 255
-36.471725958103178 -2.926355379050221 -46.517548061636099 148 105 86 255
-36.207580275777588 -2.150236310142276 -46.600471466640364 131 95 71 255
-35.846870705016471 -1.329232881818996 -46.710811341002405 123 90 65 255
-28.978206261932627 -7.078723714121040 -49.228173278519257 209 163 142 255
-30.455990401812016 -7.009570501401356 -48.814401067291705 199 150 130 255
-30.966049327823185 -6.547422561846375 -48.676628562178600 159 100 84 255
-31.862931940227810 -6.249361555276863 -48.428558210964972 200 149 132 255
-33.533387674764185 -6.281205290930828 -47.959817254247049 202 151 134 255
-34.526525513041435 -6.035740620204848 -47.684301198676586 202 151 134 255
-34.552477979877580 -5.383717752577439 -47.684794781735185 193 144 127 255
-34.578441610474187 -4.731561519193406 -47.685368922855226 181 132 115 255
-34.894446167785901 -4.204447137183308 -47.603243446467665 172 123 106 255
-35.500394831857790 -3.804808577278109 -47.438417326031903 160 112 92 255
-35.719606726108680 -3.239193360742860 -47.384051246573982 151 107 85 255
-35.745499973867823 -2.589422121969477 -47.384960875673180 139 102 78 255
-35.481506622443874 -1.811047815982661 -47.468745681876577 128 93 66 255
-35.120969287250091 -0.987787938337405 -47.580219798597589 119 89 60 255
-25.807164884306786 -6.453183531932865 -50.814137294284031 189 178 135 255
-29.316771688019770 -7.201754059186754 -49.811133695095599 209 163 142 255
-30.697502039518270 -7.093484986856481 -49.421196942942721 199 148 129 255
-30.820560585888558 -6.471396951897631 -49.393559249277125 155 96 80 255
-32.297558135845605 -6.414926255571302 -48.975905488260516 202 151 134 255
-34.257742518338887 -6.569672607500408 -48.419005627836107 200 149 132 255
-35.250614304905298 -6.326009956488605 -48.140818041773890 197 147 130 255
-34.889783672208409 -5.511070299386077 -48.252806249680852 189 140 123 255
-34.819053506672788 -4.818190957407680 -48.281284561817593 173 124 107 255
-34.941670255560183 -4.208079362698200 -48.254117361704466 165 117 97 255
-35.644153518571812 -3.850343699844714 -48.059843951979808 155 109 88 255
-35.476781188553417 -3.115837364907605 -48.116442220329027 146 104 80 255
-35.212840586268982 -2.337545085538480 -48.200996634381205 134 99 72 255
-34.948978171165635 -1.557456241923362 -48.285644175883384 123 92 63 255
-34.588591670588784 -0.732480699994142 -48.398253828289150 114 85 55 255
-29.268327063499413 -7.166515153300466 -50.505008590234162 208 163 140 255
-30.745511468312998 -7.097703746189140 -50.083182304832839 197 146 127 255
-31.158661699040863 -6.595832173825926 -49.970906990777230 150 92 78 255
-32.248573661839998 -6.378596283474977 -49.661766595771432 206 155 138 255
-33.821660581921464 -6.370400990326544 -49.212028231589919 201 150 133 255
-34.717726357799080 -6.084376670904504 -48.959307994565187 193 144 127 255
-34.840339020829902 -5.473645291761088 -48.931746149071422 182 133 116 255
-34.672997718530581 -4.738960253257886 -48.988673157569828 170 122 104 255
-34.892260116586328 -4.169944175313020 -48.933143610758769 156 109 89 255
-35.014865221173238 -3.559867665716979 -48.905835572445675 150 105 83 255
-34.944230298306650 -2.865643680699606 -48.934888188106946 140 101 75 255
-34.583815919539916 -2.043099164362559 -49.048442510795105 130 95 69 255
-34.706471085651032 -1.432260759973403 -49.021406232497419 121 90 61 255
-34.442786243780233 -0.649463193278635 -49.107014344437111 108 81 52 255
-28.349589191831853 -6.775253481318302 -51.455073235209476 205 167 140 255
-30.890215798649507 -7.141711509072977 -50.716768511619442 197 146 125 255
-31.593329287442231 -6.760315957261199 -50.518232675982837 144 91 75 255
-32.682988059184851 -6.544067065181679 -50.206152330216646 205 156 139 255
-33.772420227497122 -6.333658721392609 -49.894148192217806 199 150 133 255
-34.378376534682332 -5.924540031989451 -49.724249402001526 188 139 122 255
-34.307740916741807 -5.230279223589179 -49.753272355337963 177 130 112 255
-34.333766885688618 -4.576788856504436 -49.753974412734046 166 119 101 255
-34.842892433280412 -4.131766888699573 -49.612730235688467 151 107 86 255
-34.868888911572327 -3.479335590236857 -49.613605495588395 145 104 81 255
-34.894898240667402 -2.826745886048613 -49.614570818737370 137 100 74 255
-34.631165660348643 -2.046380541182316 -49.700851361245874 127 96 68 255
-34.753808622598314 -1.435447170922757 -49.673595527041478 116 89 59 255
-34.586753831787320 -0.695637853381115 -49.731660703426648 100 75 44 255
-27.044509266178153 -6.225777872132255 -52.525261283440635 195 168 133 255
-29.488108670530806 -6.548498427021897 -51.808633175118096 197 149 126 255
-30.867890670981694 -6.443611428221985 -51.407512615466239 156 110 89 255
-32.150729466540838 -6.305828168896653 -51.035143916774452 200 151 134 255
-33.046734486374731 -6.012421588182363 -50.777556937352109 193 144 127 255
-33.362774941024952 -5.478319095466759 -50.692108070090718 181 134 116 255
-33.292284339516669 -4.780993092073473 -50.721449550352325 172 125 107 255
-33.511653205480371 -4.207333610833047 -50.664846890116344 163 116 98 255
-34.310578216002426 -3.884939086425618 -50.436266564724200 147 106 84 255
-34.626407773333142 -3.356768210056458 -50.351159455515209 145 105 82 255
-34.652456845775305 -2.703273014603312 -50.352176333109874 137 102 76 255
-34.388823202342905 -1.922004152748869 -50.439322866632402 123 94 66 255
-34.414932086816123 -1.267352769900199 -50.440530134809485 110 85 54 255
-28.569861764442521 -6.154405754182307 -52.763897824649696 190 145 121 255
-30.239411766369756 -6.166984971372074 -52.272189946662770 187 140 120 255
-31.715341445408626 -6.107930241189550 -51.838451632141592 196 147 130 255
-32.611230112556683 -5.813071356654447 -51.578472696151472 187 138 121 255
-32.830661652623093 -5.236618201277139 -51.521205419403351 178 131 112 255
-32.856862125501323 -4.578758018315980 -51.521918646422769 167 121 101 255
-33.172841703299383 -4.045100147194276 -51.435876126679155 160 113 93 255
-33.971659865596877 -3.721519345667971 -51.205179736097115 150 108 85 255
-34.480615771527397 -3.276150106105533 -51.061414903866357 143 106 80 255
-34.410137435280205 -2.579756502489076 -51.091434158700089 134 101 74 255
-34.050057231612101 -1.755048193556192 -51.208398485402576 121 92 62 255
-33.883147541750247 -1.013602349896260 -51.267563635391149 105 82 50 255
-27.652010191070815 -5.760304114069413 -53.724589709005222 198 163 136 255
-29.707833901155084 -5.930429396219694 -53.111454544195347 194 143 124 255
-30.797090061678801 -5.708191894434847 -52.790571300560011 192 144 124 255
-31.403111305723741 -5.288623218984171 -52.615857395172334 182 135 115 255
-32.105605536629525 -4.913079444585236 -52.412008568878157 174 129 106 255
-32.325059763122994 -4.335313694225277 -52.354336128454229 159 118 93 255
-32.641052432942843 -3.799934400402890 -52.267533325209222 155 112 88 255
-33.246668530483589 -3.391186197295369 -52.093162175688711 148 108 83 255
-33.755620213544574 -2.943546129630448 -51.948099077296426 143 107 80 255
-33.492182074575311 -2.160365069404804 -52.036887600120814 131 102 71 255
-33.035770686135066 -1.290317351794116 -52.184217367238809 116 91 57 255
-32.772512412494933 -0.502983398515056 -52.273209203940560 99 81 43 255
-25.381951585207275 -4.808729004305150 -55.103543962329617 188 178 138 255
-28.790079970064312 -5.533488848709993 -54.071937593172443 189 141 118 255
-30.265606318621593 -5.469881972188006 -53.630171040058350 186 139 119 255
-30.968163487203896 -5.089223185547240 -53.424393391113405 179 132 112 255
-32.056866456533868 -4.875837813128186 -53.100743636497548 170 123 103 255
-32.565980917089860 -4.421231714838086 -52.954112623623480 158 113 90 255
-32.978450106301636 -3.927745298771001 -52.837059007610783 151 110 85 255
-33.101229064615751 -3.311124667120239 -52.808565680193901 145 109 83 255
-33.030943574120840 -2.610909458341226 -52.839147545506073 137 106 77 255
-33.057210646336415 -1.952243989047375 -52.840336074176101 124 97 67 255
-32.504453530661209 -1.038214849916727 -53.018573140330595 112 89 55 255
-27.196633843297519 -4.855915668262753 -55.246168174253576 199 160 129 255
-30.217227978819267 -5.433338544637166 -54.324244250155665 187 135 113 255
-30.919665552465744 -5.052310309317107 -54.116621508855822 182 134 112 255
-31.621963873083899 -4.674941489410372 -53.909083974513130 171 125 106 255
-32.131041558754475 -4.218880975206957 -53.761153303017601 163 116 96 255
-32.640023831986070 -3.765383993479801 -53.613311706945773 157 115 93 255
-32.762834205151592 -3.147582102154388 -53.584604880584600 147 109 84 255
-32.692619662915092 -2.446186174783847 -53.615516757572642 133 103 74 255
-32.911933327322771 -1.870853798774604 -53.557241919143856 122 95 65 255
-32.262837574791519 -0.913658503351442 -53.766928978113590 107 84 50 255
-25.893552338859024 -4.298606118678435 -56.339537244317405 181 178 131 255
-29.879231788810444 -5.275674390233220 -55.108971999342792 183 141 112 255
-30.581582369316635 -4.893461771183809 -54.899507048912248 187 137 115 255
-31.090729872864387 -4.433106548630178 -54.750190112485591 175 129 109 255
-31.696303000707360 -4.016490104524664 -54.570931192808750 165 118 98 255
-32.591290350007142 -3.727306711032909 -54.301667295151894 158 115 92 255
-33.196597595129901 -3.317707819098189 -54.122587695258439 145 106 80 255
-32.933390190913542 -2.533329721516694 -54.213892888940769 132 101 72 255
-32.863217613469772 -1.831665838486686 -54.245235042542625 121 95 62 255
-32.021344937223461 -0.789047515227352 -54.516949447569793 102 83 46 255
-28.962193014432984 -4.875832417770809 -56.077697124004779 182 159 120 255
-30.340183656473414 -4.775198629103059 -55.654285061517676 185 139 115 255
-30.945785379542599 -4.354828741103404 -55.473369068828696 178 133 111 255
-31.358267047933310 -3.855226855017108 -55.353146884591744 168 121 101 255
-31.867165991442135 -3.399083568528525 -55.202714970721651 158 114 90 255
-32.665409822514675 -3.070633452184111 -54.961467452957784 141 107 78 255
-32.788210982588254 -2.452468975969083 -54.932436002364774 124 91 60 255
-32.428713750086587 -1.623393182289448 -55.055025381229179 109 81 47 255
-31.587081190047371 -0.579323769758744 -55.329246610857702 86 82 37 255
-28.940865377058543 -4.169376168547259 -56.777583576954662 171 164 112 255
-30.511446058941829 -4.153807253046082 -56.289380650028939 174 137 103 255
-31.213356866401199 -3.776253434465772 -56.076417389821849 170 126 100 255
-32.011600528862829 -3.443783646385327 -55.832972161279180 155 115 88 255
-32.520304041413254 -2.990360235867499 -55.681340391325115 138 100 73 255
-32.643115835646938 -2.371550345289805 -55.652102559988656 118 85 55 255
-31.897973708507607 -1.372813168159269 -55.898142605792550 96 86 44 255
-30.393295030880097 -3.409052912622187 -57.016715012844124 150 139 93 255
-31.384390050224596 -3.156907821777224 -56.709480682116016 151 123 85 255
-31.603758124231348 -2.576344950274205 -56.649096767003392 147 118 80 255
-31.340948718048253 -1.786786480866041 -56.743041391494934 118 102 58 255
-29.819823666563337 -1.786905942197649 -57.902359404109781 130 140 80 255
43.192445639761516 -2.592876154760248 33.576873594107951 105 101 62 255
43.150712115185556 -1.966620468032048 33.654373244238315 99 101 59 255
43.641000797067505 -0.829656953071989 32.606961306045804 96 106 55 255
41.304007395255852 -5.757650494666777 36.109039017467552 139 101 83 255
40.645220185693361 -5.720122056385151 37.499556954188279 136 99 81 255
40.515187189234894 -5.189516800583334 37.764888199207832 132 98 79 255
40.429353977863613 -4.618167950098709 37.936492689826281 125 94 74 255
40.475834342751156 -3.920657069653188 37.826755260632410 119 92 69 255
40.214084324126944 -3.520182514359064 38.373659337541937 107 86 53 255
40.745500273219122 -2.351438277992969 37.232070582625198 99 83 46 255
41.497395922966660 -0.960100035228407 35.621259351489385 82 78 36 255
40.047051221727344 -7.652234678964149 37.314224929241078 148 105 89 255
39.435660319153158 -7.570197581312712 38.611624112173388 149 103 89 255
39.437378808333776 -6.918776544910571 38.595624290376492 141 98 84 255
38.957600907179156 -6.723150722985423 39.611843662581492 132 95 79 255
39.003387749321917 -6.032300678573719 39.502121245415111 125 91 75 255
39.136899347786127 -5.256507370065748 39.204710091643960 125 89 71 255
39.182990987590671 -4.563273848234331 39.094994751332820 125 89 70 255
39.010291480344293 -4.081928323489663 39.454603901879807 118 88 62 255
39.231852357608474 -3.216834123691982 38.969465791550590 110 79 51 255
39.760123580974849 -2.046790457384446 37.827153093810438 100 75 44 255
40.025828134503044 -1.130063260749409 37.248002121376260 91 80 42 255
39.843001146562713 -8.567102770278538 36.268187622398131 159 121 100 255
38.669265605401804 -9.000231071491442 38.786363388796048 155 107 92 255
38.322467992282313 -8.675581539246878 39.521315451336733 151 102 88 255
38.367460746670631 -7.986733346680836 39.411468807023908 149 101 88 255
38.586669370842770 -7.132243887240350 38.926080241633656 140 97 83 255
38.370832454736302 -6.689315945716160 39.379591199088281 133 96 80 255
38.329213009432451 -6.081822400665914 39.457587630989991 128 92 74 255
38.374780441420242 -5.390490986660240 39.347804880830978 126 91 72 255
38.289932037078998 -4.825098881959690 39.519775612089262 127 92 72 255
38.118184424533652 -4.345544314745794 39.879639035104304 120 87 64 255
38.251250236092247 -3.567946718648457 39.582084526319704 113 83 57 255
38.384477885139461 -2.788299201633166 39.284514054940729 106 79 52 255
38.474343889291774 -2.049974709703093 39.080869145538287 100 77 46 255
38.303209069574208 -1.572087043694850 39.440909180726038 89 73 40 255
40.326588092123060 -8.858304445152257 33.718932434778992 149 126 92 255
38.813709870736986 -9.588819197742566 36.989381771875770 158 120 95 255
38.209196167878133 -9.496177746214940 38.288026093121942 157 106 91 255
37.648052835805416 -9.370512479283988 39.492955423542725 153 105 91 255
37.649299651713065 -8.723317102550752 39.476958157182253 150 104 88 255
37.650681789477218 -8.075801002409051 39.460982573857876 147 100 86 255
37.652201416098848 -7.427954814331343 39.445028914483089 137 94 80 255
37.524100336917385 -6.904151972674768 39.710955855081409 132 96 80 255
37.482645008838389 -6.298173421811057 39.789026452165842 130 95 76 255
37.657607157454819 -5.482339927540281 39.397301891933836 126 89 71 255
37.573186906377245 -4.917642990555024 39.569384217249592 122 87 68 255
37.445654587163915 -4.396221742383432 39.835496059021807 118 84 61 255
37.318266943782930 -3.876058529992122 40.101671332099130 111 81 57 255
37.191025686108176 -3.357144480588275 40.367910189272237 109 79 53 255
37.150452722289671 -2.752707747377357 40.446213510943238 105 79 52 255
37.239818320341683 -2.017432631579325 40.242535267616233 95 76 46 255
37.675448970637163 -0.929173621951094 39.286751300356514 76 67 31 255
38.219423640671678 -10.209467278640943 36.771931309108140 159 112 92 255
37.790360832850752 -9.953848978920362 37.695372179448640 160 115 96 255
37.490373204535601 -9.583123111502417 38.337037189460602 156 108 94 255
37.190509608132501 -9.215918419220145 38.978817991126476 156 105 92 255
37.105699336653004 -8.649042161218006 39.150759791186090 153 106 90 255
37.235951526064198 -7.878387134061683 38.852761337421356 145 100 84 255
37.065435229632399 -7.394052091617027 39.212775240858946 136 94 79 255
36.981026536364070 -6.828652642425695 39.384842444732726 130 93 75 255
36.939743038285087 -6.222269672429931 39.462940645851035 127 89 71 255
37.027566861229460 -5.490061171154707 39.259000588313256 123 85 67 255
36.857599232377069 -5.010068266570130 39.619244266876080 119 84 64 255
36.644780100718961 -4.574446847152146 40.073602289111733 117 83 61 255
36.604066494839358 -3.969869684621344 40.151871164274525 111 81 57 255
36.606493921315447 -3.322342826791697 40.136125085799165 112 82 58 255
36.609073931159188 -2.674409798300985 40.120402336528286 107 79 55 255
36.697798757265545 -1.938754343756187 39.916573676529481 98 72 47 255
36.958670464447309 -1.025858937936292 39.336456684308871 86 69 37 255
39.290507542026319 -9.962531353619596 32.904432566368826 154 132 100 255
37.923988786379127 -10.555148515328540 35.896332502956085 157 113 94 255
37.241072721849108 -10.532261332194892 37.384332937832994 157 113 95 255
36.942740022161686 -10.159483213706025 38.026310137885588 160 114 98 255
36.729966678887195 -9.710058446116165 38.480331191028199 156 108 94 255
36.602756035655744 -9.182342300924788 38.746355481623681 155 106 91 255
36.432952583774252 -8.696591517422846 39.106490488925317 152 105 89 255
36.519598790041059 -7.967264306708230 38.902364007176516 144 101 84 255
36.307334474861150 -7.524785471691416 39.356671584711989 136 94 78 255
36.308807390363043 -6.877433421407090 39.340720080574044 127 88 71 255
36.182251337634867 -6.354922446689685 39.607019128039440 127 86 68 255
36.354891317371354 -5.539683881461585 39.214799066059641 123 83 65 255
36.185889512264581 -5.060100918720593 39.575265358425156 118 81 62 255
35.974300460463695 -4.624888047714350 40.029904048195760 119 85 63 255
35.891024997186960 -4.063559953272474 40.202322717831578 115 85 61 255
35.978799795192643 -3.330538325212544 39.998351440559418 115 87 65 255
36.066729031618976 -2.596014367435501 39.794376341391796 110 79 58 255
36.197544035283627 -1.816327213509126 39.496274525903743 106 78 55 255
36.243061434246741 -1.122412575139904 39.386415831836217 93 72 43 255
60.138614556800121 -4.623661852084908 -14.470674933884595 119 102 67 255
59.330143564730761 -4.479389634985111 -12.706070551530104 119 98 65 255
59.328463987602262 -3.686962699400382 -12.726362409499359 105 88 53 255
59.539169252032579 -2.719770856748056 -13.216453668857696 86 83 39 255
37.709284319136955 -11.484258760789629 34.848311214640830 157 134 102 255
36.987856401210436 -11.489542336190866 36.430972627167762 153 111 90 255
36.903329718228676 -10.914820202943332 36.602779510033315 154 113 95 255
36.564206894103151 -10.578153787096525 37.339116524070874 159 112 94 255
36.352561403106179 -10.126132795161766 37.793320229155427 161 114 98 255
36.056130604699732 -9.756721953169972 38.435800162802252 156 109 93 255
36.014542462024039 -9.148685543271355 38.513789827311172 153 106 90 255
35.888173195739441 -8.622152484575594 38.780028813691899 150 103 87 255
35.889294389265970 -7.974229888721609 38.763985649782654 142 99 83 255
35.763182197657017 -7.449517875913884 39.030326929789652 135 93 77 255
35.849478384924694 -6.718855347888848 38.826089935252156 128 88 71 255
35.723631602015843 -6.195382481865011 39.092520711162933 125 83 66 255
35.810203408542591 -5.463203985522753 38.888306189803330 121 81 63 255
35.599714196623623 -5.025480071994934 39.343123515415442 115 79 60 255
35.431817581112526 -4.547577964107376 39.703875009399098 111 79 56 255
35.348976891117047 -3.985845273353718 39.876379078793036 111 84 61 255
35.436119957447815 -3.252434480572546 39.672259150184345 113 87 64 255
35.523415214177746 -2.517523600926864 39.468134961908419 114 86 65 255
35.568402837684786 -1.824746608590473 39.358188414541814 110 82 61 255
35.613545634005291 -1.130996026958485 39.248251499942228 103 77 52 255
58.096751508580596 -7.229762042628636 -11.781444341667338 132 107 79 255
57.630599151484915 -6.813047208346205 -10.767788271064262 135 103 79 255
57.417712599887849 -6.197527061251222 -10.317967959250041 131 101 76 255
57.373698759459828 -5.447065328094567 -10.244092271091461 125 95 70 255
57.667315232396746 -4.419822689129148 -10.922304551572608 109 83 57 255
57.707887544501048 -3.598109066252860 -11.036463308618750 94 75 43 255
57.875135328014935 -2.670111467486180 -11.432703593023859 81 68 32 255
58.337813409716446 -1.491546406326464 -12.487230809424887 63 65 21 255
37.490039461381045 -11.763003073159126 33.782940804595455 152 126 100 255
36.562007463839663 -11.954865892488243 35.836969373245211 155 113 93 255
35.971582128299090 -11.846520471580249 37.138315780272222 160 111 94 255
35.929699580589570 -11.235103671026579 37.216155741222963 162 111 97 255
35.719187029245603 -10.782110424893602 37.670584045297460 161 113 99 255
35.550979901971203 -10.291756096120253 38.030954217421538 161 114 98 255
35.425080273492185 -9.763215183957783 38.297245959488833 158 111 93 255
35.425866274838242 -9.114950291171141 38.281120507857338 154 107 89 255
35.384589887645248 -8.507010286793985 38.359181126201918 147 100 82 255
35.385629230320504 -7.858401946701775 38.343102729332372 142 97 78 255
35.302420113473502 -7.291821875472138 38.515403941646071 133 90 71 255
35.303720262470833 -6.643106832093764 38.499380192548273 126 83 64 255
35.094202677211115 -6.202662452109735 38.954342704985095 123 82 61 255
34.969196544779308 -5.680613063593441 39.220994060734114 119 80 59 255
34.844323989903572 -5.159847510437856 39.487707056800957 115 78 56 255
34.761779115366323 -4.597813072023342 39.660268566001548 109 77 52 255
34.763759388347935 -3.950859933527127 39.644438618324983 111 82 58 255
34.597106561786418 -3.475888951644876 40.005537214287756 113 86 62 255
34.599372896284834 -2.829245833018476 39.989777942945750 109 83 60 255
34.475198537043241 -2.313119783590608 40.256761059555544 102 75 53 255
34.688746392381930 -1.446886952374669 39.769832900466213 99 74 47 255
57.203418554714929 -8.910760433211152 -11.628299035472594 149 124 96 255
56.320641129228946 -8.822137826780221 -9.673792782358021 141 108 87 255
56.024984060262810 -8.274926910582479 -9.035612894815756 135 104 83 255
55.855214342348845 -7.629879155138539 -8.679475407105087 134 101 82 255
55.937107802912607 -6.782246574994829 -8.887620989463755 130 99 79 255
55.935244734771729 -6.002121517608103 -8.907643897050946 125 94 73 255
56.478515171475706 -4.771475383466893 -10.150601495527269 113 87 64 255
56.518773047809262 -3.952583112049268 -10.264758439349180 104 83 58 255
56.642984168943187 -3.062600759934512 -10.567084886029988 88 74 45 255
56.641527847122418 -2.277175555307863 -10.587151635321163 74 66 31 255
57.185187077757107 -1.027094753936808 -11.830512382182235 56 60 18 255
36.636969957953355 -12.619278024792507 34.129038993415207 158 124 96 255
36.133810569890272 -12.422373645372915 35.242504905196711 162 115 98 255
35.756526817668444 -12.115605217777286 36.073623462088392 161 112 97 255
35.505119400070768 -11.696517253593470 36.622333083494652 160 113 96 255
35.379589855566749 -11.162652347502927 36.888572325206042 160 113 97 255
35.128412067280863 -10.748757818953834 37.437462993505392 161 113 99 255
34.961193871602106 -10.258244363541579 37.798046551869874 160 113 97 255
34.919859686644884 -9.649388771453829 37.876071446035922 155 108 90 255
34.962491411222103 -8.960080291948657 37.765694228052382 152 105 87 255
34.921402945490357 -8.351175373470340 37.843771896075850 145 98 80 255
34.754671127829013 -7.865202366326784 38.204576522861231 136 91 72 255
34.629987206321360 -7.339922911325786 38.471217498887512 133 88 67 255
34.589277994657877 -6.733063220253086 38.549429954222745 125 83 61 255
34.464850644954467 -6.209850640545397 38.816179293808091 121 80 58 255
34.298628393410596 -5.729925224089669 39.177247977760260 118 78 56 255
34.132536527883886 -5.251833217911226 39.538391417501202 118 81 57 255
34.092355953641984 -4.647943807125742 39.616794754633190 121 87 62 255
34.220022571196253 -3.872966014454548 39.318119260594870 117 85 62 255
33.970482578655080 -3.483760463393494 39.867990662375632 114 85 61 255
33.804933695183436 -3.010723788570075 40.229380558070886 100 76 50 255
33.639522746221544 -2.539477652007292 40.590845791005421 102 78 52 255
33.893562225854197 -1.630878355717002 40.009334948706226 96 75 45 255
34.315493539448923 -0.541797069391947 39.050518920835231 91 70 39 255
55.476422541360719 -10.455952476165436 -9.613455821376704 152 127 97 255
54.849069381236774 -10.169956553949959 -8.222274852228736 145 108 88 255
54.513476574092877 -9.658952789657533 -7.489544939837458 143 106 88 255
54.677944489422302 -8.749461064562539 -7.885931032767758 138 103 83 255
54.842498930821549 -7.837667603473278 -8.282355974206325 139 106 87 255
54.923818862750821 -6.991763282413530 -8.490584178898132 140 106 87 255
54.713605388975012 -6.385217327214306 -8.039950648288311 136 104 83 255
54.920101414321849 -5.434809846226443 -8.530545201481857 127 98 74 255
54.835073340762435 -4.725913031952345 -8.362221861884905 119 94 71 255
55.083424763510834 -3.736458956219934 -8.947015847855027 107 90 64 255
54.998604861071286 -3.027206478768264 -8.778655689932293 91 78 48 255
55.622084943272441 -1.711508346298416 -10.210956730013208 71 61 28 255
35.995120398377438 -13.282784804867816 34.004629087388480 161 131 102 255
35.578284642711807 -13.006595639398185 34.930240529141798 158 110 93 255
35.328181560927590 -12.581841996892962 35.479094426989576 161 110 97 255
35.161500158145429 -12.082682150997556 35.839578601534015 162 114 100 255
34.869963436167964 -11.702411127345883 36.482861311588636 161 113 99 255
34.703506393981186 -11.207916772290545 36.843512101632001 159 113 100 255
34.495507698750558 -10.754868017148596 37.298491605859908 161 114 98 255
34.454248181312849 -10.145052889728518 37.376508789458398 158 111 93 255
34.371450587638364 -9.575577805714630 37.548827678353149 152 105 87 255
34.413741840513509 -8.885852482336205 37.438365137895232 146 99 79 255
34.247872105470663 -8.398396229119612 37.799321976884499 140 93 75 255
34.207095303930259 -7.790126856740002 37.877484133377891 135 89 70 255
33.958155899240737 -7.387932592602112 38.427161003051992 129 84 65 255
33.792655056485032 -6.905805724909285 38.788332919673195 127 83 64 255
33.585621218050889 -6.467246953129688 39.243888815876289 128 86 67 255
33.462031557777621 -5.947099507161383 39.510899357795438 132 92 72 255
33.546870645085718 -5.216921686017329 39.306354249786352 133 95 74 255
33.381884693337255 -4.740510302289749 39.667783044492381 127 92 70 255
33.550320560124760 -3.923422782229366 39.274592349466616 119 87 62 255
33.302281273605601 -3.534618262519487 39.824803718823290 114 85 59 255
33.346014152167442 -2.845188049408691 39.714665495909941 93 69 41 255
33.056580999853153 -2.503885718482181 40.359390336631577 91 67 39 255
33.225593851371102 -1.683004987101654 39.966231108047793 88 67 36 255
33.519760707609890 -0.726944327139876 39.289929421191573 93 72 41 255
55.086599328908946 -10.949141886145370 -10.608512923946080 164 141 111 255
53.966270893085792 -11.049756656755889 -8.086957037036257 152 112 90 255
53.425668752553648 -10.702670017186762 -6.883079166914115 146 108 88 255
53.216365421686788 -10.096220388441068 -6.432243146962946 141 106 87 255
53.503935258812120 -9.089680029594987 -7.111264116121276 145 108 90 255
53.501803887674143 -8.316004172582069 -7.131183860696126 150 114 96 255
53.334178778839103 -7.678579160126645 -6.774383299361546 150 112 94 255
52.959674184263392 -7.215016968475140 -5.946595829235321 146 110 90 255
52.957835292134902 -6.444420946558267 -5.966373849991896 133 103 79 255
52.914700029608682 -5.708573467418773 -5.891937611353001 121 94 71 255
53.120030779741924 -4.762008322412370 -6.382691713914028 110 88 63 255
53.366852015280855 -3.777101293686698 -6.967707746827728 96 78 51 255
54.069095268341172 -2.395789797086039 -8.589181479712977 85 74 43 255
54.812822129098819 -0.969065126918935 -10.305096436317854 60 56 24 255
35.767448337687156 -13.569536844992925 32.937607534811150 161 134 106 255
34.980584458170696 -13.629289565702507 34.712091046314384 161 117 97 255
34.731905134354733 -13.202962142733071 35.261218347659366 162 113 99 255
34.483333572052473 -12.779666316538922 35.810445555457420 160 111 99 255
34.400431377265633 -12.204546233421638 35.982599528253104 159 113 98 255
34.276248901681313 -11.669251704225573 36.249098939984179 161 113 100 255
34.317738491305690 -10.978307355044464 36.138429530042401 160 112 100 255
34.152390350304742 -10.484200587243137 36.499333823140319 160 113 96 255
34.111327661791776 -9.872595406002446 36.577349269360099 157 110 92 255
33.946209943340918 -9.381477898980890 36.938379367871391 150 103 83 255
33.822600141728444 -8.851905131969318 37.205148517378348 144 97 77 255
33.574936040919042 -8.445532007730435 37.755000662257828 139 92 74 255
33.534347653776351 -7.837661142569559 37.833214254989088 137 90 72 255
33.162748028260040 -7.559352833675845 38.666297821068497 136 91 72 255
33.081012515911510 -6.995559941646590 38.838993034391933 139 95 76 255
32.792438808975092 -6.641093804064923 39.483575842972755 141 98 79 255
33.000706867299215 -5.786272106905471 38.995773970062714 138 97 77 255
32.877960732011587 -5.266446459452908 39.262978026038354 137 97 77 255
32.672554937632384 -4.832970949258694 39.719019598671906 130 95 73 255
32.674253940267207 -4.187820784339394 39.703173151284602 120 88 63 255
32.717486233018960 -3.499206244176321 39.592945396712651 111 82 56 255
33.009241117835487 -2.549507455992341 38.916273456229220 96 73 42 255
32.887171631517290 -2.031880528125299 39.183681531843575 86 63 32 255
32.972234362127466 -1.295954737660210 38.979041073599433 78 57 26 255
33.057447119676141 -0.558504495983300 38.774395267564614 86 64 33 255
53.951712363139464 -12.026535719951454 -9.909131010567251 174 157 123 255
53.578859991194420 -11.537936338879277 -9.081609816755929 156 116 95 255
53.000428537753749 -11.217816094993026 -7.782951212231524 156 115 97 255
52.751181563505511 -10.641058946739122 -7.237730692544233 150 107 90 255
52.378628626763074 -10.167284475290018 -6.409770959212722 151 110 92 255
52.540905814402308 -9.262051532326510 -6.806531546418853 154 114 99 255
52.291943709836161 -8.692774472352284 -6.261060347453849 157 118 101 255
51.960818385093418 -8.194801557343027 -5.527020780651640 154 116 99 255
51.835450921014470 -7.529183111417851 -5.264058367378937 143 107 88 255
51.545661442517272 -7.003589540301022 -4.624045177965343 134 102 81 255
51.667272127600441 -6.132542133643412 -4.926467202980916 128 102 79 255
51.788977410474303 -5.259701701895054 -5.228913512519568 110 88 64 255
52.075292995822110 -4.243256043538210 -5.908459223472448 93 77 51 255
52.608470608550007 -3.008498400090275 -7.153738794742310 81 68 42 255
53.306249651767004 -1.622523703647403 -8.776311088973443 68 56 31 255
36.727369432023224 -12.778110167078196 29.134402178645189 165 134 110 255
34.958369676760000 -13.725318928196955 33.173346076660351 161 117 100 255
34.423242360376364 -13.558859154079599 34.382968618861440 166 117 103 255
34.176097127991127 -13.132082496627802 34.932421849761909 165 113 102 255
34.052432614368271 -12.593024833692482 35.198940509742840 160 112 100 255
33.887750509390003 -12.094071111041274 35.559869352037623 163 115 101 255
33.640927723271048 -11.675012664450932 36.109587509013011 164 115 101 255
33.682087364660262 -10.984185876150732 35.998848525501842 161 113 101 255
33.558859906119395 -10.450659357886238 36.265602319146609 156 109 92 255
33.641369480563597 -9.719499941321629 36.060520459140974 154 107 89 255
33.436120154488350 -9.267474360538813 36.516130053503161 148 101 81 255
33.313236483642456 -8.737198050358984 36.783041133039376 144 97 77 255
32.984843095020139 -8.411349779083238 37.522008673398631 140 93 73 255
32.985571601585065 -7.762438799379652 37.505854339794041 144 97 79 255
32.616287509476891 -7.483687116424733 38.339435759303370 151 104 88 255
32.535005963770814 -6.919471742434766 38.512220141799872 147 102 84 255
32.083705562604976 -6.731411599939719 39.534889647714436 140 97 79 255
32.167178932471060 -6.003237144899344 39.330094695020534 137 95 77 255
32.045143331547067 -5.484906667627868 39.597492531164903 134 94 74 255
31.964363863124476 -4.925328213944297 39.770503858527917 126 91 69 255
32.007102856807293 -4.238060151297447 39.660201519192043 113 81 56 255
32.132238557152689 -3.463705406095755 39.360985343293123 101 73 46 255
32.422039836649972 -2.513899178374274 38.683881260216907 91 68 37 255
32.341806436750502 -1.952505784540236 38.856966994356895 85 62 31 255
32.385109307535046 -1.260089181268782 38.746659165386831 76 57 25 255
32.428557973258407 -0.566699957520669 38.636358932097238 74 55 23 255
52.165041989078048 -12.835701401613761 -7.721073277432936 154 119 93 255
51.958050745738248 -12.224053621317751 -7.269859702873191 158 115 98 255
51.873759763795917 -11.516787896823246 -7.101333328096246 151 112 95 255
51.871293212187979 -10.744474059748157 -7.121292509055763 152 111 94 255
51.541960913092353 -10.238303299368283 -6.387064904041381 156 114 98 255
51.212727186542978 -9.736342234226967 -5.652709793550457 158 117 103 255
50.924460338266385 -9.204761187071497 -5.012512432646986 158 119 102 255
50.677159324015648 -8.642741683851355 -4.466493628389401 154 116 99 255
50.634285912522628 -7.912004042684401 -4.391871361635197 143 108 89 255
50.428046476717000 -7.320203344011531 -3.939993543095568 134 102 81 255
50.671415637297244 -6.346977816327907 -4.525474722679917 124 96 74 255
50.792282559807504 -5.475870192743358 -4.828061755478927 108 84 60 255
50.994970775359590 -4.532065554634372 -5.319327337089760 91 73 49 255
51.156891529187263 -3.621089251917752 -5.716310671161921 75 59 34 255
51.645807836298545 -2.419822948797488 -6.868059342665049 57 43 19 255
52.134817850550476 -1.211848669716957 -8.019956062790868 61 49 25 255
52.051868027359021 -0.508631506680175 -7.851033088415875 102 84 60 255
35.787280272922558 -13.713098101740925 29.668187461813602 176 142 123 255
34.683289296452088 -14.053173479592644 32.199355002221353 162 116 101 255
34.192311196832790 -13.843406807110938 33.315175229275553 162 116 100 255
33.783158591820566 -13.564163236365843 34.242398789055926 164 116 103 255
33.782706407054590 -12.908497365075306 34.225815089101189 162 112 100 255
33.618920305729731 -12.406345050669714 34.586860474077810 159 111 99 255
33.373521771840942 -11.983547115489728 35.136797694453719 161 114 98 255
33.087371617519338 -11.602749455739627 35.781251239213219 162 113 98 255
