ply
format ascii 1.0
element vertex 655
property float x
property float y
property float z
property uchar red
property uchar green
property uchar blue
property uchar alpha
end_header
46.327145472919824 -15.736350876444305 -11.148207781411458 186 140 122 255
46.465268084412827 -14.240142460515756 -11.283102235864703 187 142 126 255
45.487115425139820 -14.022443313334151 -10.505280230529394 189 148 130 255
44.628214847623269 -13.673426021265499 -9.824931158009861 188 147 129 255
43.946212493531078 -13.123777562805230 -9.289244661923277 188 149 130 255
42.915691568004377 -12.985209543496069 -8.468428417659425 188 150 129 255
42.934094766546593 -11.619766713494897 -8.505772103819623 184 147 126 255
43.936800945485146 -9.083984833712037 -9.348725068594121 179 138 116 255
38.739192251999214 -13.905647891096294 -5.117558667179736 159 118 96 255
37.894286454705110 -13.582548158481416 -4.448226513209704 155 113 94 255
38.146407776557595 -11.945780179974406 -4.676910283810628 138 100 79 255
37.647845098499033 -11.207751987795177 -4.291162916815267 128 92 71 255
36.518172241822725 -11.237679357752000 -3.388653223793995 117 84 63 255
25.637218980064006 -21.915571909285063 5.478424223215740 159 126 101 255
23.736507358986358 -22.981897526086925 7.013862138107299 178 142 116 255
22.297500640608860 -23.494746496801383 8.171328406340081 189 147 123 255
21.146896406391477 -23.661385624795372 9.092676799657283 196 151 126 255
19.829524146532975 -24.047287190140707 10.150832963762241 196 154 129 255
18.629208443966803 -24.297825947364515 11.113224778741568 201 158 135 255
17.319525208630125 -24.697862746819311 12.165424804876494 206 162 142 255
16.520513288989463 -24.459215699168197 12.799129328990603 208 165 145 255
15.723268835381333 -24.223831185347535 13.431452407934046 210 166 146 255
15.712579115784052 -22.980602457458531 13.418800328247016 206 162 143 255
15.532435462777926 -21.951712626907636 13.545023494008888 201 156 136 255
15.295561745571320 -20.993835893342180 13.717711861029841 193 147 127 255
15.280774380438856 -19.743181631734643 13.708134347674331 179 134 112 255
15.542176910527559 -18.123953742227883 13.471818152970911 164 121 97 255
16.299722304113573 -15.839446804894010 12.828155495289963 143 103 77 255
16.996879460531659 -13.619255114128379 12.233766544516612 127 90 63 255
17.689217654769209 -11.390264865058271 11.643054461964141 106 75 46 255
17.660702347021640 -10.114591182798307 11.643909346796676 100 70 42 255
17.410711640982555 -9.132852607864322 11.826524941081516 102 71 43 255
17.598738666177553 -7.554266237391232 11.649355877076346 99 67 42 255
19.261419265917908 -3.954592009447310 10.260750468088020 91 61 35 255
8.922875285034479 -3.741674856306929 18.505964875024119 194 139 119 255
7.290804889385129 -4.775712212190797 19.825964735921389 195 135 119 255
6.780128825310811 -4.191020450900112 20.223336390329735 188 133 116 255
6.376017197218147 -3.451729142097975 20.533023352411846 167 124 104 255
5.866191972234304 -2.868581929429979 20.929754094773187 154 118 97 255
5.462443417299198 -2.129939987273872 21.239176582644006 176 141 119 255
5.006110323418852 -1.469861953675888 21.591918080541774 174 140 118 255
-39.460870998817086 -0.978706410372070 57.121057359581442 173 109 94 255
45.963523300975766 -16.767413216461222 -12.111884996603180 182 141 121 255
44.810231895949215 -16.749044450158891 -11.186559302503667 185 144 124 255
45.123860651849043 -15.054319596983703 -11.469370454724810 188 147 129 255
44.674691791904820 -14.231380000710971 -11.124023881511306 191 150 132 255
43.001001044971332 -14.830764893097808 -9.769843093344576 191 150 132 255
41.856210224149834 -14.828173013588440 -8.851240968376317 193 152 133 255
41.411217983169706 -14.013032783202334 -8.509242084519428 191 153 132 255
41.313945987771916 -12.787649920661607 -8.453891559942065 186 148 127 255
39.017979217865957 -14.167287618802703 -6.586136511652597 191 146 125 255
36.960697487933487 -15.286029257488508 -4.914772325095385 173 127 107 255
35.716415078702056 -15.450496949870427 -3.913461510453061 150 105 86 255
34.877801667446448 -15.136326800109998 -3.246558205449219 115 72 53 255
34.556955880098400 -14.199780327810970 -3.006671051251175 98 59 40 255
32.748181033062423 -15.075733955434259 -1.539354129599161 140 103 84 255
24.761971892741030 -22.264821077311581 5.001263730357579 179 143 119 255
22.468787362136197 -23.824382735512557 6.869842406998288 185 147 124 255
20.921114783985018 -24.480581285758092 8.123468391471221 189 149 124 255
20.170785899447054 -24.153825686401291 8.719075090373167 194 152 128 255
19.421979439238783 -23.829889102062850 9.313483711319975 196 154 131 255
18.449273933455942 -23.794000938031019 10.092857066165635 200 158 136 255
17.141669502980790 -24.191906925627904 11.148964398442530 204 161 142 255
15.781921028955765 -24.668857586768922 12.248354512388090 207 164 145 255
15.154240268209946 -24.217825341985332 12.743117588911332 207 164 145 255
15.030396248759473 -23.118897409780715 12.821571715142369 205 162 145 255
14.961134448920745 -21.945441600928604 12.854822362698286 199 153 137 255
14.501108555542999 -21.277978651942931 13.210977059533064 191 145 126 255
14.540891440001559 -19.955244854932658 13.153915444860417 178 131 111 255
14.689538569742155 -18.482877913065124 13.006703072580024 164 120 96 255
15.443626154855508 -16.199667479530945 12.358624759054806 147 107 81 255
15.861843814692008 -14.348464146674701 11.988034439231228 132 95 66 255
16.551525260369402 -12.121867535146919 11.392634254101210 107 76 47 255
16.742376566245809 -10.552373296222640 11.209662237871441 98 69 39 255
16.711534399993212 -9.274949255471711 11.209976925528593 102 71 43 255
17.389452616598760 -7.026876744052856 10.623550563324955 98 66 41 255
19.480194933675278 -2.828897558652727 8.867257605927620 89 60 34 255
11.095987890007592 -1.093561751510663 15.554596730161506 117 99 67 255
7.438957391309032 -5.042063228755524 18.561639073922635 168 114 94 255
6.184662588916183 -5.537875064644368 19.576540891461377 195 133 118 255
5.781380485819028 -4.800035740410181 19.885652933647464 190 136 120 255
5.378159153682731 -4.062302631534237 20.194723002724970 182 135 119 255
5.080393611692102 -3.168672531078755 20.416280618918051 162 122 104 255
4.729625205548189 -2.352476890492426 20.681815378828162 162 126 107 255
4.273763844018788 -1.692826557034152 21.034598870150887 165 136 112 255
3.975203019912954 -0.797713830428165 21.256791636568011 166 136 112 255
45.502872370734877 -16.574220243496882 -13.021030796030942 185 142 123 255
44.760813252745578 -16.085465012176655 -12.432590454452196 187 148 127 255
44.253493290376241 -15.330064275571658 -12.038879008538515 191 150 132 255
43.280497353586100 -15.115074642301977 -11.258775682731425 193 152 133 255
41.263533939423610 -16.122914697868566 -9.612155836856630 194 153 135 255
40.181239164362097 -16.056157934801831 -8.741007696905967 195 154 134 255
39.680467624367992 -15.312949714893364 -8.352511713268711 194 153 133 255
38.544674326726977 -15.322461469805518 -7.436766345740267 192 151 131 255
36.835532713662985 -16.023492095846251 -6.044737432118609 181 136 115 255
35.016803723889808 -16.872170433882815 -4.561389472096437 155 108 88 255
33.089221709302620 -17.869839732252473 -2.987285050777302 115 70 51 255
32.027050139135156 -17.840208677070422 -2.131847195187703 92 50 31 255
29.253299458966950 -19.900541696341605 0.146027873365483 157 118 99 255
28.086242238321574 -20.027202285563760 1.089142273186951 183 146 127 255
26.125825868136189 -21.139045990847819 2.691913243464285 185 150 127 255
23.547518172122039 -23.034970858553550 4.808785121305789 182 146 122 255
21.658417240876872 -24.103338300099153 6.353121908861681 189 151 128 255
20.397588395122710 -24.406702597845083 7.375321753724961 193 153 128 255
19.140482416696841 -24.716915588024051 8.394633399621398 196 155 130 255
18.618846494426577 -24.110147626183618 8.802282019954390 197 155 132 255
17.648427926957112 -24.074708400477419 9.583364823427303 201 159 137 255
16.456335147776429 -24.329921654251905 10.549066390879773 205 163 144 255
14.988112600021083 -24.950204652822208 11.744810459095675 203 161 142 255
14.417382899786816 -24.427785053763785 12.193660658132046 203 160 141 255
13.903122140886779 -23.834658161562885 12.595519489659864 202 160 142 255
13.667185615219267 -22.880531539642590 12.765602751733724 200 154 137 255
13.319709848481523 -22.070454680041394 13.028526031176852 189 144 125 255
13.580472730711080 -20.458688777206675 12.784698405705370 178 133 112 255
13.948745167841679 -18.695542777997105 12.451080248377423 165 122 99 255
14.588997136766380 -16.559780633609648 11.890557313427877 150 110 85 255
15.169729369249865 -14.489187840417486 11.379323598026701 134 99 71 255
15.910601361259722 -12.189453583287332 10.734278866944067 113 82 53 255
16.263506203948594 -10.398258467360421 10.412377520154081 98 69 39 255
16.176427505350119 -9.194483252599781 10.457172925182363 98 67 39 255
16.632521312647896 -7.244011564689004 10.048784937977871 96 64 39 255
18.497493690547572 -3.345937525647059 8.464727186569405 90 62 35 255
7.921883295413068 -3.489533362216775 16.984223212817710 139 101 75 255
5.716373694478079 -5.371977032106372 18.800013587449257 169 110 94 255
5.154509691790594 -4.866074659216622 19.241793311951710 186 129 115 255
4.488176272721375 -4.517131060008012 19.771018051751525 190 140 125 255
4.295697343229676 -3.468693104184467 19.903896394993581 185 141 125 255
3.997531419485426 -2.574983296984215 20.125155761027656 164 127 108 255
3.542142397553846 -1.915760304325033 20.477982143272442 163 131 110 255
3.347774383359820 -0.863839305732540 20.612333294700363 155 127 103 255
44.671112493321488 -18.138058162001357 -13.593526413447591 178 143 119 255
44.456397305250846 -17.049092078390913 -13.443747879087141 188 142 126 255
43.890938556444155 -16.360517998624687 -13.000999934880468 191 150 130 255
42.627871292748466 -16.479784106326150 -11.975248949204342 194 151 132 255
39.974932767602013 -18.224475143900520 -9.787556003539947 194 153 133 255
38.837617931966946 -18.226585759392890 -8.866364320568437 196 155 135 255
37.992343461242200 -17.894674350343166 -8.189206820504012 199 158 137 255
37.148830279149479 -17.566035653648299 -7.513445942204129 198 157 135 255
35.673849466783565 -17.992585707004594 -6.309420737094797 194 152 130 255
33.916104328192318 -18.770242428767205 -4.868576401809037 181 139 117 255
32.278681984764603 -19.420737201034285 -3.528062422995106 163 119 98 255
30.760848446599908 -19.942723828204095 -2.287313147118113 132 89 70 255
27.592485547688597 -22.481683453196467 0.335256562973484 148 107 87 255
25.688919636658170 -23.513803505846113 1.899748508168898 187 151 130 255
24.814748106867484 -23.303097498991519 2.602714673148341 187 152 132 255
24.056007099248205 -22.956261042326219 3.209116739437150 191 155 133 255
22.676323193820792 -23.383879510195243 4.335706501206175 194 158 136 255
20.623266087134738 -24.663713098515018 6.026691326358673 196 158 135 255
19.591532971226002 -24.685935264775168 6.862354687413784 199 159 137 255
18.168998294985499 -25.208955596981667 8.025702511061411 200 159 137 255
17.648500600796012 -24.603467816079245 8.433222389260067 202 161 138 255
16.456830036776182 -24.854218357035194 9.403453109085206 205 164 142 255
15.659619338908584 -24.610929492639315 10.043134523281680 209 168 148 255
14.306854779815495 -25.088053179986275 11.148855445267913 208 167 147 255
13.792453731704768 -24.493839262044474 11.551591506786224 203 162 142 255
13.167624480894943 -24.044977119503244 12.046993334711885 202 161 143 255
12.543831878200251 -23.598036832088837 12.541577205294402 200 155 136 255
12.197295267961294 -22.789973608229303 12.803506837564242 190 145 126 255
12.512036117934059 -21.107609355515734 12.510271625521881 179 134 113 255
13.098663343325939 -19.054291395204501 11.988504050323797 166 124 101 255
13.790714643372581 -16.846507687859258 11.377867847960033 153 115 90 255
14.368436713292255 -14.776929399198309 10.862895940964222 140 104 78 255
15.214998620895187 -12.330818802538630 10.121731168336794 121 91 62 255
15.510896702701217 -10.614061495246403 9.842863300723593 102 75 45 255
15.422960340224506 -9.410839222238394 9.886348999635118 96 66 38 255
15.822036001706095 -7.535515974968376 9.520325187461424 93 63 37 255
17.137999632291042 -4.385121022416001 8.383115501171801 89 63 36 255
6.405973439141292 -3.505808686663670 17.045343816890693 149 100 78 255
4.895545450313961 -4.389556483780893 18.287678038915345 173 116 99 255
4.019581709323319 -4.349906389268369 18.995436375104248 193 135 122 255
3.407465627225179 -3.924565555069421 19.480851303507194 195 143 129 255
2.900778432917747 -3.344742058574866 19.877417757962036 185 141 126 255
2.707094796942442 -2.295475298897372 20.009944649715294 168 132 113 255
2.356633455241422 -1.480411278222334 20.274715852068823 161 133 109 255
-40.759595588164501 -0.515111155456680 55.188558568340369 204 153 131 255
-41.915637207231526 -1.523864198112278 56.149346826798165 205 143 125 255
-42.081825626213202 -0.522002869912797 56.263486526037681 193 143 120 255
42.480384940396107 -18.592015016650635 -13.080156365834966 189 148 130 255
42.557239920817352 -17.171416618940867 -13.177064187256860 194 153 133 255
40.892268264179194 -17.763334975533098 -11.807858318982312 197 154 135 255
38.943152212126989 -18.702001490637656 -10.199075891382392 196 155 135 255
37.635632724945140 -18.908173031962917 -9.130179521546268 199 158 138 255
37.541886145993175 -17.695573100320757 -9.083401476320461 201 159 138 255
35.836741930038272 -18.387538796740898 -7.679254421396081 199 157 135 255
34.423916326362900 -18.747826634171020 -6.521055863691970 194 152 130 255
32.099231262714198 -20.212832387645335 -4.594106463150553 181 139 117 255
30.468257978658954 -20.867358594660175 -3.251335360588030 161 119 97 255
27.987329576108436 -22.566557759964581 -1.191636336699702 159 116 97 255
24.889500591735157 -25.043582784348587 1.388882812946122 187 146 126 255
23.335879110868262 -25.666480408306001 2.667847985175797 190 153 133 255
23.089986567534453 -24.695823253186006 2.844000659449136 195 160 140 255
22.391250601353306 -24.283191852887200 3.402144467352997 198 161 139 255
20.791421049007312 -24.994987929253256 4.720775617346249 198 160 139 255
19.196781916691947 -25.716323041550424 6.035388762463015 200 162 141 255
18.505792528146685 -25.317978723988205 6.587489168569959 202 164 141 255
17.591956107926421 -25.205207068865462 7.327827013243308 205 165 143 255
16.680376784952671 -25.096598667576359 8.066403575104744 207 168 145 255
15.436332116530764 -25.419636739184057 9.085966800157053 208 170 147 255
14.808325493782519 -24.963339605620661 9.585307308585556 211 173 152 255
13.903641026824261 -24.867439864396346 10.318511960079604 206 168 147 255
13.389159154780430 -24.272272131826838 10.722057041118916 201 163 142 255
12.377538637686513 -24.327409610460393 11.545903098495955 200 162 143 255
11.589370520642234 -24.098137712731045 12.180996065100317 201 158 139 255
11.188352974731146 -23.364006780720104 12.488775393417257 195 150 131 255
11.776178575027814 -21.319388750270775 11.960057221434511 187 142 123 255
12.633723834740493 -18.901683315159858 11.202770670282092 174 133 111 255
13.266965374107087 -16.766873033609585 10.634849564084476 162 124 101 255
13.622802581853421 -14.991122392219637 10.301357401016134 149 114 88 255
14.247509547688168 -12.840726256187821 9.739951194629384 133 104 74 255
14.813323917306235 -10.755910192386523 9.228036383793835 113 86 56 255
15.212212070945753 -8.885649445296281 8.857145593154655 105 76 48 255
15.931978777319188 -6.562576980480543 8.214117988285579 92 62 36 255
17.402083303303186 -3.185890981645912 6.934879442927951 86 60 33 255
5.367131348685660 -2.828432883867208 16.707688203272880 145 110 84 255
3.811081188449521 -3.794262382475722 17.996551774802157 172 121 103 255
2.833877292434636 -3.912645573752343 18.793760538999550 198 145 130 255
2.015435413864509 -3.801539561762809 19.456200084026420 194 146 130 255
1.873531432493536 -2.675081076122638 19.543387917834991 178 134 117 255
1.626939776784610 -1.703712960526957 19.719549829468917 162 133 108 255
-41.523186714799863 -1.030143765519085 54.826521908112340 199 149 130 255
-42.451553806343981 -1.582180153896672 55.597183345684229 202 142 125 255
40.976999419097609 -19.600134759519477 -13.101694518433646 189 154 130 255
40.300896426813893 -19.053432715820236 -12.563256052175461 194 152 133 255
39.625817377849557 -18.508654947176439 -12.025649594884555 200 155 138 255
38.605702489826228 -18.370313259976257 -11.195371265045367 199 157 139 255
37.012538946681559 -18.913018366216761 -9.878823746843267 203 159 140 255
36.343231772797964 -18.378955509975299 -9.345784843562342 203 158 137 255
35.216476035858051 -18.391551677145685 -8.424498626128525 199 155 133 255
33.463648357394817 -19.161136559896136 -6.971601545824342 196 152 130 255
31.488241484879495 -20.215330036673095 -5.329324439399869 184 140 119 255
28.836183919076547 -22.106932776461434 -3.111974199348822 165 123 101 255
26.193721555107174 -24.016153816307195 -0.902037040224741 181 140 120 255
23.560853678086005 -25.942989669464851 1.300489605571613 190 151 131 255
22.521693868335149 -25.943220886470044 2.149634805923739 194 158 137 255
21.936904225940822 -25.391232579715819 2.612825801385327 196 161 139 255
21.352902965215208 -24.840723039773820 3.075378810432426 200 162 141 255
19.476891150167859 -25.904181189123989 4.636431951357082 201 163 142 255
18.336416120627916 -26.065100685424653 5.572496756785426 205 168 147 255
17.758817903013664 -25.526416577846305 6.030039450795186 208 171 148 255
16.400222301128537 -25.980127534504419 7.152043213388907 212 174 151 255
15.547317602569933 -25.802550958328538 7.844066397667120 212 174 151 255
14.418438043805025 -25.984825981954572 8.771113037032791 213 175 152 255
13.792072903743758 -25.529994043546452 9.270621053520699 213 175 154 255
13.000684331421695 -25.292110355223372 9.910703494668383 207 169 148 255
12.542452744415442 -24.626103227694585 10.267176430413969 202 164 143 255
12.029416694616117 -24.032800020705736 10.670337002529834 199 161 142 255
11.296981833747793 -23.729907041819786 11.260455763899131 199 156 137 255
11.059857836544381 -22.776711653442675 11.428572121655918 194 151 132 255
11.314749552765335 -21.167179944476004 11.177216552182728 191 148 129 255
11.730637495550468 -19.333373875572534 10.788334433397807 183 141 121 255
12.142928019350109 -17.493001262221298 10.402195573556071 171 133 110 255
12.388491670082374 -15.866450427997933 10.157945967868983 158 123 98 255
12.956721599642123 -13.792561882243689 9.638147002672952 145 116 86 255
13.249961036377414 -12.080315289783357 9.352626838754588 130 103 73 255
14.080205716734270 -9.621079611539585 8.608462362834217 119 89 61 255
15.605466558548386 -6.185095162220080 7.270436970807452 107 77 51 255
17.337086178345317 -2.434866896544065 5.755425953951544 88 62 35 255
4.744905226943644 -1.529631856869116 16.013138196859131 140 110 83 255
2.779293515825685 -3.121610503632155 17.661074030054806 180 134 116 255
1.546512399471055 -3.633042942539419 18.681492165201263 194 146 129 255
1.041453735472373 -3.054578238895374 19.078312719065138 195 146 130 255
0.897975757777743 -1.926985602191507 19.165088907676989 178 144 122 255
-41.222162219309780 -0.724516990761458 53.574404630045507 203 155 135 255
-42.195570701329444 -1.362445292879556 54.388603336137464 202 151 132 255
-43.032016842342543 -1.731971251376422 55.083841777816616 207 142 127 255
41.561620064108780 -18.205639184049403 -14.896099340959779 192 167 137 255
40.710402312031363 -17.854733649842814 -14.206859159732261 201 157 140 255
39.630505649097444 -17.775795548774369 -13.322190568954625 202 157 141 255
38.208425917926348 -18.106315049070787 -12.144999406417156 201 158 141 255
36.733191495430219 -18.512218215429073 -10.922071226480455 204 159 140 255
35.777594036061259 -18.315708593965411 -10.142926998419512 205 159 137 255
33.681849661052496 -19.484794569767274 -8.388960002059548 201 155 132 255
33.018194539377703 -18.959636323813129 -7.858921957211919 197 152 129 255
31.957443281409041 -18.916045095486425 -6.989223569838089 181 141 118 255
27.153744846738505 -23.414616114509926 -2.917540027521170 175 137 114 255
25.143837407592116 -24.568410690217945 -1.234636260223255 186 151 126 255
23.027816868175222 -25.873274454182621 0.539644169973371 185 151 126 255
22.216065499415777 -25.595145985224576 1.198105440932949 194 160 135 255
21.012235158240202 -25.807770019683517 2.192375741066542 198 162 138 255
20.541722001029740 -25.118567374312192 2.558934732825378 199 163 141 255
19.343260665871014 -25.341093480173811 3.549016497913641 201 166 144 255
18.483660389006985 -25.148153419744006 4.249057708183727 204 172 149 255
17.235650408848016 -25.452682494080250 5.282092346252284 211 176 154 255
15.657449824251586 -26.188620783734905 6.598447830674218 215 180 158 255
14.306560923966970 -26.650160596392794 7.720357600974523 217 182 160 255
13.347741709052031 -26.620993393800774 8.506407544871337 214 179 157 255
12.612568863053838 -26.310712363654204 9.100829863576934 211 176 154 255
11.878921493625541 -26.003250705546805 9.694056610288612 205 169 147 255
11.642175554617040 -25.051704650121394 9.860995499960609 201 163 142 255
11.734275798657677 -23.666342174288332 9.745595337528158 196 158 137 255
11.221466809617226 -23.072669038703168 10.149309857518574 196 153 136 255
10.654532615617370 -22.552574194514705 10.599532848995096 195 150 132 255
10.415714028875186 -21.597322356998575 10.767980403181923 192 147 128 255
10.448383499604461 -20.275887133466398 10.703103514242457 187 143 124 255
10.696402124402596 -18.658136990086973 10.452977856355176 177 136 114 255
11.158306942633430 -16.741392561777417 10.018727327048396 165 128 104 255
11.724504375826200 -14.670306491255360 9.494441496771259 155 121 94 255
12.286376803566014 -12.591318264003576 8.973460720399373 141 110 82 255
12.736282174824879 -10.652653394715912 8.548376530112762 129 99 73 255
14.095248543901334 -7.443283872095435 7.340783640697197 119 92 65 255
16.089171606351158 -3.324622833703529 5.585996622059668 107 80 56 255
1.489471104101966 -2.839732463571920 17.548630713963348 178 128 112 255
0.365389707574252 -3.198930098399842 18.481156789088772 200 153 137 255
-0.344130337569965 -2.935912285908898 19.055611308318703 195 153 134 255
0.024448313866372 -1.021057160793362 18.697886260374247 157 121 102 255
-41.673463382098248 -0.601175490233572 52.939237381254017 203 155 136 255
-42.599977607095525 -1.147181965025595 53.717210410556760 201 149 131 255
-43.168570076609669 -0.967089079901939 54.180763746560530 206 144 129 255
42.321028850208421 -15.251340732804067 -16.897389515340308 203 164 143 255
39.056379295432208 -17.715006781387956 -14.129501051387479 201 159 141 255
36.663239214392206 -19.190128511407011 -12.110535434893848 203 160 142 255
35.021749020314502 -19.801810100684264 -10.737824323150278 205 160 139 255
33.841871184265131 -19.880433694257249 -9.762098001647246 204 158 136 255
32.038991676154183 -20.713584161579632 -8.249625145797751 202 156 133 255
30.923733456122477 -20.738331102837492 -7.328915764511521 197 153 130 255
29.698092734933709 -20.905593785355620 -6.312869269366047 183 144 122 255
25.251822396936461 -24.996518680272516 -2.521217971214497 192 154 131 255
23.024174590222174 -26.430444455326494 -0.640286399506607 186 152 127 255
22.381331341094125 -25.942034516635204 -0.124968724702228 187 153 128 255
21.289949941545558 -26.010719818459819 0.777204159360224 195 160 136 255
20.033336310273427 -26.293777394969453 1.822145207527228 197 161 137 255
19.675675951283864 -25.466186624738299 2.091836995269830 200 164 142 255
19.206168660437555 -24.778419974530294 2.457999788928561 205 170 148 255
18.458426632618654 -24.442697230113879 3.064322961598918 208 174 152 255
16.600506575716622 -25.520112549269129 4.629253835784141 212 180 157 255
14.915388522031208 -26.397085859181601 6.045539564553280 218 183 161 255
13.900039267657689 -26.432930492369195 6.883803509291880 218 183 161 255
12.997874390070962 -26.331459898483331 7.624513909739591 218 183 161 255
11.767389266503756 -26.662616932344292 8.649154149009860 216 180 158 255
10.760525818235408 -26.714082343701534 9.480825494469173 208 172 150 255
10.524341145319454 -25.764590557393859 9.646381841748337 200 162 141 255
11.053707649038643 -23.804750015198039 9.149762880057779 192 154 133 255
10.705256026119031 -22.994327292068874 9.412099749821408 192 149 132 255
9.975220500673686 -22.691294295071145 10.004578362139227 193 148 129 255
9.409804487313522 -22.172822439475596 10.454707991576583 192 147 128 255
9.387604154309514 -20.926071374706083 10.434622420271381 187 143 124 255
9.634359840388299 -19.310333704023236 10.181457457330765 179 138 116 255
9.932250463642958 -17.615948801271202 9.883703389915013 169 130 107 255
10.496415635286752 -15.547665708550511 9.354930446950249 157 123 98 255
11.163764845608227 -13.323742969159809 8.736295026556348 148 115 88 255
11.611774229694049 -11.387394675810583 8.307301255348875 137 107 79 255
12.698074015287887 -8.552258224149057 7.324475749703794 125 98 71 255
13.831004237370109 -5.630223009614554 6.300523215084723 117 89 65 255
16.128801036921658 -1.050633538241755 4.265318080454961 98 74 46 255
2.251302821500701 -0.797263269711834 15.694482050114686 152 116 93 255
-0.105041850998077 -3.029991501910729 17.705456446983476 198 140 128 255
-1.120937633814663 -3.237477024890154 18.549128115393017 201 155 137 255
-1.163401517093916 -1.953757086950816 18.544477006125646 180 141 122 255
38.023590215906609 -18.191415264050818 -14.540922103862897 200 163 141 255
34.723926326667566 -20.744888942228783 -11.723806415022182 203 162 142 255
33.943915219282076 -20.347320495960162 -11.090147662228247 206 161 140 255
32.994833437266124 -20.155996668317641 -10.309754428916563 205 159 136 255
32.048005578788832 -19.968844670792606 -9.531133378029040 202 157 134 255
31.386524310044194 -19.444589633329002 -8.999912078754846 192 150 128 255
29.370170410858321 -20.565767457710848 -7.292765776023316 188 151 127 255
24.598410677006683 -25.066107475225323 -3.193036607355566 196 160 136 255
22.658111516024690 -26.154723386962587 -1.550036638558566 190 156 131 255
21.061245839163519 -26.840666585679941 -0.204686315488289 187 153 128 255
20.197659620141025 -26.634270871091104 0.504122921613060 195 159 135 255
19.336085594091543 -26.431595297397763 1.211353994625313 196 160 136 255
18.643811039666502 -26.023168235931308 1.771606133243182 200 162 141 255
18.175376312663190 -25.336926119731089 2.137352649388077 206 171 149 255
17.041030587748509 -25.494529324582174 3.082188379121590 208 174 152 255
15.688338674715567 -25.940073140122195 4.217249876947051 212 180 157 255
14.118766874251349 -26.676242486493607 5.541411200465433 217 185 162 255
13.602259627721281 -26.074027729423051 5.949606058583043 218 184 162 255
12.370922957733114 -26.398015189500939 6.980100686080561 221 186 164 255
11.143311043304294 -26.728851053979781 8.007709136618530 225 190 168 255
10.138563084901307 -26.780076428380937 8.841569225719354 219 183 161 255
9.847178543213204 -25.902464636237994 9.054209440514342 207 169 148 255
10.318937121614567 -24.015233119757340 8.601760401810850 197 159 138 255
10.024991468351175 -23.132975235253582 8.816326902089941 195 152 135 255
9.404841241778627 -22.685011369362968 9.315244985867650 192 147 128 255
8.731556177398090 -22.311703742033359 9.860592830943347 190 145 126 255
8.600080796457860 -21.211211990054579 9.933403580538140 186 142 123 255
8.791033410014165 -19.669549156735371 9.724727321424695 180 139 117 255
9.194602084545636 -17.829499725415587 9.330182369919441 170 131 108 255
9.755637770920544 -15.762010472678725 8.797764876600354 157 121 97 255
10.473044317248537 -13.465073372744286 8.128317369206115 151 117 92 255
10.918182812136280 -11.529256370990652 7.696162769594423 140 110 82 255
11.892697928991709 -8.843482496139359 6.801024439721573 131 101 75 255
12.807744340395686 -6.220759294296869 5.957186675090497 119 91 66 255
14.619080688407934 -2.316414517479757 4.329089629404081 109 82 55 255
-0.218717806627808 -2.313086191802370 16.614150673260241 166 114 97 255
-1.692596568722081 -3.224861619761100 17.864475255498689 200 149 132 255
-1.838237270621050 -2.098562583784030 17.948042194509071 197 152 133 255
-42.096602467650158 -0.723185014444994 51.277722895513378 201 154 136 255
36.194448607382071 -19.607213407266300 -14.253020402271517 198 172 143 255
33.760511197494935 -21.154070834399647 -12.173450730321463 203 165 143 255
32.755088112645126 -21.027721542942572 -11.340633500066332 205 163 141 255
32.262224621060739 -20.295916484989448 -10.955357580474299 203 158 135 255
31.656555429775040 -19.700715533748280 -10.471516980311037 198 156 134 255
30.713100895435588 -19.516404930090545 -9.692394433895799 192 150 129 255
27.801178944952454 -21.732334737149927 -7.192117297898420 195 158 134 255
23.888763719034131 -25.204430636252141 -3.815817850070090 199 163 139 255
21.561299494756554 -26.775051917281530 -1.824333440772307 191 157 132 255
20.640693101889269 -26.632760842551136 -1.062924829989640 190 156 131 255
19.722343561706992 -26.494638866309799 -0.303283147047011 196 159 135 255
19.251810648854132 -25.804048533855820 0.064543803463494 203 165 142 255
18.336998282005368 -25.672472214119210 0.821405594321192 206 166 146 255
17.313543385233373 -25.685119863656695 1.673638267190654 207 171 149 255
15.850210250061338 -26.264843856919896 2.911523085951330 211 177 155 255
14.943640289769235 -26.148458983747645 3.661964020171411 216 184 161 255
13.763910156959895 -26.389737205063511 4.652073160554579 216 184 161 255
12.917431116647407 -26.211881233643538 5.350327654953190 218 183 161 255
11.963288119765167 -26.180036613070456 6.143205747127155 219 184 162 255
10.792779224749239 -26.438285989999486 7.126154098394579 222 186 164 255
9.734941712179676 -26.559747264089197 8.010583483756591 222 186 164 255
9.061409112705093 -26.183987958980595 8.557973847424506 215 177 156 255
9.150076220802760 -24.802021425049446 8.436234880693917 200 162 141 255
9.073921951883676 -23.632962365658926 8.459003747507751 193 150 133 255
8.996366859435398 -22.461357987619607 8.482830010407497 190 145 126 255
8.539515956570852 -21.796192377370517 8.839806175214278 185 140 121 255
8.190699789889209 -20.985739768475298 9.101831922714069 184 141 122 255
8.110410297284176 -19.809183241932288 9.127707107779770 179 138 116 255
8.404057035507378 -18.116408284570383 8.824516220569791 173 135 113 255
8.855091026308827 -16.197147358295695 8.382494482965910 162 126 103 255
9.248914615205877 -14.344706680103002 7.990378070671284 153 118 93 255
9.639148085700896 -12.485705357150550 7.601006234109178 141 110 82 255
10.716503453825368 -9.654569197659214 6.606159262878208 131 101 74 255
11.681083159242405 -6.960069218321394 5.709875159511853 121 93 66 255
13.168275157501171 -3.506891386462712 4.352404162091318 108 83 56 255
0.376980344775774 -0.500635979054096 14.887428668445182 152 112 89 255
-1.451536997029478 -1.956208988144340 16.459190937782665 187 137 118 255
-2.259223480944627 -1.849728130209542 17.127339777228542 207 160 142 255
-2.407407702714721 -0.720514085675745 17.211244719099938 186 148 129 255
-40.568136200841707 -0.633494939435877 48.986062756374807 199 157 135 255
-41.408156214075802 -0.980707934384895 49.698662531996050 187 142 121 255
-42.245560758381828 -1.332655215558759 50.409304792978006 182 135 116 255
-42.859590572623247 -1.235670569571653 50.918607713437453 198 150 130 255
34.330608783586541 -19.745535047642960 -13.968339385388333 205 169 145 255
32.814956358731706 -20.221892779227176 -12.683267036267239 205 165 142 255
31.304006193305753 -20.706910688901132 -11.401851752716738 202 162 137 255
29.572312957768986 -21.472549318061567 -9.925653286815049 199 158 136 255
27.677584260132875 -22.453284725852484 -8.305316451772455 196 158 136 255
25.845388151513987 -23.377378473509623 -6.739373310709141 200 164 140 255
22.395525038692966 -26.304047279768696 -3.747719627429774 202 166 142 255
21.137938914879783 -26.568462026472872 -2.686401435930577 195 161 136 255
20.274326066841411 -26.355957097320356 -1.971953994751800 195 161 136 255
19.468353701034744 -26.077838387582972 -1.308130479594894 199 162 138 255
18.886171477008617 -25.524755328058347 -0.841501236528245 204 166 143 255
17.695567182684385 -25.740771960729120 0.161917225363226 207 168 147 255
16.563704873634947 -25.893190314899016 1.113867276938095 210 174 152 255
15.269663484150328 -26.262263077204636 2.209307811785777 215 181 159 255
14.694806007477212 -25.722720236469200 2.670193890905068 218 188 164 255
13.352222122828579 -26.174166020676296 3.809179441932031 214 184 160 255
12.178168943795100 -26.420650993381912 4.799738609802887 214 180 158 255
11.062247022946764 -26.602412913909063 5.739304339727994 216 181 159 255
10.222201462200246 -26.433377707251623 6.435361993697853 219 183 161 255
9.166548514398187 -26.554355310265464 7.322270161687726 219 183 161 255
8.222455541476734 -26.537242392856029 8.110833646541352 218 180 159 255
8.039130147243270 -25.516440606165418 8.226602308956501 205 167 146 255
8.071050366641146 -24.205007861930511 8.151757201265752 194 151 134 255
8.586340811733663 -22.237920754196011 7.648772481268765 188 143 124 255
8.290613389580528 -21.353749979623217 7.863456076684940 184 139 120 255
7.779768577211343 -20.760484016691009 8.268618769517275 183 139 120 255
7.215925388350200 -20.241387556544765 8.720789238686649 181 140 118 255
7.454325947068412 -18.623338490950573 8.462001162362981 174 134 113 255
7.903097810619983 -16.705725333617181 8.016349487794002 165 129 107 255
8.294849421483860 -14.854912530174147 7.620798313579485 157 121 97 255
8.683011610653068 -12.997539305724729 7.227992155242816 144 113 85 255
9.597007538269736 -10.391057412590072 6.368123090288066 134 104 76 255
10.663440472415999 -7.550120169962440 5.372209412725454 122 95 68 255
11.986612742683405 -4.323319428115781 4.147505641357014 113 88 61 255
13.564699101174881 -0.707311624644944 2.695414625712488 90 78 49 255
-1.216928579230483 -0.688292381898236 15.047228338395257 161 114 94 255
-2.580723635561924 -1.443686900478554 16.214790449935805 197 150 132 255
-3.335190810680132 -1.260436518982942 16.838546955332276 199 156 139 255
-40.985425900551604 -1.787507007724003 48.353591844966914 199 157 135 255
-41.824023206765006 -2.133358637549861 49.068775876106088 193 151 129 255
-42.438970256520349 -2.032621581047749 49.580704580571293 179 137 115 255
-43.140685670036902 -2.115370162732859 50.171941377144663 197 154 133 255
-43.356913494794213 -1.203683356100214 50.321003166920434 203 156 135 255
32.023593008117672 -20.429461979457727 -13.281168625034979 204 167 145 255
29.615809609422115 -21.998447675654234 -11.197801988452056 202 160 139 255
26.879614364844088 -23.991092273429956 -8.822277063429851 195 158 133 255
25.274493476382418 -24.638377781956024 -7.448765681848613 196 160 139 255
23.842346181263963 -25.089961562866620 -6.228133979340981 200 165 143 255
22.135633664096900 -25.892966875783742 -4.763354358352814 203 168 146 255
20.545967783268225 -26.568686577059054 -3.401835488535426 199 163 141 255
19.739336912242351 -26.286680937298115 -2.735021019414660 202 162 142 255
18.989912945765269 -25.938634111843299 -2.118837280388732 203 163 142 255
18.242014041055910 -25.593413294523401 -1.503855650243054 206 167 146 255
17.606027664754009 -25.111492089663557 -0.988179610350130 207 171 149 255
16.365295078249005 -25.401360872344128 0.065208396963385 212 176 154 255
15.512931963194688 -25.206608493065744 0.773656116854568 216 181 159 255
14.607757706644691 -25.086012559752817 1.529297741586277 217 184 161 255
12.774863821685557 -26.170786821007681 3.110667781994039 213 183 159 255
11.275878611787704 -26.842042247003008 4.395589193983881 215 180 158 255
10.435365792958009 -26.669109287741861 5.094825588466335 216 181 158 255
9.814222461774534 -26.214573394112051 5.598912592241788 218 183 160 255
8.977253675862556 -26.048180787859735 6.295380386366503 219 184 161 255
7.871830319267247 -26.244392370452545 7.231309843278922 218 180 159 255
7.363337551812435 -25.654543065214909 7.635491561833192 214 176 155 255
7.178497634852476 -24.632377336761209 7.751116861912124 206 163 145 255
7.691211663028383 -22.666734155763038 7.244399040754814 186 143 124 255
7.502963243992923 -21.638362110394127 7.362609274505758 179 134 115 255
7.099867953542059 -20.899920936600978 7.672452835802289 174 130 111 255
6.430027466238187 -20.527210012090819 8.220449125368845 171 129 107 255
6.560076994458711 -19.056742181238207 8.054190837914064 164 123 103 255
6.900228369179160 -17.287684268114248 7.699915643401681 160 123 101 255
7.502016284962366 -15.143569349039524 7.111384948328691 156 121 96 255
7.993491241598349 -13.139131669379594 6.620887160520681 147 115 87 255
8.586396788055339 -10.978772610560526 6.039158306143207 137 105 77 255
9.280003085353826 -8.661154566230351 5.366759934971583 124 95 67 255
10.546163068580853 -5.512810620198650 4.181359094515244 110 87 59 255
12.695183484644417 -1.076956383073309 2.204675492175227 84 74 45 255
-3.105791866080637 -1.352703184160930 15.481066304827721 169 122 104 255
-3.959529694628799 -1.326694926059076 16.196837160516566 192 145 127 255
-40.470131998275974 -1.057737343024939 46.868694018655802 202 161 139 255
-41.708198511416327 -2.205744773186666 47.954199471881978 201 160 138 255
-42.411792044314183 -2.282232620653076 48.549494057606466 205 161 139 255
-42.805370013383154 -1.730407210871192 48.860218177569067 208 168 144 255
-43.462139880282024 -1.721673216025010 49.413010904919531 206 171 144 255
29.939722291687872 -22.189525304678227 -12.724048741903175 205 172 149 255
28.214914842386037 -22.950678734273765 -11.237292717542431 203 165 145 255
25.824004822437502 -24.537683850789364 -9.154946284693978 196 160 137 255
24.056169921128969 -25.390610700671402 -7.628233017795651 197 162 141 255
22.740160799696582 -25.707250951592982 -6.504607906556600 203 168 146 255
21.761811861594595 -25.619466839208087 -5.682374734326459 207 172 150 255
20.674979747939773 -25.673996195138102 -4.762851623788265 207 169 148 255
19.535769113363699 -25.803112913225334 -3.796131948528597 209 168 148 255
18.234050525861164 -26.146078821893241 -2.683627155660133 208 169 148 255
17.818319036036144 -25.384048305422368 -2.363662091112985 209 171 150 255
16.962616564673368 -25.180100501293509 -1.649794407673994 209 173 151 255
15.834521659390902 -25.329710631067684 -0.691739653259418 212 176 154 255
15.038221165582797 -25.064136885251855 -0.030555214149501 214 179 157 255
14.025143549810110 -25.083496793451047 0.825100667896777 215 180 158 255
12.088058483862312 -26.308779656582544 2.509422864419207 216 181 159 255
10.810591148241798 -26.696385684067650 3.603088678210838 220 184 160 255
10.025532023906436 -26.451514915094720 4.255530715621120 217 183 158 255
9.242245321453368 -26.209915272732417 4.906587948969218 218 184 159 255
8.622811341441604 -25.756984976853772 5.410775394524023 218 184 159 255
7.519275882483697 -25.951798923438957 6.349755099473469 218 181 157 255
6.687890817674543 -25.792660426620785 7.044688461480717 215 177 154 255
6.126825637033050 -25.276214445980429 7.496984078813341 210 168 148 255
6.423175128250705 -23.602398540084891 7.178731115125970 195 152 133 255
6.342502031267173 -22.431470470679471 7.199032444462148 187 142 123 255
6.260431305206112 -21.257999048726020 7.220392316482190 179 134 115 255
5.751581608303184 -20.666771621783283 7.625519741158968 172 127 108 255
5.879896251825670 -19.196714751890141 7.457268024780490 164 122 102 255
6.164626677302948 -17.501693756701599 7.147871847854191 156 119 96 255
6.868712173146264 -15.210858439368906 6.460387033431346 153 119 92 255
7.304321377559489 -13.280742085838938 6.014091208357343 146 112 84 255
7.630973320829298 -11.492050240243259 5.665468707485559 135 104 75 255
8.321374072840030 -9.176182224426185 4.988468750256487 122 95 66 255
9.634565788551839 -5.955148801312021 3.749142525894854 103 78 51 255
12.192542079359811 -0.922312808309471 1.385786916582447 83 73 45 255
-4.283827362181881 -0.919651239064422 15.282616917352755 152 107 85 255
-40.444554582182491 -1.318217240257354 45.825920717256878 200 161 135 255
-41.505034864026811 -2.102202653017684 46.753839970640541 204 165 142 255
-42.253177587083485 -2.264709023588580 47.393011939227236 207 166 144 255
-42.647580174182977 -1.711053493091185 47.704666054274981 208 165 141 255
-42.954132498758923 -0.977236529216952 47.934936265894535 202 166 139 255
29.322252821364316 -22.194125178854989 -13.467237927903398 204 183 153 255
27.322137874236432 -23.293087235292290 -11.724405370340605 202 163 146 255
25.886852374335291 -23.725453201141590 -10.488876460061988 198 163 143 255
23.899325901970400 -24.847567723768748 -8.755804799413966 201 170 147 255
21.807609738690445 -26.119133671778712 -6.928069174241273 208 176 153 255
20.998072519774468 -25.826437500714974 -6.254046388858740 212 177 155 255
20.466820139917388 -25.192884215923698 -5.830507044925639 212 174 153 255
19.163582902482773 -25.527073486062818 -4.711278229364041 211 173 152 255
17.919375238167362 -25.799297850492337 -3.644764585494613 212 174 153 255
17.283194390675135 -25.313896271759319 -3.126043153930141 210 172 151 255
16.428794852093802 -25.109317121007962 -2.410379231857263 206 170 148 255
15.029491690645415 -25.607929330062916 -1.202813710389393 209 173 151 255
14.180346629397775 -25.413036137658139 -0.491244445339277 213 177 155 255
13.115427664268651 -25.503443910865428 0.415388222477361 215 179 157 255
11.727549718957619 -26.023075578714526 1.614088854533350 217 182 160 255
10.723555020445048 -26.055008672621966 2.466532096665901 219 184 162 255
9.560066191723394 -26.305203054729390 3.463471845113361 218 183 161 255
8.939651638333231 -25.848903423246810 3.969871112922192 219 184 162 255
8.266440658240640 -25.466046320702219 4.524139729714022 219 184 162 255
7.325939264415553 -25.444251114827921 5.320381666479648 217 182 160 255
6.227164156793663 -25.642949840667711 6.260184869332022 216 178 157 255
5.345510761756969 -25.558862866735950 7.003845856276001 212 170 150 255
5.426402237980540 -24.175595859385481 6.876085311216599 201 158 139 255
5.345482662600034 -23.006338158129296 6.894609198700635 195 150 131 255
5.475586717843242 -21.543118023043405 6.721683318454865 183 138 119 255
5.179452801194827 -20.660193582701140 6.934833804647951 177 132 113 255
5.305789250288626 -19.190101321530136 6.764776262793447 167 125 105 255
5.324276419465463 -17.862730227896407 6.692219915140811 159 123 99 255
5.867057711881728 -15.794442873245316 6.143575690145610 152 119 92 255
6.090546048955446 -14.162084748403487 5.884191283647283 145 114 85 255
6.363553111177026 -12.450312802204309 5.579426177649736 136 105 76 255
7.364992362702139 -9.691027889334634 4.612435018485769 122 95 66 255
9.246141021705739 -5.650937628869826 2.845017211882237 105 80 54 255
11.584722041405172 -0.917578983467251 0.660218288964927 70 55 31 255
-41.082557737912595 -1.556259957711006 45.342312145502106 202 165 139 255
-42.051740890965334 -2.161325111308486 46.190900672982210 206 164 140 255
-42.359323867358597 -1.426088619653171 46.421528781390094 205 164 139 255
26.932358811630962 -23.026221230168289 -12.664406646294026 201 169 148 255
25.944723779411959 -22.913801922991581 -11.827968761969373 201 167 148 255
24.460268592970323 -23.419206496251434 -10.540825215176000 206 173 151 255
21.762642111216110 -25.437141366235579 -8.152895470802036 214 182 159 255
20.179815435503969 -26.101961404791496 -6.774916431838420 214 181 158 255
19.483997410289021 -25.675436011139823 -6.201181467619136 214 178 156 255
18.569496006120374 -25.527411175589833 -5.428783652614300 215 177 156 255
17.657254540943427 -25.383558893225143 -4.658153099224592 212 174 153 255
16.911513618459622 -25.035443459173223 -4.038482560413854 212 174 153 255
15.566430488362016 -25.456884214623386 -2.874006681832753 209 173 151 255
14.280065797071757 -25.816154342599873 -1.762344464133548 211 175 153 255
13.052052905129500 -26.112580631971980 -0.703212645086580 214 178 156 255
12.424605479361816 -25.641745935779966 -0.189876754973966 214 178 156 255
11.202703435881091 -25.949423447023293 0.864505435012404 217 181 159 255
10.254597422422307 -25.909845776279383 1.670162771091213 218 183 161 255
9.093430595931920 -26.159067683196611 2.670162141738501 215 180 158 255
8.150824827263989 -26.129616152604513 3.471545221379415 217 182 160 255
7.693553106938538 -25.461338694056565 3.831014794599270 219 184 162 255
6.808386298486710 -25.367384170291757 4.580556996054895 217 181 159 255
5.444849579798785 -25.925059901633631 5.766616508871891 217 179 158 255
4.405459705463215 -26.057938748800325 6.657608486664060 215 172 153 255
4.113297030419972 -25.182893311146273 6.867146576080586 208 163 144 255
4.245013535603135 -23.726202581658526 6.689666934669162 202 155 137 255
4.480189214391544 -22.119511695565564 6.417352997914293 187 140 122 255
4.448537087920158 -20.872887419903947 6.388364935782278 176 131 112 255
4.415245902267600 -19.623274369631588 6.360623904571810 166 124 103 255
4.275216266294166 -18.517682392893789 6.430211575723234 157 121 97 255
4.605889664363531 -16.746443664479102 6.069148595121874 151 118 90 255
5.142445480627487 -14.673286932428198 5.519231789061280 145 112 84 255
5.674684857819955 -12.592232555268993 4.972623816862864 135 104 75 255
6.827361819573753 -9.610511147897768 3.857332446958281 121 94 65 255
8.544152901890214 -5.794712666084138 2.224300838652482 109 82 57 255
10.769223065750992 -1.212322160853773 0.124096406351669 52 34 13 255
-38.531946017174931 -0.848683913095385 42.098154826536344 203 166 140 255
-39.509694956570627 -1.433084167071684 42.957937278923197 203 163 138 255
-39.821391674968908 -0.690860774635382 43.191218400718412 206 166 141 255
-41.719808417703931 -1.794234591664463 44.859466072219931 202 162 137 255
-42.291735408327440 -1.593844233397249 45.338734942145734 194 154 130 255
23.685849061783586 -23.626507132230813 -11.122729435575650 213 181 159 255
22.099639384856175 -24.277285766116478 -9.734879003554965 220 189 166 255
19.913118000162058 -25.691799169503753 -7.797728150667751 220 187 164 255
18.942803030314082 -25.607510229746424 -6.971267672411216 219 183 161 255
17.700985147052251 -25.872893057979468 -5.896191066006679 219 181 160 255
17.064366440621058 -25.383562526938135 -5.374234648256277 214 177 155 255
15.992330003510006 -25.451829967494604 -4.453694263707888 211 175 153 255
15.032157723437308 -25.386249802808720 -3.635148823086922 209 173 151 255
13.639989855411301 -25.884540283001968 -2.420653180274400 209 173 151 255
12.523235263444093 -26.040382678091504 -1.457835195679962 211 175 153 255
11.517856440910265 -26.061479179405836 -0.596633415358440 214 176 155 255
10.623120642804622 -25.946485519923925 0.163517183588453 217 179 158 255
9.838295307686138 -25.694057852663661 0.823181405316575 215 179 157 255
8.733031309833933 -25.871057948121148 1.777067122584640 214 178 156 255
7.791746218723432 -25.840268153018911 2.580918213343949 215 180 158 255
7.066799443335725 -25.528200672216343 3.186501102414383 216 180 158 255
6.290046789094106 -25.290654306293874 3.839874206111546 216 179 157 255
5.195784513970665 -25.487901167707633 4.785217668192047 216 177 156 255
3.998576241171321 -25.835388966854225 5.825649203875656 215 172 153 255
3.493703787604488 -25.248944892156203 6.230039332359496 209 164 145 255
3.306474296699946 -24.227987618703736 6.342323463574019 203 156 138 255
3.592871916673346 -22.550051331102622 6.018640139566173 191 144 126 255
3.560541817016968 -21.304671816424843 5.987868100845162 181 134 116 255
3.579055595926803 -19.983042524298497 5.910014105805232 170 127 106 255
3.595687769112089 -18.657978452562986 5.833595132604302 160 122 99 255
3.871632476807775 -16.960941062977014 5.517902178714650 150 116 89 255
