ply
format ascii 1.0
element vertex 655
property float x
property float y
property float z
property uchar red
property uchar green
property uchar blue
property uchar alpha
end_header
6.776755855393247 -28.265010981955115 6.806022826088281 205 171 148 255
8.163397761797796 -28.084628664898489 5.505773665952290 207 175 152 255
9.550402107063917 -27.914563512518569 4.205495520428030 204 174 150 255
10.937768918110464 -27.754810074724404 2.905188675858199 206 176 152 255
12.845757579066458 -27.812834384383279 1.124757076099598 211 179 156 255
13.639257988230014 -27.436307748325518 0.373076225749145 208 176 155 255
14.507314242019959 -27.095933953531087 -0.447202851898425 203 171 148 255
15.301253164865614 -26.731620017692549 -1.198906240858292 199 165 141 255
15.500529051915237 -26.127516503112304 -1.401904173010905 198 162 138 255
15.997347958667660 -25.649007212906852 -1.879256843139018 196 157 134 255
16.568686228771725 -25.205550020308422 -2.425201933163834 199 159 134 255
17.809670835909003 -25.050184762304951 -3.588484036493128 201 159 135 255
18.083825210112565 -24.490610755612096 -3.860068516069163 202 159 140 255
18.804500772904248 -24.125610374101342 -4.543215531334937 201 158 139 255
19.078883054247910 -23.571964902150654 -4.814792292054733 198 153 133 255
19.874321465819662 -23.248732800501941 -5.566541228049715 193 148 128 255
20.297808207920355 -22.767023825254526 -5.975306281119117 183 138 118 255
20.498090709171919 -22.189080835945020 -6.178268985227419 173 130 109 255
20.400634646851671 -21.479047430519572 -6.106818159615926 161 119 98 255
20.377634897071687 -20.802126552246222 -6.103947992912566 151 114 88 255
20.429119205056253 -20.159122579108612 -6.169661380818525 142 106 80 255
20.257198047847197 -19.413918604991878 -6.029545284376269 134 100 75 255
19.712812229578674 -18.495075871279667 -5.546378332346308 131 97 72 255
19.689796157012381 -17.815783272511212 -5.543418354648480 126 93 70 255
19.294261009773180 -16.961217434262352 -5.197399199673811 123 91 68 255
19.122197178154721 -16.209807410040483 -5.057172160185587 120 90 64 255
18.801061919558236 -15.386071203554067 -4.779697745060787 118 88 62 255
18.778005797447520 -14.703490690697478 -4.776634884077907 114 86 60 255
18.233162171912682 -13.767958820772890 -4.293261591689202 111 84 57 255
17.166339749843189 -12.573789924484345 -3.329551416085167 107 80 53 255
16.099278292391034 -11.371937677207953 -2.365781331307545 100 76 51 255
23.840859533478010 -6.031999350538527 -9.730664762883379 167 125 103 255
25.462115140282947 -6.262313348347263 -11.237149839625687 171 127 108 255
26.859665982129457 -6.381343750108755 -12.537755333228205 166 120 102 255
27.958715384380753 -6.345372331158359 -13.563830809302004 164 118 100 255
28.833879641146098 -6.192676472691787 -14.383998068907687 153 110 89 255
28.513544000383519 -5.377221071352963 -14.105915549121505 145 106 83 255
28.940578544259637 -4.980183509567112 -14.514206930251873 137 102 78 255
28.620226412884250 -4.162551568651566 -14.236043865920294 129 98 70 255
29.421225304167592 -3.981912612211374 -14.987509279308881 112 90 61 255
28.278440918005742 -2.691494590159863 -13.954157006042777 100 83 53 255
28.257079555924605 -2.040226546616609 -13.950443953266529 89 76 44 255
27.413079870126069 -0.910713025321968 -13.191544079173582 82 70 38 255
1.263183875657830 -28.914308027176702 13.008034504736600 194 165 135 255
3.237732940037375 -28.913053574714681 11.153510392845163 196 166 140 255
4.768216240596473 -28.758332068877110 9.711688537580386 197 166 143 255
6.150888716490357 -28.558440820263328 8.407418292228471 199 167 146 255
7.459809523572716 -28.340315064369165 7.171912767309919 204 172 151 255
8.769074954316324 -28.131971021957739 5.936380996262557 206 176 152 255
10.449351740837187 -28.078915210011473 4.356846297090783 204 174 148 255
12.574921529971448 -28.214566929670696 2.364496995500645 206 175 150 255
13.440458138839801 -27.862001843459495 1.541656562646608 209 177 154 255
14.083745007760967 -27.426217063024140 0.925199131537710 205 173 151 255
14.801380457131472 -27.025508053978953 0.239936222515723 201 169 145 255
15.222494244414662 -26.508415243185098 -0.170131784399103 199 165 140 255
15.643731028654514 -25.994584718470080 -0.580198538864551 195 158 134 255
16.510279626542172 -25.669970194610769 -1.403080146868092 193 155 130 255
17.673891738357781 -25.476901483936302 -2.501187816888830 197 157 132 255
18.912028471950975 -25.324014404395243 -3.668119437275408 203 161 139 255
18.888653150316429 -24.639653725107635 -3.665370120276663 205 162 141 255
19.310700947490119 -24.147729119523120 -4.075446956026013 204 161 143 255
19.807116803259134 -23.691379122520672 -4.554328245838832 199 154 135 255
20.674942246931352 -23.401862915407563 -5.377254034621700 195 150 131 255
21.097426371130183 -22.921506095210177 -5.787326192971193 184 139 120 255
21.520034696655785 -22.444364150381560 -6.197393403837481 177 132 113 255
21.422800112547264 -21.736464347133591 -6.125766719164204 167 124 105 255
21.548432033370347 -21.129068515969323 -6.260559713491119 159 119 96 255
21.525516320922748 -20.454781152101759 -6.257707466593786 153 112 88 255
21.651232422541085 -19.848912605105966 -6.392466863591949 146 108 85 255
21.108140366541392 -18.933528112369018 -5.907854711708495 137 101 77 255
20.936569665968989 -18.188171985949879 -5.767296600899243 134 98 76 255
20.690641625489917 -17.406621004214088 -5.557891947964407 131 96 74 255
20.742055134215263 -16.764633849193601 -5.623740394664281 127 95 70 255
20.198667861509819 -15.838420569083709 -5.138992083789987 124 94 68 255
19.803895686710746 -14.980045217665790 -4.791849204841014 122 92 66 255
19.557793749512598 -14.191122333707668 -4.582318252916195 119 89 63 255
19.014126575909472 -13.254886591213022 -4.097452195308904 112 85 58 255
18.991084635310870 -12.571423540166080 -4.094330775845492 109 81 57 255
18.298459850082537 -11.555402892531120 -3.471729933752471 107 79 55 255
24.333730707065769 -6.061861842879551 -9.279798243550374 164 125 102 255
25.653132551012078 -6.129574559656476 -10.515561200839954 171 129 109 255
27.718235805539479 -6.616858273835106 -12.439822698110049 172 125 107 255
29.038414241350665 -6.706364030596333 -13.675633218196197 169 120 103 255
30.060720456681992 -6.639216775978639 -14.636056164235924 158 113 92 255
30.188544472817483 -6.077601794442359 -14.770253185602343 150 109 87 255
30.912997618324852 -5.853532460951499 -15.455252302476708 141 103 80 255
31.041004208889149 -5.295728204270446 -15.589399582073042 133 98 71 255
31.392835252210716 -4.866633179524371 -15.930086606825455 121 94 67 255
30.551198468237232 -3.753450200881119 -15.169012010679040 111 89 60 255
30.007815186901581 -2.806687737345271 -14.683305078240664 97 80 50 255
29.762792973263259 -2.029603114043610 -14.472983479416797 88 72 42 255
29.293861725703721 -1.119379479412359 -14.056021527649875 80 69 37 255
0.112074272961991 -28.299045364333850 15.115884753700442 200 170 141 255
2.968759683698181 -28.624998745874279 12.427574601030102 201 169 144 255
4.865152473081707 -28.607770127883299 10.636243735038960 202 168 146 255
5.948759115246816 -28.293405095984369 9.603922168135256 203 167 148 255
7.624206140176142 -28.215732558827440 8.019535671219359 208 173 153 255
9.521950857316426 -28.237051443224559 6.228093735591330 208 176 153 255
11.642076810051009 -28.359787572695652 4.229587467137748 204 174 148 255
13.466865577085798 -28.380731882535954 2.507068959274051 205 173 148 255
13.516586365188459 -27.703706711767779 2.440745750927448 204 172 147 255
14.158259395151475 -27.266589926335101 1.822347194944655 202 170 147 255
14.726111739865019 -26.804178795222583 1.272955343136715 200 166 141 255
15.664168349580763 -26.498399024292439 0.378496546275443 197 162 136 255
16.232388011674743 -26.046027623514533 -0.170905360710293 195 155 130 255
17.318959283131505 -25.814972319463649 -1.203413838841641 193 153 128 255
18.405820853604382 -25.592029995974585 -2.235938541343103 196 154 130 255
19.492972754728669 -25.377195422896605 -3.268479186225733 199 157 133 255
19.469590166387633 -24.693354525136584 -3.265763010526626 203 163 138 255
20.186863255427909 -24.330281897075963 -3.953222314675571 203 163 139 255
20.533967349533896 -23.810863369299568 -4.295584147895738 199 156 137 255
21.325673535668898 -23.489834940596594 -5.052067434060035 194 151 132 255
21.598953440762671 -22.944513959040464 -5.325398689926573 186 141 122 255
22.168725672690329 -22.533957768650936 -5.874814300058603 179 132 114 255
22.442218556977991 -21.993979440245681 -6.148129174000616 176 129 111 255
22.641680285170366 -21.422425772659054 -6.352407065097537 166 120 104 255
22.396440116626025 -20.648639801376675 -6.142509058244769 160 115 97 255
22.447711450266070 -20.010135703344062 -6.208695604336413 153 110 91 255
21.979987389590121 -19.130555710956870 -5.791657550124029 145 103 84 255
22.179574755900546 -18.560678896947195 -5.995857332416648 142 101 79 255
22.008406243711050 -17.817109111112813 -5.854882966356939 142 101 79 255
22.356438921422892 -17.319617297423534 -6.197109928506535 138 102 78 255
22.036926467231410 -16.504439548730360 -5.918018634187320 134 99 75 255
21.346393376588964 -15.507709928186998 -5.293717059661816 130 97 72 255
20.952520493290393 -14.650538370436806 -4.945513933364424 125 95 69 255
20.855417803028047 -13.936161929272757 -4.873422980171455 119 89 63 255
21.352075970904622 -13.514503543025583 -5.353613539788114 116 86 60 255
21.255044803670586 -12.800979765017757 -5.281473390358173 109 79 53 255
20.267151984887988 -11.640240968625065 -4.380806792981133 101 74 48 255
25.495382325091697 -6.455913373773868 -9.450874993744691 160 123 99 255
27.406651062803462 -6.852262361324108 -11.242937000444073 172 129 106 255
28.797851920514461 -6.975445739985688 -12.551616220266197 176 129 109 255
30.189414807374732 -7.108710326654887 -13.860313983449629 174 125 108 255
30.986274179727388 -6.919644750502670 -14.616525898913096 165 118 98 255
31.634567125412389 -6.652657103215105 -15.234603981021422 156 114 92 255
32.431844147737536 -6.474489347736693 -15.990803306830827 146 106 84 255
32.708468429801769 -6.005463729184015 -16.263524637638341 137 101 75 255
32.464251932024240 -5.239856629838755 -16.052735722516132 131 98 73 255
31.773434931640139 -4.214851053794845 -15.427474249572214 122 95 68 255
31.305788840674126 -3.314189693031580 -15.009361060791520 108 84 56 255
31.284731795899319 -2.670684093530966 -15.005630566166587 95 77 47 255
31.263696296300225 -2.026852923431377 -15.001858222319782 85 72 40 255
30.125728238229073 -0.722643522986090 -13.961888340494880 77 67 34 255
1.106794715737493 -28.480842891871617 15.225835454099666 203 171 143 255
3.809353609364308 -28.753306285118697 12.667624614945225 204 170 145 255
4.890017483925192 -28.429193449177845 11.632103153690480 204 168 146 255
6.118498749714263 -28.169849842736099 10.458128638962279 204 167 148 255
8.158809612485413 -28.234018722590989 8.522733558668421 206 170 150 255
10.273434847586600 -28.342212243542306 6.518075236183620 206 171 149 255
11.798278685794145 -28.233244522253997 5.067130832596433 203 169 144 255
12.511715692213983 -27.812485291744792 4.377587730853548 204 170 145 255
13.077730236383161 -27.337867564600387 3.826481473878545 202 170 145 255
14.160641078891160 -27.077049846111336 2.790811267887136 199 167 144 255
15.391499978447598 -26.884746649521972 1.616676362869669 197 163 138 255
16.327335156746301 -26.579809207467420 0.719421446972575 194 159 133 255
16.968035455191369 -26.158991065691438 0.099059225643828 194 155 129 255
17.830484897938391 -25.836052152261573 -0.728987623569026 193 152 127 255
18.767035535295122 -25.550876171659070 -1.626271690824467 195 153 129 255
19.556090370899966 -25.209644991066895 -2.385107988366372 197 155 131 255
20.197593998820878 -24.810732874651663 -3.005489831879231 201 161 136 255
20.913171357356219 -24.448757787277685 -3.695104649707133 204 163 140 255
21.185531630353466 -23.898065374776607 -3.969327981674979 202 159 140 255
21.457980148854460 -23.349517169568671 -4.243541302397631 197 154 135 255
21.878359330727278 -22.868890803619195 -4.656213403675793 190 145 126 255
22.594585320155801 -22.524124799922944 -5.345821860162999 183 136 118 255
22.867373406792723 -21.984137190502125 -5.620011030547857 177 130 112 255
23.288147931343673 -21.513675502233426 -6.032664203381728 174 128 112 255
23.487174560747320 -20.944494382177368 -6.237592204966262 167 121 104 255
23.464370712190004 -20.274156430070477 -6.234784411755300 160 115 96 255
23.367606547955290 -19.569248820474016 -6.162712751939182 153 110 91 255
23.196854783214036 -18.828954560909452 -6.021373172991986 151 109 87 255
23.618040170586568 -18.367933598158729 -6.433954557345459 149 107 85 255
23.447321653562852 -17.627493199723176 -6.292566932359279 144 106 83 255
23.794674405231319 -17.135044176255221 -6.635871784473039 139 103 79 255
23.475936633028510 -16.322432984996681 -6.355938140722941 136 102 77 255
23.601330858179381 -15.724368728646056 -6.491459209514915 131 99 74 255
23.060415543783904 -14.799638953238357 -6.003711789383942 126 96 70 255
23.704183178465058 -14.457817516582253 -6.623933288702517 121 91 65 255
23.163194457070318 -13.529613340485028 -6.136115730692353 116 86 59 255
22.844299893036833 -12.709145372440233 -5.856012056444655 108 81 54 255
21.414197708178563 -11.324072484360059 -4.537050348661296 105 79 50 255
20.428284664030400 -10.155119293727680 -3.633545422971423 101 76 47 255
27.098678169798575 -7.092863819404286 -10.041809826695214 157 119 95 255
28.708911771519723 -7.330664293290738 -11.562321797921527 174 128 105 255
29.948589760590664 -7.375120898206745 -12.736499090797281 177 131 109 255
30.965984003486795 -7.304722181806326 -13.702867408134182 175 128 110 255
31.686800867637260 -7.075462263095886 -14.392138638181905 167 120 102 255
32.556261589041213 -6.935037112131795 -15.219954049941776 162 115 97 255
32.980576046727663 -6.548277704487404 -15.632098340113089 156 109 91 255
33.701977280435301 -6.333995512604687 -16.321339408692126 147 100 82 255
33.161356624615252 -5.399928574542713 -15.832792957884209 133 100 75 255
32.843404622799255 -4.590503827918397 -15.552031971217588 127 97 71 255
32.673935778723518 -3.864972825745809 -15.409785302923893 117 90 63 255
33.692856276443422 -3.833422446172605 -16.376062293319023 101 81 51 255
33.449219457017051 -3.065701409561612 -16.164455831293623 88 72 42 255
32.536915064841423 -1.899942839690297 -15.329195138121264 83 68 36 255
31.624420165712479 -0.727285372977533 -14.493850712711890 73 63 31 255
2.319786828637120 -28.745224929307355 15.124495432777735 202 171 145 255
3.838895484223286 -28.576314044712745 13.669214975857784 205 171 146 255
4.843323187540022 -28.222590201133215 12.699902681642214 204 168 146 255
6.436764560250197 -28.102921858196524 11.175139592576301 202 165 146 255
8.398637303847323 -28.138068596281784 9.303193504294029 202 165 145 255
10.581858492260864 -28.274390361247882 7.222912523560041 204 168 146 255
11.661340822681666 -27.990263434705042 6.184068935539301 202 168 143 255
13.182893827438676 -27.890589011323144 4.728608972448711 203 169 144 255
13.526622344733255 -27.327832866341737 4.384068954605993 200 168 143 255
14.754238399640826 -27.126903555610809 3.206309671873697 197 162 140 255
15.908525309438289 -26.904993131774859 2.097966972757376 196 162 137 255
17.136789412316233 -26.722215059038575 0.920169603421499 193 157 131 255
17.849647834758542 -26.333497270002297 0.228421406290636 194 154 129 255
18.489019605695631 -25.919190881111476 -0.393891860004118 194 152 128 255
18.907487297889816 -25.415930775325293 -0.807885908601179 197 152 129 255
19.473488418677590 -24.979005617618427 -1.360758101321039 197 153 129 255
20.629359058565882 -24.800920989230875 -2.469169139785464 200 158 134 255
21.490649602895417 -24.503132405528603 -3.299821505069303 204 163 139 255
21.836053476069907 -23.985327726795035 -3.644368386429420 203 160 141 255
22.034082390626281 -23.404956133979383 -3.850015316787733 201 158 139 255
22.822184708649331 -23.089346152994352 -4.611222842943789 197 152 133 255
23.094188334494334 -22.547491374974925 -4.886298957235056 187 140 122 255
23.440050141840402 -22.041199383057190 -5.230811787408328 183 136 118 255
24.007353987717266 -21.638686794508743 -5.783664217112999 179 132 116 255
24.648608462430559 -21.274427360854915 -6.405963483375132 173 127 110 255
24.699673520234882 -20.641009560153009 -6.472642089398676 167 122 103 255
24.676967893591069 -19.973558042874842 -6.469846349247547 164 120 101 255
25.097167837570794 -19.514763169774582 -6.883754081994852 158 116 94 255
25.443671014416054 -19.024084330454812 -7.228195497344302 152 110 88 255
25.273451167275965 -18.288740615380306 -7.086425503361312 146 108 85 255
25.546266031675685 -17.765818645889368 -7.361373439710945 143 105 82 255
25.745320465495439 -17.209101882141880 -7.566845391924602 139 105 80 255
25.944447806061845 -16.653911199739966 -7.772297683254266 136 102 77 255
25.552690151803461 -15.808968511542062 -7.422036867873572 131 99 74 255
25.456375202000686 -15.107928416493593 -7.349587173874710 129 98 70 255
24.916732614106394 -14.184529675427996 -6.860321939849001 122 92 64 255
24.746467089079090 -13.443320611311663 -6.718336431659651 118 88 60 255
24.206653163737826 -12.513439919775053 -6.228983024127018 115 86 58 255
23.666731375138852 -11.579628848158393 -5.739581080948938 108 81 52 255
28.548499759491961 -7.649006343860435 -10.500568022031757 149 111 87 255
29.859045654998909 -7.727679487112368 -11.747830794993831 177 130 107 255
30.947865744486194 -7.692847440414397 -12.786654788972101 177 130 108 255
31.740845893116528 -7.500772789525186 -13.547541576149854 178 131 111 255
32.682129679879552 -7.397547532212386 -14.447395471113595 173 126 106 255
33.697719960242495 -7.342966043777992 -15.416736755874041 166 119 99 255
34.047044854068446 -6.916800941949830 -15.760670147634983 158 111 91 255
34.470550592266363 -6.535458845696979 -16.174069554994873 148 101 81 255
33.931175437309804 -5.602671393964783 -15.684036687845747 138 101 78 255
34.280738364994249 -5.180826750367757 -16.027875163154249 133 98 74 255
34.408126794252638 -4.631823811041613 -16.163198105886607 126 95 69 255
34.535574166331685 -4.083598560034957 -16.298483986217775 109 83 56 255
33.996059698339735 -3.142490617143068 -15.808237875030187 94 73 44 255
33.530566726401986 -2.241239606576912 -15.387425076583980 87 69 37 255
32.990859903790152 -1.292081103855608 -14.897044078732932 78 66 34 255
2.821382605234589 -29.486785782671930 15.712612818241723 197 175 138 255
2.868786328222768 -28.762269141015977 15.645617924705533 200 170 144 255
3.576847587251279 -28.288262555316507 14.951874120101223 204 171 146 255
4.138282018795792 -27.763654241636246 14.397403482232278 204 168 146 255
6.535421359995667 -27.951108003454948 12.101888293015037 202 165 146 255
8.419170559854734 -27.956413269677299 10.293819641890821 199 162 142 255
10.229976209789072 -27.946974304049959 8.555356690433172 198 163 141 255
11.233313112953880 -27.630798269622588 7.582948042066050 199 164 139 255
13.118431749436127 -27.674883685756058 5.774779254680766 200 166 141 255
14.195895442255107 -27.406817622795799 4.732684958260592 199 165 140 255
15.567561815938774 -27.266601450926316 3.411985532730085 196 161 139 255
16.351699237312630 -26.895092643593784 2.648451368405802 196 160 136 255
17.209550817149619 -26.560018240388743 1.815261289679512 192 156 130 255
17.553100398615129 -26.016275666751213 1.469616792290140 194 152 128 255
17.896756796605786 -25.475247583748882 1.123978888412324 195 151 128 255
18.755188769753175 -25.155879734489318 0.290780212052795 197 152 129 255
19.760924478175326 -24.906095169154554 -0.681732433866159 196 151 128 255
21.649445707413264 -25.045698312517771 -2.490111135805051 197 155 131 255
22.067426012727054 -24.557559543801872 -2.905411848921602 203 161 139 255
22.411971385378621 -24.040290372953578 -3.251049071099800 202 159 140 255
22.977335739816567 -23.623592068072639 -3.805650265873396 200 157 138 255
23.763602434321086 -23.309890367883725 -4.569224553153106 198 153 134 255
23.961377463192264 -22.736746492971079 -4.775522013488086 192 145 127 255
24.012027857863671 -22.098309427028624 -4.842482320296796 188 141 123 255
24.725178691188233 -21.763760694345180 -5.536381538979441 185 138 122 255
25.732996490188270 -21.570489373295445 -6.508932819375588 179 132 115 255
25.783954768991379 -20.939478415787661 -6.575855648522150 173 128 109 255
26.055853257160095 -20.412511147920071 -6.851753164643725 168 123 104 255
26.106910338884830 -19.783269313794293 -6.918635472407885 163 118 97 255
26.747229694640538 -19.434985636408726 -7.542836738024306 154 112 90 255
26.577445010880837 -18.702845761104470 -7.400675348165635 149 108 86 255
27.070686455253337 -18.289956468773411 -7.885513382127982 143 105 82 255
27.490393756804053 -17.844890454248002 -8.300669678488106 140 104 80 255
27.983919472233765 -17.439115525173548 -8.785485073274657 138 104 79 255
27.372105500307896 -16.490828845224570 -8.225185041725695 134 101 76 255
27.276122019747419 -15.794888588804085 -8.152560638543406 131 100 72 255
26.664117981450175 -14.839611086462213 -7.592172061772914 130 99 71 255
27.010432105169201 -14.363800236477161 -7.937538120808796 124 94 66 255
26.840708017840967 -13.628095860224136 -7.795136099413781 121 91 63 255
26.597222950533222 -12.853402665301147 -7.583017726062252 114 84 56 255
25.247396352276638 -11.506383544979300 -6.325643671246638 113 83 55 255
24.044789052980661 -10.226073699672014 -5.207555000243389 106 76 50 255
22.325508275068159 -8.666878971679978 -3.601605311310237 103 72 46 255
29.033682287798143 -7.679063952418417 -10.059252966076372 133 97 73 255
31.005765193473280 -8.124778760789994 -11.937581251289004 171 124 104 255
32.313677056752368 -8.215742154540820 -13.188683510836540 180 134 113 255
32.809449932993914 -7.862030577824768 -13.673126155567985 182 135 115 255
34.044084696917196 -7.927516741008631 -14.854538576815429 178 131 111 255
34.835766006881443 -7.750974285001746 -15.617758192065878 172 125 105 255
35.332110781249526 -7.411718304267524 -16.102161922079773 164 117 97 255
35.015724148237069 -6.609812730598037 -15.819807107561161 153 106 86 255
34.699289573009281 -5.805444829304250 -15.537397520057283 145 104 82 255
35.343716287177955 -5.556633145617383 -16.161117526476175 135 99 75 255
35.988327715164843 -5.312424280350157 -16.784821896221473 129 96 71 255
36.189520426539019 -4.811987591418855 -16.990251927861493 113 86 59 255
35.281649007495957 -3.656712556153025 -16.149975984881735 100 76 48 255
34.743347318111148 -2.714636445946326 -15.658179757629057 94 72 42 255
34.130985767541432 -1.724102396836244 -15.096598668299777 81 67 33 255
33.740415942841310 -0.862529057411763 -14.744091820387894 69 62 28 255
0.441665862563241 -28.414441865118633 19.027529948450251 198 168 140 255
2.904853960688826 -28.586873179797436 16.655233347540758 201 169 145 255
4.343439070702345 -28.388971415486694 15.260812200797602 204 170 149 255
4.757028613746371 -27.809378710118182 14.844306384506439 202 167 146 255
7.075264208620410 -27.969170939141378 12.611599151036501 201 164 145 255
8.661507814966626 -27.860504384484287 11.077392303101391 197 161 139 255
10.248174535085894 -27.763778907676524 9.543156409401917 194 159 137 255
11.175754820196317 -27.416896153080614 8.637602954409971 196 162 137 255
14.009082792557138 -27.841261661732602 5.915736579860351 197 162 138 255
14.864118749298996 -27.485869825654859 5.079994932657343 197 163 138 255
15.939312000100358 -27.226789623284844 4.034665756467717 195 160 138 255
16.501585417888123 -26.764426798889446 3.478347634407584 194 158 134 255
17.210672404241166 -26.367352986347385 2.782306487977365 191 154 129 255
17.773290124494395 -25.914214708757498 2.225987578721373 192 150 126 255
18.262726984353236 -25.434398552290460 1.739533671257476 195 151 128 255
19.559194668450232 -25.302479333629577 0.484571763334145 197 152 129 255
20.709286333016280 -25.117181328104522 -0.630676818471812 195 150 127 255
22.079805497250902 -25.035992416199164 -1.955539448631640 197 155 131 255
22.496737989461877 -24.547852552151241 -2.372140555921902 202 160 136 255
23.133968361897331 -24.160029729522961 -2.998340597274165 202 159 140 255
23.697981638928695 -23.744417284054194 -3.554669013279664 200 157 138 255
24.482385668095134 -23.431812541433814 -4.320605970661376 198 153 134 255
24.753082705797851 -22.892907318992314 -4.597440582730229 195 148 130 255
25.023870289175989 -22.356127915207992 -4.874261475402733 190 143 125 255
25.735368059845001 -22.023751286139344 -5.570313121959913 187 140 124 255
26.447067468545328 -21.696731531497974 -6.266363122150238 183 136 119 255
26.644783557453422 -21.135283883214399 -6.473276543747858 178 131 113 255
26.769108336103784 -20.540874358980645 -6.610294519448786 171 126 107 255
27.260854912174949 -20.121454433426564 -7.096684759988733 166 121 100 255
27.973196208295633 -19.810942449883854 -7.792704220946291 160 115 94 255
28.171297113946196 -19.258412091332758 -7.999553887803984 154 112 90 255
28.369471741142974 -18.707420143499945 -8.206383454720907 147 106 84 255
28.567720306290710 -18.157960296160667 -8.413192360264929 144 106 83 255
28.545485126285087 -17.501586422118322 -8.410326849700368 141 105 81 255
28.155627125268808 -16.663023503401291 -8.058004446101705 138 104 79 255
28.059847786333819 -15.968394952521621 -7.985187556930498 134 103 74 255
28.037616955196540 -15.310065389651839 -7.982225887328667 131 100 72 255
28.236074052720284 -14.763296969336764 -8.188900889054111 130 99 70 255
27.993216581982580 -13.993022949468909 -7.976208692773241 127 96 67 255
28.044621695617678 -13.372065478479172 -8.043043526083608 120 89 61 255
27.065901398266277 -12.218926939861817 -7.131345596558560 121 90 61 255
26.307742973589143 -11.173526084531488 -6.429263343875959 117 86 58 255
25.475823298518890 -10.083959376062666 -5.657224813652618 108 78 50 255
25.085388879592415 -9.221380824390195 -5.304503262162143 103 76 47 255
29.739515216748998 -7.830572942230418 -9.828080154094124 116 82 58 255
31.928049343911425 -8.399701595696314 -11.921853377285231 162 118 97 255
33.232954662032199 -8.492595630364917 -13.176776671169904 177 132 111 255
33.801290331473297 -8.182063738138865 -13.732617236289428 182 135 115 255
34.885698509205355 -8.166611759028171 -14.777816281801023 181 134 114 255
35.749270911802142 -8.033539133361046 -15.613280933073327 176 129 109 255
36.391926699855276 -7.780392467968511 -16.238997660597732 169 122 102 255
36.076309485099245 -6.980866192023043 -15.955798338943936 159 112 92 255
35.981854833246274 -6.306849740400608 -15.882293963092138 151 109 87 255
36.108643471975370 -5.760784435799323 -16.018497641039716 142 104 81 255
36.678018999602614 -5.474721284768961 -16.574183204800448 133 99 74 255
36.731219521744862 -4.888382250040678 -16.640396357841610 119 89 63 255
36.120513935042112 -3.908533197715030 -16.077255925609251 107 80 53 255
35.878597139848324 -3.144089278851368 -15.863666822557633 97 73 44 255
35.267703640834384 -2.156190187707537 -15.300386014474583 86 69 36 255
35.025688589062923 -1.386401508985017 -15.086670812882232 75 65 30 255
1.508249318477937 -28.621828985482693 19.066030567900441 202 172 144 255
3.819564259851347 -28.741528409409781 16.826594752424825 205 170 148 255
5.620061394608797 -28.684178758439245 15.077561350679247 206 171 151 255
6.982614785627248 -28.472142173554872 13.748884882502182 202 167 147 255
8.418615738589779 -28.298749990004268 12.350119062076573 197 160 141 255
9.343378071410712 -27.936129385905943 11.441798613771340 194 157 135 255
10.560790649575637 -27.696005156713483 10.253194754002493 193 156 130 255
11.778533814350652 -27.465113886276910 9.064572693844582 193 156 130 255
13.508428824222079 -27.449217774040619 7.385442859149919 197 159 136 255
14.800025409063892 -27.268333249166403 6.126707843394172 194 158 134 255
15.945699565071806 -27.037334694809147 5.008097592719565 194 156 135 255
16.579669063378049 -26.603566826252887 4.379982732961423 196 158 135 255
17.286975139631352 -26.205159245617025 3.681793190822987 194 154 130 255
17.994482009898547 -25.812171183546852 2.983601340283826 191 149 124 255
18.482670253875028 -25.331548858744924 2.495635184182902 193 151 125 255
20.068741221537124 -25.324010171834743 0.956520826511706 194 152 125 255
21.069702181145630 -25.075906763029394 -0.021995799998962 195 154 126 255
22.510145156008406 -25.026322735881010 -1.420994426971617 197 156 129 255
23.072451079346536 -24.602374286922796 -1.979054980519749 200 159 134 255
23.781360705092851 -24.247467453815659 -2.677273178905807 200 159 138 255
24.124327669965822 -23.734758842000829 -3.025081020415172 200 158 137 255
24.687118282962132 -23.323448058589989 -3.583126525617729 202 158 139 255
25.323321252586680 -22.949606480706962 -4.211250536818000 199 154 135 255
25.959707837096659 -22.580591741970352 -4.839370671821314 193 147 128 255
26.596278162270806 -22.216398440285829 -5.467486523817172 191 144 128 255
27.159757260038418 -21.823033250662348 -6.025510385599006 187 140 123 255
27.137127410993713 -21.159873083454414 -6.022819755002047 183 136 118 255
27.480983418991144 -20.669295236171138 -6.370551269074497 178 132 113 255
27.898252768428051 -20.216153069670810 -6.788358511040201 172 127 106 255
29.122082544169245 -20.151941604707346 -7.977161903760759 165 120 99 255
29.539711561202353 -19.708110864424881 -8.394954895187681 157 115 93 255
29.664148800601993 -19.125001516873809 -8.532357725748255 152 110 88 255
29.421944836809502 -18.363482407497429 -8.319260766384161 146 107 84 255
29.399751583927269 -17.708695036357113 -8.316416847975461 143 106 82 255
29.377578427967705 -17.053803367255554 -8.313543146828010 140 104 80 255
29.795627396415910 -16.618950444936388 -8.731231586790130 135 103 75 255
29.846926271805046 -16.002415027808993 -8.798403496080908 131 100 71 255
29.898264346965306 -15.386295666659834 -8.865546063138169 132 101 72 255
29.435881410995535 -14.508059835420397 -8.441941499049420 132 100 71 255
29.413831410087624 -13.853081288708424 -8.438910917771381 131 97 69 255
29.098152955366174 -13.045774077041912 -8.155426495531202 126 93 65 255
28.709002191535319 -12.197828135776078 -7.801790879989113 122 88 60 255
28.319783018215134 -11.347009013694176 -7.448106826174978 118 86 58 255
28.664894259455167 -10.881888567959663 -7.795461918826959 112 81 53 255
28.128732437990493 -9.949748415873373 -7.301471011262606 104 77 48 255
30.884945484015105 -8.225029075700476 -10.019308064413281 107 67 45 255
32.774439989506874 -8.633923096029520 -11.838976360191680 134 86 66 255
34.296866659522635 -8.851562611706626 -13.308078248895413 168 123 101 255
34.863921306549003 -8.543460429552837 -13.865621456535933 179 133 110 255
35.578204619178308 -8.322604286659057 -14.563391514508879 182 136 113 255
35.998536130122375 -7.939549468461195 -14.980650982151218 182 136 113 255
36.713192352248285 -7.727962005812387 -15.678388371210502 174 128 105 255
36.545369500924949 -7.012869970301807 -15.534583317182040 169 123 100 255
36.598234151074962 -6.424389594016759 -15.601113944683590 157 111 91 255
36.724717334729746 -5.879094335403821 -15.737732461232582 147 103 82 255
37.513515789240188 -5.723449285592054 -16.505499828389446 141 101 79 255
37.640202856483512 -5.182173158208698 -16.642051828225078 126 93 68 255
37.325342951994003 -4.379149712046484 -16.357750305479470 115 85 59 255
36.936828419709173 -3.529583570023590 -16.003249868476161 103 77 48 255
36.621871580341463 -2.721241079003207 -15.718821800231837 91 72 40 255
36.380499444254326 -1.954929517840483 -15.504470043113230 81 68 34 255
35.255458614388999 -0.648458865911920 -14.448351184467583 71 59 24 255
1.697606150994716 -28.502482077352042 19.944388715951419 203 172 144 255
3.857620237044642 -28.566189809426547 17.838675255724922 209 174 152 255
6.601331269289915 -28.868406539161782 15.170705711835097 209 174 154 255
8.835468743886764 -28.994892946793428 12.994621621964512 203 168 148 255
9.757836319050881 -28.628466201203366 12.083505669781971 194 157 138 255
10.315867915530021 -28.126177628536936 11.523775922051300 191 154 132 255
11.967978725675636 -28.061143059496359 9.909840240247803 189 151 128 255
13.109973192701091 -27.804680791521065 8.787844859433932 191 154 128 255
14.471119701822175 -27.645102330429907 7.454987773417940 193 155 132 255
15.686723433814933 -27.436487659966858 6.262676619128115 189 153 129 255
16.683763318799294 -27.147271043038899 5.281201555802909 192 154 133 255
17.316206572215918 -26.714596679138978 4.651141718944984 194 156 133 255
17.802864826538041 -26.225846456364152 4.161653894538006 195 155 130 255
18.800620256426043 -25.956143385199312 3.180161291926623 190 148 123 255
19.360637317265684 -25.507895057252966 2.620387756070016 192 151 124 255
20.504912591463324 -25.314295951579453 1.498305675139989 194 153 125 255
21.357417319694207 -25.003100733682317 0.657371387584419 193 152 122 255
22.575312757781973 -24.857536335690611 -0.535021623728426 194 153 125 255
23.428342430233187 -24.560644119182214 -1.375968189477732 198 156 131 255
23.989416027919901 -24.140737499945686 -1.935745764724402 199 158 136 255
24.112306109747635 -23.529287751554008 -2.073753527923685 200 158 136 255
24.819789710211836 -23.182180757070967 -2.774103554972413 201 158 139 255
25.965935994324099 -23.039532751352013 -3.896228109655624 199 156 137 255
26.893138395646133 -22.805139440090315 -4.807471084705412 198 153 134 255
27.308933084141700 -22.341677578337709 -5.226629607085698 195 150 131 255
27.944170050261221 -21.983385318732502 -5.856674157997588 191 146 127 255
28.067796344367736 -21.390068672993706 -5.994609745083181 188 143 124 255
28.483969690929399 -20.935902094922582 -6.413729698617317 181 136 117 255
28.900272707585032 -20.484912598420536 -6.832836163385451 179 134 115 255
29.901835644968742 -20.317678116432589 -7.814358722081579 170 125 107 255
30.318472108991159 -19.875188246032153 -8.233445803478332 163 120 103 255
30.223121183495749 -19.186562090693613 -8.160375774094319 155 112 94 255
30.054603195365019 -18.461419541690603 -8.016967022445954 152 109 90 255
30.178780956453437 -17.879715539003982 -8.154757113275053 149 107 86 255
30.668951955074505 -17.481114392281256 -8.644068988774251 148 106 84 255
30.939683243371064 -16.976102089176194 -8.922434030117216 142 104 80 255
31.137303557387298 -16.436169732297458 -9.130464822316156 138 102 77 255
31.115356489455280 -15.786024739956744 -9.127530811126888 138 103 76 255
30.873760114916934 -15.023223809440410 -8.913620282236792 136 102 75 255
30.778596902049600 -14.334215091150227 -8.840299527584818 133 102 73 255
30.683437987281252 -13.644516840332500 -8.766941438003045 131 99 70 255
31.101041089580036 -13.222363083200676 -9.185772600270610 127 93 65 255
30.932695261458861 -12.494567637856562 -9.042027061779862 122 88 60 255
30.984144182907272 -11.882103942463544 -9.109201713003586 121 87 59 255
30.889078371895266 -11.191736538021658 -9.035697017203006 116 85 56 255
30.867305808717163 -10.540044124584938 -9.032474613143705 116 85 56 255
29.819407871507366 -9.332693584587702 -8.044665436735698 114 84 58 255
28.551365095007839 -7.997698967949120 -6.845799165104268 114 83 58 255
29.482474694719485 -7.859822456834991 -7.756672152663697 118 83 59 255
31.660343795261809 -8.417116375755597 -9.863132544127097 69 29 8 255
33.838779143523084 -8.990476895451920 -11.969635798800823 92 47 26 255
34.697633019124254 -8.841298307046259 -12.810209170427413 141 93 72 255
35.263326303520444 -8.533178036256274 -13.369441131163398 171 123 100 255
35.682470115865669 -8.146002275889330 -13.787983407291279 182 134 111 255
36.321852849394787 -7.887379620360349 -14.417508200354888 186 140 116 255
37.108177792611343 -7.717630732532768 -15.187690906639403 184 138 114 255
37.674566947953224 -7.426413252700399 -15.746843661466869 174 128 103 255
37.874149333133460 -6.925937088481817 -15.954270443336952 163 116 96 255
37.927003702312902 -6.340924256778564 -16.020974756004421 154 107 87 255
38.126729132156015 -5.842576602830036 -16.228322786691393 142 99 77 255
37.959425386901103 -5.128130372074224 -16.083903439236224 133 94 71 255
37.718682848443109 -4.368512022368606 -15.869080911510366 123 87 63 255
37.551354733644928 -3.650952174997173 -15.724547309236613 108 79 51 255
37.751262396340962 -3.153473880603386 -15.931709516147151 97 75 44 255
37.951251696015333 -2.657280919760382 -16.138830054174576 85 69 36 255
37.122794953190009 -1.534453841336557 -15.360950083163658 77 63 30 255
3.051507319594975 -28.819008548296381 19.696607583124404 207 173 145 255
4.770215119878372 -28.720989693143650 18.007404495736523 210 176 151 255
6.998421537796332 -28.830483413883826 15.824747962118010 211 176 154 255
9.009035635727003 -28.872643119788862 13.853517533552576 203 168 147 255
10.365543981419563 -28.675098556460469 12.516665974795842 195 158 139 255
11.576926386397759 -28.430692555274973 11.320776756039294 190 152 131 255
13.443452746280428 -28.455285047616229 9.490437668126390 186 148 125 255
14.218985515917893 -28.056983278647266 8.717467671935509 190 152 127 255
15.213064896354240 -27.752873720706987 7.733009481731102 190 152 129 255
16.280205294501911 -27.486037013245024 6.678045850051717 186 150 126 255
17.202051951986306 -27.167449002467151 5.764063235146722 190 152 131 255
17.760138016208089 -26.704843524009775 5.202559433272967 190 152 129 255
17.954323658348983 -26.094163155658677 4.993549203394849 187 147 122 255
18.949626138759953 -25.823409014113793 4.009061014603475 181 139 114 255
19.581047289233027 -25.405110155799221 3.377065488317072 188 147 120 255
20.358334098340464 -25.054266816007967 2.604069937384367 194 153 125 255
21.208692354317066 -24.740930596877220 1.760571016392049 194 153 123 255
22.423588299827685 -24.593243622369727 0.564553829655438 194 153 125 255
23.055866517284215 -24.197896088951197 -0.067443136327910 195 154 129 255
23.688329161626910 -23.807395363725149 -0.699436145081137 199 158 136 255
24.320976400640859 -23.421736156479781 -1.331424742851908 200 158 136 255
25.391188489435393 -23.238402330853162 -2.386451375576399 200 157 137 255
26.826226419830562 -23.229066852650419 -3.794026121208930 199 156 137 255
27.678331402292628 -22.962859347603413 -4.637544371356626 200 155 136 255
27.801432396611347 -22.365838766013724 -4.775960013992943 197 152 133 255
28.435125081248032 -22.007819831325222 -5.407933863538432 195 150 131 255
28.996060206449130 -21.620344352563890 -5.969388395607211 193 148 129 255
29.484210214651114 -21.202596007843610 -6.460319927286491 185 140 121 255
29.680663442244793 -20.649338544864150 -6.669180789712129 183 138 119 255
30.242044864342830 -20.273014465432013 -7.230598946656755 176 131 112 255
31.022533188765522 -20.006978711840617 -8.003556922798623 170 125 106 255
31.000365413455398 -19.355011279893148 -8.000812254742470 164 119 100 255
31.124214757375427 -18.774728104724787 -8.139075884664607 160 115 96 255
31.394136611074259 -18.267745434400283 -8.418354075654804 154 109 90 255
32.029235825451849 -17.944967522502068 -9.050217777556327 153 108 88 255
32.299393189017906 -17.443448909879748 -9.329457257982227 149 104 81 255
32.350541193143329 -16.833065222614792 -9.397101910070518 144 102 78 255
32.474773673085934 -16.260338182007501 -9.535240701297113 142 102 76 255
32.818224524225826 -15.801096608495996 -9.884929343514017 140 104 77 255
32.504229400517886 -15.004378967401848 -9.599847184257584 138 104 76 255
32.555541177545933 -14.395614485456079 -9.667363722908590 136 101 74 255
32.899216386245257 -13.940534250203811 -10.016967037776936 133 98 71 255
32.877558635300829 -13.295023827847515 -10.013889040064441 131 95 69 255
32.563530473991307 -12.493876916504135 -9.728642325729993 129 95 68 255
32.468777159632879 -11.807795278915975 -9.654948687412428 126 92 65 255
32.739614183444274 -11.318028553287959 -9.933890032590483 124 93 65 255
32.791171270700858 -10.711196511638818 -10.001191798439152 123 93 66 255
31.818884016171978 -9.545382318740238 -9.080921528959209 124 91 65 255
32.382408867843623 -9.216981422591459 -9.641903535831801 124 88 63 255
33.531327211020795 -9.216660736995323 -10.767192951170301 121 81 58 255
34.753722017117667 -9.265569919299040 -11.963027110974537 97 53 31 255
35.171569352260178 -8.872063903845458 -12.382884669055642 83 38 15 255
35.955450477043826 -8.688125475126412 -13.155441885151788 131 85 61 255
36.519989296043548 -8.385172210389285 -13.716346453266851 179 133 109 255
36.865105077848568 -7.960749778593197 -14.065584666330153 183 137 113 255
37.649578173801189 -7.791537177770124 -14.838090596179569 186 140 114 255
37.994981177167631 -7.373646862521198 -15.187275486674253 182 136 110 255
38.633399617160734 -7.128878537571012 -15.818640034449459 174 127 107 255
38.612904515029697 -6.502229885155302 -15.814994425293804 159 112 92 255
38.738922398044224 -5.961709836178059 -15.952412041208220 150 103 83 255
38.498747550077496 -5.204522210629165 -15.736997758129775 139 97 75 255
38.478328757882764 -4.576659273361386 -15.733201086615537 129 88 66 255
38.384669905226446 -3.904427027411927 -15.658791844488519 116 85 57 255
38.730690270774062 -3.497154321267175 -16.007703277363191 105 80 50 255
38.930255133005915 -3.003096970153948 -16.215449697983331 90 70 38 255
38.616833652046552 -2.196327769534108 -15.929189105211293 80 66 34 255
37.863545349591561 -1.116217678488070 -15.219451702198967 68 60 30 255
3.484771095681936 -29.540136784658188 20.360318073053435 189 185 139 255
4.763921107847978 -29.271894821746031 19.090189741241460 209 175 147 255
6.115960768847231 -29.040970906069305 17.749341183820661 211 179 154 255
7.758564030554425 -28.931525890477019 16.125666692012885 212 178 153 255
9.474169971374209 -28.862631818934247 14.431262221290325 204 169 147 255
10.827403013835749 -28.665140076950266 13.090343219286439 194 157 138 255
13.269656182339304 -28.906908959722443 10.688846304090418 187 149 129 255
14.841527895557988 -28.820708412962802 9.135759816625097 184 146 125 255
15.760467001236947 -28.484213546624474 8.218999667578544 189 152 128 255
16.316639877054911 -28.007749616220693 7.655764557411572 190 152 129 255
16.800362925321167 -27.505965661441849 7.163238720080926 186 150 126 255
17.502102358989305 -27.097833911274293 6.458591685067603 183 145 124 255
18.058778316366869 -26.634695576729243 5.895362523323371 183 145 122 255
18.325050575504065 -26.053950153637274 5.614978064500775 185 145 120 255
19.027322628741047 -25.659924758208916 4.910337403381448 184 144 118 255
19.729797567457126 -25.271311774184596 4.205697359423596 185 146 118 255
20.650486118136627 -24.981999185186282 3.288918769362368 191 150 122 255
21.426074835537236 -24.636573869339017 2.513564264776790 195 152 123 255
22.419951999239828 -24.392599801599602 1.526064272257827 195 151 124 255
22.977918528287859 -23.963529595438260 0.962855775038008 193 152 125 255
23.317929390997421 -23.441630114253343 0.611805642800135 196 156 131 255
23.948918016364587 -23.053004096819393 -0.022103780150360 198 156 132 255
25.307351850220641 -22.998400551793779 -1.363199363216097 197 155 133 255
26.884362557244600 -23.053597751573506 -2.916469958605063 198 156 134 255
27.952588375716374 -22.886431484207876 -3.974712080167791 199 154 135 255
28.511834740122936 -22.491222142590502 -4.537903618826988 196 151 132 255
28.998485501789673 -22.066287010887038 -5.030362339461760 196 151 132 255
30.140235682292911 -21.953508624663939 -6.159329136150916 195 150 131 255
30.481704929885325 -21.469375799359511 -6.510321975327059 192 147 128 255
30.750495933516447 -20.953067932695120 -6.790570895428857 188 143 124 255
30.728181459032697 -20.298525469634953 -6.787888791580372 180 135 116 255
31.215551825954947 -19.891361662948029 -7.280279157391561 177 132 113 255
31.411798800411162 -19.345410319630162 -7.489735071399878 171 126 107 255
31.826604988333628 -18.908665186802310 -7.911360323490868 164 119 100 255
32.314379856849996 -18.511229142279902 -8.403700116861415 156 111 92 255
33.020842877645862 -18.226774270050825 -9.108224414191312 155 110 91 255
32.998960996834057 -17.580580220211687 -9.105392858453484 154 108 85 255
33.560015350843884 -17.230062614753280 -9.668414594564979 149 104 81 255
33.465378797507583 -16.548543059416929 -9.594787765532686 145 104 79 255
33.808042068710677 -16.091444315703242 -9.945553323011836 142 106 79 255
33.276120819211997 -15.183471850036398 -9.447421023830799 139 105 77 255
33.618904463362213 -14.728250876204342 -9.798124331462816 138 103 75 255
34.107623032421060 -14.352240596014099 -10.290287243475802 138 101 75 255
34.158979899065855 -13.748263549913858 -10.357970001521977 136 100 74 255
33.554027656986591 -12.794821759808144 -9.788914606075565 132 98 71 255
33.605389041978981 -12.189139511975867 -9.856512619608594 130 96 69 255
33.875632483119915 -11.702051771195428 -10.136314991711288 129 95 68 255
34.218929359900187 -11.256623618278127 -10.486835799695911 126 95 67 255
34.124557367507094 -10.573971141631219 -10.412828045235841 129 96 69 255
34.613979806700655 -10.212382802896840 -10.904786689673159 129 93 67 255
34.957590677757310 -9.773378725359507 -11.255215933279345 133 95 69 255
35.447301177335618 -9.418404489739643 -11.747124018998903 134 93 69 255
35.572163463229174 -8.861786709473932 -11.885228770851171 140 95 72 255
36.208154044207078 -8.595211650315150 -12.518594514518099 84 39 16 255
36.990370398133791 -8.416451437970196 -13.293458200389068 106 61 38 255
37.334648722486662 -7.992265337137326 -13.643746753117966 177 131 108 255
38.117261606169734 -7.823315267825734 -14.418573583644729 182 136 112 255
38.900099554898588 -7.660077997641011 -15.193386210567212 182 136 112 255
39.829270485845200 -7.587898954875797 -16.109714244021518 180 132 112 255
39.735821198149097 -6.921239484041351 -16.035303537128186 171 123 103 255
39.569311333657510 -6.210510370366706 -15.890071408934290 155 108 88 255
39.256633905731945 -5.411389061616831 -15.603242300298035 145 100 79 255
39.382452599966655 -4.872359950028937 -15.740976323170543 133 91 69 255
39.435238389464985 -4.290049150093537 -15.807891149051017 118 84 57 255
39.488072251249719 -3.707940400831120 -15.874755689203397 106 78 50 255
39.614070569821479 -3.170610239414188 -16.012345626242308 97 74 43 255
39.228260736447453 -2.319987579101067 -15.654439344670777 85 69 38 255
38.915527882160092 -1.511385086823822 -15.367239013294409 74 65 33 255
5.483683766221247 -30.096459203469124 19.466866905504560 191 188 141 255
6.832283789567214 -29.861193973632155 18.121950876338701 211 180 151 255
8.108885483811832 -29.608753088590205 16.847926504182482 210 179 151 255
9.023950207333769 -29.227165353260702 15.928450560765043 211 177 152 255
9.722111234782005 -28.768489073892539 15.221708074605516 202 167 145 255
11.506420270696623 -28.740214227767538 13.451234225280245 191 154 135 255
14.666923493162187 -29.268895894304293 10.333325322522057 181 144 123 255
16.090301377868855 -29.128530691864867 8.917360211446038 183 145 124 255
16.717398110741158 -28.678476243232993 8.281471379721808 188 150 126 255
16.837640326266381 -28.027451235323937 8.142013988899663 188 150 127 255
17.247708317070504 -27.496261456700438 7.718891226800338 182 146 122 255
17.657903982876263 -26.968341985598073 7.295775150822976 178 140 119 255
18.358075870317776 -26.564571169906728 6.588980241177836 175 137 114 255
18.768565176529648 -26.044258308299788 6.165875588037437 177 136 112 255
19.396625282804166 -25.619484344904251 5.530009159841569 182 142 116 255
19.879890039743913 -25.137519143143336 5.035994766037987 183 143 115 255
20.943297936332954 -24.909751311457271 3.974585562849853 190 149 121 255
21.426933012755853 -24.437513416500650 3.480579339065969 193 150 121 255
22.273306609090724 -24.128259725279108 2.631945574955353 195 151 124 255
22.902339602844393 -23.729141745581614 1.996095931723829 194 151 126 255
23.604095118612094 -23.367251258395356 1.289322843681589 194 154 129 255
24.233509278978858 -22.978088836986217 0.653484239953769 196 154 130 255
