ply
format ascii 1.0
element vertex 660
property float x
property float y
property float z
property uchar red
property uchar green
property uchar blue
property uchar alpha
end_header
-47.153973354068746 -11.756907625462006 -7.765376953262717 113 82 53 255
-47.174092866068726 -11.146985964727079 -7.477878650230423 106 75 46 255
-47.174322236360091 -10.431327645179579 -7.495921660022304 92 61 33 255
-47.141358803640188 -9.535471954592424 -8.023290635264061 76 44 19 255
-47.101815325340155 -8.600469734304028 -8.652615781818895 68 33 13 255
-47.082302714026028 -7.771701822766417 -8.976418038200109 72 39 23 255
-47.096125067959854 -7.125239007922460 -8.790872588237164 63 31 21 255
-47.123325621298896 -6.553859404370755 -8.401543439986654 30 7 0 255
-47.104040993781943 -5.722912867418785 -8.725450585257420 18 6 0 255
-47.144697177730123 -5.228846765027384 -8.132298687227603 6 0 0 255
-47.231985780952101 -5.003161463401838 -6.825721269422274 2 2 0 255
-47.412454261110632 -5.318780258276760 -4.092159931522019 0 1 0 255
-47.646186283996691 -5.956405079018012 -0.542864117059594 0 2 0 255
-47.560785190965007 -4.754276210815632 -1.885753569835913 2 5 0 255
-47.116416387377001 -1.439360239868705 -8.733446678439577 2 2 0 255
-47.378294622985543 -1.538938488743042 -4.794191554350050 1 4 0 255
-47.373057940347366 -0.788207319221328 -4.914333195606673 1 5 0 255
-46.469621314045604 -21.868299546124419 -29.790358974031847 165 153 112 255
-46.647243720635146 -21.913397502734043 -26.960554859930539 201 159 134 255
-46.722784183685917 -21.501258114091115 -25.758501068515784 198 151 133 255
-46.785606485018576 -21.036002967183890 -24.759823774232586 189 140 123 255
-46.797401199036642 -20.335636840157122 -24.575187808595956 185 133 119 255
-46.822011629883605 -19.696992092495279 -24.186980433775716 171 119 106 255
-46.859440967161184 -19.121683140238915 -23.595161762371447 160 111 97 255
-46.954391693808091 -18.827426092804458 -22.087155812950698 150 102 90 255
-47.151573926657107 -19.039497346669734 -18.950198206621849 134 86 74 255
-47.387139037972716 -19.456735916523655 -15.202009338318874 169 123 108 255
-47.539749011226377 -19.482045274334837 -12.776878109552399 131 85 69 255
-47.571074468854974 -18.913178475065209 -12.285974120903063 141 94 75 255
-47.551359131233255 -18.089177017478761 -12.609611979088243 166 119 100 255
-47.557244171816841 -17.393456453345266 -12.525978555240044 194 146 129 255
-47.658992487564745 -17.189635345885677 -10.914774771808140 197 148 133 255
-47.754414249574246 -16.961348215798765 -9.405213795033376 189 140 124 255
-47.811572076285195 -16.541267111987111 -8.506574002933633 176 127 111 255
-47.804914237315636 -15.790232019698635 -8.626410886695169 167 120 102 255
-47.785540449793793 -14.970873180826047 -8.950007102876839 156 111 91 255
-47.772615013849666 -14.183901806548860 -9.171788130546304 147 102 82 255
-47.791690666981950 -13.567656294175734 -8.884219356442543 142 99 76 255
-47.810830324228789 -12.952915143546377 -8.596626830091111 131 93 67 255
-47.849198439252540 -12.444445105103782 -8.003334102727820 122 90 61 255
-47.874857354136303 -11.868699020845241 -7.613775850647642 118 87 58 255
-47.875033189358902 -11.153116260262493 -7.631805192711852 109 80 50 255
-47.868890835350136 -10.401651194085943 -7.751766200459201 94 63 35 255
-47.830882421033223 -9.469457295537410 -8.381358179805432 92 58 33 255
-47.805722648753729 -8.606408266316848 -8.807199351302984 80 41 22 255
-47.787025354758477 -7.777571584184315 -9.131182559678734 59 21 5 255
-47.793952467029783 -7.094208333362673 -9.047467524897229 52 15 5 255
-47.820116301415837 -6.522470783572658 -8.657919484377658 31 4 0 255
-47.801651875920641 -5.691179781807776 -8.982015586712691 14 1 0 255
-47.853516532884811 -5.272012777933625 -8.184607670087814 6 0 0 255
-47.892686151931052 -4.781166559526284 -7.591048043326794 1 3 0 255
-48.046872388692414 -4.980496037496565 -5.161888214460532 0 3 0 255
-48.469296598920131 -6.807343272496126 1.550798350618550 0 1 0 255
-47.921286578243105 -2.784772756957352 -7.237853342717187 2 2 0 255
-47.782026309956599 -1.210542341478430 -9.500024208765808 0 2 0 255
-48.097475829105896 -1.701924777421354 -4.538510635381897 0 6 0 255
-48.060628386102977 -0.753171308093172 -5.168774148731018 0 6 0 255
-47.345569720305186 -22.426939421292843 -28.022915340687348 179 156 122 255
-47.430109180910001 -22.067560288718695 -26.616676443455731 203 158 135 255
-47.477986677063491 -21.538618710485508 -25.821151946249415 197 148 131 255
-47.513673969406184 -20.954406069154160 -25.229174189047797 185 137 122 255
-47.537170012961738 -20.313297294103990 -24.840783798553161 183 131 118 255
-47.560714073485606 -19.674325087935983 -24.452350246999515 173 121 108 255
-47.584307380198993 -19.037484026903584 -24.063873940954466 162 112 100 255
-47.607951161787419 -18.402768602166589 -23.675355289006973 149 101 89 255
-47.729581988849731 -18.268397206371958 -21.657102415473219 131 83 71 255
-47.998183489628154 -18.898598497671500 -17.193892632077734 180 134 119 255
-48.205643737086930 -19.235722502174440 -13.748795143730035 160 114 98 255
-48.235642753982987 -18.664628991615928 -13.257655559391367 146 99 83 255
-48.235087613254500 -17.935078047248780 -13.275875396836170 163 116 100 255
-48.246831231118236 -17.270437893474963 -13.090330001378959 193 145 131 255
-48.338220739095981 -17.032678535456142 -11.580120798973155 197 147 135 255
-48.435794350463382 -16.835973970633376 -9.967820413012873 187 138 123 255
-48.496695307907046 -16.448029997959964 -8.966777064604230 174 125 110 255
-48.502554362951031 -15.763266478394073 -8.882862454131953 167 120 104 255
-48.502351708058534 -15.045104226596251 -8.900873448313689 157 112 94 255
-48.489965817594872 -14.258614795517715 -9.122760962158452 150 105 86 255
-48.520502889121083 -13.711600131974492 -8.631134279137882 138 96 75 255
-48.532736887137567 -13.063215348193381 -8.445287997680282 129 92 66 255
-48.551160100029563 -12.450708311118504 -8.157481814019604 126 93 66 255
-48.557405589674175 -11.769305799630715 -8.073567649426309 124 95 65 255
-48.569842937028596 -11.123767134856720 -7.887694513041708 112 82 54 255
-48.551738044981924 -10.300494028803158 -8.211668067577477 103 71 45 255
-48.521461367075908 -9.403432525407879 -8.739657960842464 104 68 46 255
-48.497382343608137 -8.539775650818754 -9.165751984519261 118 76 59 255
-48.497868576723384 -7.819965201669874 -9.183955847872824 108 61 50 255
-48.504553820913166 -7.136792139372645 -9.100182864072906 85 40 33 255
-48.511317270875914 -6.453973324987459 -9.016418165204414 49 15 8 255
-48.518160381476349 -5.771500742567426 -8.932662272607161 19 0 0 255
-48.488358359207794 -4.863586290290542 -9.461029362032207 9 2 0 255
-48.452522226342822 -3.914846369726533 -10.091514840890625 0 2 0 255
-48.355572046133076 -2.580905419934354 -11.742434707031919 0 2 0 255
-48.758091359001575 -2.220197915245535 -5.182789047725294 0 4 0 255
-48.710546307386451 -1.192844544433783 -6.017513920901479 0 8 0 255
-48.152869574769142 -22.695719612610645 -27.271852853660164 190 158 129 255
-48.198572572913250 -22.163211378047777 -26.475940028834373 203 157 134 255
-48.215053701808920 -21.487432794876568 -26.189297666096479 200 148 132 255
-48.243289509262922 -20.872832529622045 -25.698864310074100 188 139 124 255
-48.271573846257290 -20.260912820719753 -25.208374229107278 184 132 119 255
-48.294052805150748 -19.621342110772957 -24.819721594138173 176 124 111 255
-48.310726634060586 -18.953304952192880 -24.532926961130840 167 117 106 255
-48.327451409887942 -18.286852025226423 -24.246103697609954 151 103 91 255
-48.391076501466650 -17.871068290608449 -23.143940694938408 106 58 46 255
-48.618734958346224 -18.340557199129833 -19.187863341252182 172 126 113 255
-48.846465701781831 -18.831059032961605 -15.231273585066219 177 131 116 255
-48.910279197302152 -18.448066291487805 -14.128327588725881 148 100 86 255
-48.944867110303520 -17.909869038657533 -13.534951278740380 147 99 86 255
-48.973655969750091 -17.342357075804046 -13.043455632841813 150 101 90 255
-49.072791147714298 -17.170555386441734 -11.328454017939862 189 139 131 255
-49.119272778070041 -16.710613763370048 -10.530887932133282 187 138 124 255
-49.177531045667422 -16.321503071090120 -9.529293000639768 176 127 113 255
-49.188990974488156 -15.669161792708493 -9.343376034799064 170 123 107 255
-49.218086503424843 -15.119315551263597 -8.851503661545507 160 114 98 255
-49.194526180070227 -14.265090036111545 -9.277474589097551 152 106 90 255
-49.212035137978290 -13.649239331843404 -8.989551498135484 135 96 76 255
-49.223752810973593 -13.000241170400841 -8.803607139257565 126 92 67 255
-49.253111601806594 -12.456956407904059 -8.311627672026418 124 93 67 255
-49.253250679456713 -11.740290687264363 -8.329676161080442 120 93 64 255
-49.241745239044604 -10.952561204589273 -8.551788391935702 111 81 55 255
-49.224454959407019 -10.127868141739725 -8.875976714107537 95 63 40 255
-49.224811502890482 -9.409400436954357 -8.894118310736872 100 62 43 255
-49.231100732289704 -8.727040741756539 -8.810237825869251 128 80 66 255
-49.231609538400683 -8.008506007494859 -8.828414578070635 127 75 66 255
-49.238053681417611 -7.326605284193590 -8.744556607150571 119 67 61 255
-49.238720836460743 -6.607971914410442 -8.762770647432660 77 35 28 255
-49.251182176095597 -5.963855128932948 -8.576867037117836 29 6 1 255
-49.246157551072706 -5.207733704712339 -8.697190810947802 9 0 0 255
-49.217795845470157 -4.299259599847247 -9.225888581109700 0 2 0 255
-49.060708880448765 -2.548100624573792 -12.000681007101321 0 2 0 255
-49.278441613994275 -3.242331523469900 -8.241608275654528 0 3 0 255
-49.648446158236474 -4.962953794413025 -1.827324661665102 0 2 0 255
-49.264690374448513 -0.968862658368025 -8.602998674972469 0 5 0 255
-48.921824153914841 -22.790616537377531 -27.131243372458584 202 157 134 255
-48.976579312601309 -22.317339784253420 -26.130994433000524 201 154 134 255
-48.992261547344960 -21.642858445365846 -25.844143842966560 197 148 131 255
-48.980043078988565 -20.821064256119783 -26.066955767496665 192 138 124 255
-49.006997960551786 -20.208543558081900 -25.576188555360488 187 133 121 255
-49.034003612676784 -19.598696769658702 -25.085365278008737 180 126 114 255
-49.072242229801397 -19.052705572038619 -24.390569014169728 170 116 105 255
-49.076990527139252 -18.325276056712809 -24.307482916137701 151 99 88 255
-49.126519509481021 -17.847412756666429 -23.408618872123725 108 58 47 255
-49.332663563005163 -18.253666401587921 -19.654238843828921 105 59 44 255
-49.561246293572225 -18.806547930133519 -15.491431261094704 193 147 132 255
-49.644515704244753 -18.550976504562328 -13.979884918073765 157 109 97 255
-49.699886977504022 -18.142373657294570 -12.978145425996388 164 116 106 255
-49.766503201790684 -17.804071717586268 -11.772273538475645 59 11 4 255
-49.810812106177046 -17.341159661022033 -10.974304524754530 113 66 56 255
-49.821627753672047 -16.684340067992267 -10.788358523734701 191 146 133 255
-49.832504587983571 -16.028512337816466 -10.602401036063611 176 134 120 255
-49.882592780151697 -15.608627021272270 -9.702202274909894 166 123 109 255
-49.932745811387214 -15.193505558392459 -8.801897997141793 161 118 102 255
-49.927036508899093 -14.442082413594250 -8.921953144293866 153 111 95 255
-49.926986158051569 -13.724379703854396 -8.939986064452455 137 101 80 255
-49.927003508352016 -13.006554851363589 -8.958036937502982 126 94 71 255
-49.960646762969553 -12.498105141199673 -8.363705080486341 122 92 67 255
-49.949618271062675 -11.711262083163916 -8.585899868258593 114 86 63 255
-49.927476964319148 -10.852275884353347 -9.012302413806538 83 55 33 255
-49.911002797151042 -10.026702478340383 -9.336692266762725 86 57 35 255
-49.900197230336595 -9.235345785183625 -9.559049536629630 100 60 47 255
-49.906245982719945 -8.551551552266915 -9.475152256277966 58 11 2 255
-49.906780968789512 -7.831582620135833 -9.493370820973723 70 17 9 255
-49.918579695522382 -7.185056243130575 -9.307382135418777 66 9 6 255
-49.919276132157570 -6.465255842605259 -9.325631953063805 136 86 82 255
-49.948011979261707 -5.932030089866643 -8.833262653663724 71 36 28 255
-49.948875034526928 -5.213179295478042 -8.851525223062708 11 0 0 255
-49.882738057420532 -4.039347689380691 -10.095519481052690 1 2 0 255
-49.956452060159876 -3.812991299393033 -8.785974967303105 0 3 0 255
-50.104117358628656 -3.380741936427469 -6.166423624370225 0 3 0 255
-49.932163644869256 -1.459587560906641 -9.351895555738849 0 6 0 255
-49.916806997526983 -0.620461210701322 -9.676871800654624 0 9 0 255
-49.573216988825806 -23.019027529953519 -29.214639587624447 184 159 124 255
-49.667850101310862 -22.769620467339180 -27.398181028425995 205 158 136 255
-49.735921600330528 -22.383723775785896 -26.091407232412280 201 153 133 255
-49.734832867827599 -21.621196780914019 -26.110338836939093 199 148 131 255
-49.739114116443716 -20.888433485644981 -26.027284170510541 194 138 125 255
-49.754092798000393 -20.216289375052270 -25.740220164463381 189 135 123 255
-49.790422855361200 -19.667020817537136 -25.045086758244338 185 128 117 255
-49.816156080819155 -19.060317986209853 -24.553904732918909 168 114 103 255
-49.825965940404089 -18.363694191313172 -24.368738369539415 149 97 86 255
-49.873112555351049 -17.886022931556838 -23.469345805501064 120 70 59 255
-50.085436514605220 -18.386596408980154 -19.406697715008477 197 151 138 255
-50.303161938872691 -18.940394356326053 -15.241480439784937 201 155 142 255
-50.361155691724008 -18.558042181248439 -14.137239043227453 180 132 121 255
-50.413883624705335 -18.149355473885322 -13.134920600577686 177 129 119 255
-50.445364250730428 -17.616073260118995 -12.540737676393178 118 71 62 255
-50.503543163289677 -17.249714802568064 -11.436134878579082 56 9 1 255
-50.508510397939347 -16.558995429326586 -11.352173966173041 106 64 52 255
-50.524195160286332 -15.935310762419633 -11.064046836740317 181 142 127 255
-50.571910368361976 -15.514527475142103 -10.163349022507361 164 125 110 255
-50.593052651388106 -14.929341065282941 -9.773035266820614 161 119 103 255
-50.598277966225922 -14.243896911164228 -9.688998459654556 154 116 98 255
-50.592915272491709 -13.490128624439905 -9.809188758271887 145 111 92 255
-50.608933145117760 -12.874273411004836 -9.520938010385407 130 99 78 255
-50.641004933738223 -12.364655492343942 -8.926290084088521 120 92 71 255
-50.657164945034509 -11.752589576206006 -8.637975313208926 103 75 54 255
-50.625449254188133 -10.822895625445753 -9.268887706738724 52 26 4 255
-50.625775235017883 -10.104162670415192 -9.287029253826461 77 51 30 255
-50.599541238331518 -9.205280326331732 -9.815953587396393 83 45 36 255
-50.600023404696785 -8.484864478736526 -9.834171777308882 83 36 28 255
-50.573950889697663 -7.581574653105235 -10.363242417647143 68 18 11 255
-50.585249693462245 -6.933064065298524 -10.177193724715039 125 71 67 255
-50.617936791204514 -6.433770791693973 -9.582421480507605 144 89 87 255
-50.645379201378809 -5.900177211763022 -9.089777105525968 95 52 50 255
-50.688882242953206 -5.481958070432967 -8.290507308523445 22 6 4 255
-50.609982239788899 -4.196274712374290 -9.841763303006189 6 7 0 255
-50.728210177968251 -4.314384839445410 -7.611577886781504 3 4 0 255
-50.787939820682858 -4.021386460574362 -6.505471601710497 1 4 0 255
-50.783862071516559 -3.269606317126659 -6.625894372245398 6 8 0 255
-50.657436067559644 -1.620467446813393 -9.097606565417664 0 5 0 255
-50.605654737605235 -0.507565670787045 -10.138387822217680 0 6 0 255
-50.375082335244059 -23.285384502412128 -28.462443410218611 196 162 131 255
-50.444712065898145 -22.922441961573682 -27.053016645670311 207 159 139 255
-50.489102382246685 -22.420862637198411 -26.153619272343974 200 152 133 255
-50.477892701168777 -21.599543648385705 -26.376641001279609 199 148 131 255
-50.481906838512593 -20.866459816289392 -26.293535677181353 194 138 125 255
-50.491029595927998 -20.163940189474559 -26.108366503992102 190 137 124 255
-50.525504763039855 -19.614061701348930 -25.412840690349299 181 127 115 255
-50.549913993612812 -19.006753060755031 -24.921382855375896 165 113 100 255
-50.564256636609372 -18.340388359786800 -24.634033733419983 144 95 84 255
-50.614083294902464 -17.893496195605948 -23.632038068054385 99 51 39 255
-50.780384573043513 -18.174118182308547 -20.281731953519284 207 162 149 255
-51.012560712903301 -18.884202956585696 -15.603669970611293 191 145 132 255
-51.062584451083623 -18.469285191599226 -14.600913748966661 149 101 91 255
-51.102545876571682 -17.995285089275043 -13.802267840681679 179 130 123 255
-51.147631758606664 -17.558013401086939 -12.901406588176144 181 134 128 255
-51.177593657690878 -17.027277767632313 -12.306825793140831 153 108 102 255
-51.197493912918524 -16.433659834539782 -11.916450994529214 74 32 21 255
-51.227583831770929 -15.908691764609571 -11.321753336674476 53 16 10 255
-51.283053536504276 -15.554670484948517 -10.216244828086474 161 123 109 255
-51.293025097301111 -14.902015880414822 -10.030008566693311 159 119 106 255
-51.308127176242742 -14.284432331580334 -9.741599961706584 154 116 102 255
-51.292920968591346 -13.462123313267753 -10.066186466467059 149 117 101 255
-51.292973978142129 -12.741992101332869 -10.084303163036282 138 106 90 255
-51.303224772521922 -12.091553562222856 -9.898072567961208 118 90 74 255
-51.328737230594449 -11.547607528757098 -9.405264225278813 85 60 43 255
-51.313822756010701 -10.722588869172156 -9.729982982725915 42 20 3 255
-51.304048290178365 -9.931516044191426 -9.952559772339669 56 36 20 255
-51.284228164140693 -9.067206617437691 -10.379606392650658 80 51 40 255
-51.289800439352980 -8.381892217521724 -10.295642592105480 102 61 54 255
-51.275206339590902 -7.550791951093331 -10.620584673909207 73 26 21 255
-51.286005605923194 -6.901921160263910 -10.434435228661073 134 84 80 255
-51.317134492070693 -6.402257708324896 -9.839329765229479 93 38 37 255
-51.348346323159170 -5.905645247488593 -9.244165828829239 102 58 56 255
-51.384702898518022 -5.449698581339788 -8.546692016938948 29 11 7 255
-51.355359310692911 -4.504720964687721 -9.178510097458059 4 1 0 255
-51.407070691767842 -4.166891922186394 -8.174186741707842 4 4 0 255
-51.433568669462424 -3.642076433045759 -7.681114068900797 2 5 0 255
-51.424743269530033 -2.848779498405278 -7.903955399168751 0 2 0 255
-51.335080637929408 -1.430475071555421 -9.763435025337287 0 3 0 255
-51.316346446644026 -0.551639047708747 -10.191085573490739 0 7 0 255
-51.186513054518436 -23.637779692561324 -27.402931574494175 204 164 137 255
-51.218881048370839 -23.075238562064143 -26.707260917584790 208 160 141 255
-51.236917224335350 -22.428763123796898 -26.317805264232732 201 151 134 255
-51.216647430411804 -21.548392283694682 -26.745156843587949 199 148 131 255
-51.220395730514191 -20.814716830758911 -26.662007957285425 193 140 126 255
-51.238578971426818 -20.171691796960943 -26.272497884044867 188 136 122 255
-51.266406229395074 -19.591427102261918 -25.678693077926596 177 125 111 255
-51.279902010833098 -18.922610788995044 -25.391219435657547 162 113 98 255
-51.283860895423381 -18.193661992475583 -25.307998005679281 137 90 75 255
-51.311856843465186 -17.620833780974394 -24.714043318054564 95 52 36 255
-51.402267860548271 -17.459338618461217 -22.792028036034651 153 110 94 255
-51.675024801716297 -18.511355654086231 -16.987687480919760 203 158 144 255
-51.775172328321688 -18.444407960608402 -14.860598627536604 94 46 36 255
-51.856198542807675 -18.259913658174767 -13.141935410160045 143 94 87 255
-51.855735351837509 -17.532429940304610 -13.160123487208182 183 135 130 255
-51.884119124814823 -17.001345752455066 -12.565204551687430 170 126 120 255
-51.912567636935073 -16.473417282444800 -11.970220508232728 162 123 110 255
-51.936284240827199 -15.915351190061543 -11.477372397792976 137 101 87 255
-51.964865530984497 -15.393446151298647 -10.882266104630844 113 76 62 255
-51.969525434821456 -14.705537672293147 -10.798166965210100 155 117 104 255
-51.993446039204450 -14.154451428695211 -10.305188215586668 152 116 102 255
-51.993447482366925 -13.434103574994950 -10.323299023493405 147 115 103 255
-52.007914572051995 -12.817547806935380 -10.034724995442787 133 103 92 255
-52.003263486659506 -12.062839700694511 -10.155095348065970 114 88 75 255
-51.998687629021930 -11.307448771565660 -10.275499404314075 62 43 28 255
-51.955807496135790 -10.267753487524587 -11.213978413039285 38 21 7 255
-51.980173390623271 -9.723143064481448 -10.720934736434117 22 7 0 255
-51.995023153922773 -9.109089524343446 -10.432381918383214 18 0 0 255
-52.000359188967188 -8.423960667995644 -10.348361522727544 49 23 19 255
-52.005778073523906 -7.739193822357890 -10.264350237622978 94 61 56 255
-52.030467917099543 -7.202006110429338 -9.771191154788369 88 46 44 255
-52.064834043278417 -6.741488181972969 -9.073394729996039 94 51 47 255
-52.084895619367757 -6.172517360424237 -8.682435732188537 66 34 28 255
-52.105043833977113 -5.605504911795990 -8.291446543190034 13 0 0 255
-52.058146590007951 -4.509967394169308 -9.332864859271638 4 1 0 255
-52.073683208178323 -3.904886393517927 -9.044237444202167 1 0 0 255
-52.094106091884491 -3.339630721321583 -8.653264465284849 0 1 0 255
-52.037920019333733 -2.157010080115370 -9.899667098487726 0 2 0 255
-52.020191248646448 -1.279432452636271 -10.327507020409200 0 3 0 255
-51.910032636213820 -23.473650685136391 -28.180612439498702 205 160 137 255
-51.949599855903131 -22.967348697875678 -27.280273587255010 207 160 142 255
-51.975632572543901 -22.378199701230145 -26.686297668167299 199 149 132 255
-51.965480986964735 -21.556256383616827 -26.909567684047090 195 144 127 255
-51.959906151880936 -20.762983557255680 -27.030704545749359 187 135 121 255
-51.967971197027794 -20.059271041983138 -26.845332857084884 178 129 114 255
-51.989680747481714 -19.447544171528691 -26.353392658663950 167 118 103 255
-51.997853976647001 -18.746732181714577 -26.167971827987174 153 107 91 255
-51.997020667028984 -17.985251288187584 -26.186933279198456 130 87 71 255
-52.009837761184485 -17.317089757898955 -25.899293985821885 94 55 38 255
-52.104284361730151 -17.215570062861758 -23.771821140665907 80 39 23 255
-52.307566018719299 -17.885256132663798 -19.190841651920096 195 152 135 255
-52.501862976899297 -18.515326675038665 -14.813719936406812 200 154 141 255
-52.591994036677569 -18.427878704196885 -12.787363069131800 79 32 24 255
-52.600608715739973 -17.766631614596974 -12.601044564419169 112 67 60 255
-52.604754101701019 -17.073638425302349 -12.516960159996756 183 139 133 255
-52.622562262375247 -16.480140543978266 -12.126122459007888 162 124 111 255
-52.631371339375391 -15.822139856454683 -11.939765068030169 146 110 97 255
-52.653846777251665 -15.265784825281258 -11.446601106215041 134 98 86 255
-52.680924499532217 -14.745851272297983 -10.851114733098314 140 102 92 255
-52.708072791137951 -14.229048148294353 -10.255565169432998 147 113 102 255
-52.717160891937191 -13.577901922193647 -10.069096783294299 145 112 103 255
-52.721789158219543 -12.893071788006154 -9.984913295678098 129 100 90 255
-52.703827748086518 -12.034106764575043 -10.412234133509230 119 97 84 255
-52.654214037776320 -10.926582007551346 -11.555775092483998 50 32 19 255
-52.582017894732964 -9.635702886760924 -13.211053758904200 20 10 0 255
-52.650414403375429 -9.443328195372416 -11.694649206458450 7 0 0 255
-52.700758444196140 -9.114947240730856 -10.587369343260207 10 2 0 255
-52.719456541326949 -8.538517756438907 -10.196298146150127 12 0 0 255
-52.715578216148806 -7.781409289423237 -10.316898715105083 29 17 10 255
-52.752571117656416 -7.354806538161867 -9.516408634403888 68 47 42 255
-52.789647182906236 -6.932344432132552 -8.715832733495574 30 8 3 255
-52.808683601400723 -6.364630557366425 -8.324616784305647 12 0 0 255
-52.805155269554504 -5.610785065806269 -8.445212253290606 8 0 0 255
-52.756419042713418 -4.477283845072165 -9.589599183034863 2 3 0 255
-52.757613602275192 -3.757347402410190 -9.607961918314174 0 1 0 255
-52.731729497951328 -2.806578005871287 -10.240686075269650 0 1 0 255
-52.692363934063543 -1.736188500692421 -11.180709349386063 0 3 0 255
-52.693861736819180 -1.011429553935329 -11.199259987652397 0 6 0 255
-52.649477022116635 -23.395624495361943 -28.652373951932475 201 158 134 255
-52.682395528876562 -22.859481279054592 -27.853742229074726 204 157 139 255
-52.706838566106406 -22.269187481116717 -27.259445648547171 195 146 130 255
-52.705746539876081 -21.505119331879527 -27.278415275690804 182 135 117 255
-52.696173998161321 -20.681488637586867 -27.501854999828197 178 132 116 255
-52.703712402000008 -19.976907917503596 -27.316389372706908 168 120 105 255
-52.732633099388956 -19.424922838854755 -26.619695538263727 161 114 97 255
-52.727484594820567 -18.632039832217274 -26.740916315338552 146 104 85 255
-52.726657461701834 -17.869421297438436 -26.759907726062067 115 80 59 255
-52.725887652587659 -17.106751521660925 -26.778913026011310 72 41 18 255
-52.801979053267523 -16.909053316705212 -24.957078600106627 51 22 2 255
-53.018951075709623 -17.765822094820919 -19.759894613211202 201 165 146 255
-53.214670015810469 -18.490430683698619 -15.073453462744453 187 143 128 255
-53.329387433095164 -18.628006527483649 -12.329914963067040 186 141 130 255
-53.320416690947638 -17.838426380819257 -12.552630899287806 136 91 83 255
-53.324312368818418 -17.145905944806685 -12.468479718407536 76 33 26 255
-53.311202410871985 -16.321786871481706 -12.793572527830520 58 21 9 255
-53.315230645924785 -15.629078320225460 -12.709455215127491 73 39 27 255
-53.323595725879279 -14.970359610520518 -12.523018276762002 98 63 52 255
-53.357639420503737 -14.515552627867208 -11.722588992955934 134 98 89 255
-53.408827326516729 -14.201332135840602 -10.512720214090791 139 106 95 255
-53.430212044511514 -13.652929622465365 -10.019116553549850 139 106 97 255
-53.434599065463303 -12.968562322027978 -9.934868399149366 118 89 78 255
-53.400650997252001 -11.970447187835347 -10.771847072873982 72 49 38 255
-53.353978951530202 -10.862326653266763 -11.916049647038278 23 9 0 255
-53.324460141198642 -9.889885668025173 -12.650938076744808 13 6 0 255
-53.465725276552028 -10.342215034562216 -9.290811569641448 6 4 0 255
-53.466240104801678 -9.624618921442661 -9.308966047461411 3 5 0 255
-53.411367155999926 -8.435469408385032 -10.658239877320341 3 0 0 255
-53.412055544963557 -7.713993114846303 -10.676530060077027 1 1 0 255
-53.476829952040902 -7.544356206980979 -9.158757639723206 4 4 0 255
-53.524619596776589 -7.234362176257875 -8.050453997903105 4 1 0 255
-53.559694830707357 -6.818095656934432 -7.249282509173156 4 2 0 255
-53.518078060269218 -5.728871812430185 -8.291702844646807 3 3 0 255
-53.459503675178091 -4.482448724937356 -9.744021359267094 0 2 0 255
-53.443683834089768 -3.609779317547009 -10.172157502899495 0 2 0 255
-53.398117938467273 -2.465683305454803 -11.317507701653767 0 2 0 255
-53.391035690662569 -1.663677390437343 -11.540951166732896 0 3 0 255
-53.388321094364137 -0.899297053638861 -11.661990370863350 0 8 0 255
-53.382470436572056 -23.260241489042741 -29.328996240716549 195 156 128 255
-53.441262641159341 -22.925374096615528 -27.814062924202574 203 156 137 255
-53.456121449426938 -22.277101603013818 -27.423954002375353 191 143 125 255
-53.455033253328054 -21.512983208003519 -27.442925734703010 165 122 101 255
-53.445995274076786 -20.689306179843115 -27.666484131228174 161 119 98 255
-53.437007961776821 -19.864518416268240 -27.890081590706473 159 115 98 255
-53.432073842095193 -19.068921474296857 -28.011417725753176 150 108 87 255
-53.435196693890845 -18.333897372687446 -27.928165260233811 130 100 72 255
-53.438377159033223 -17.599366379761094 -27.844913061877719 96 79 46 255
-53.445618486004470 -16.896440318716159 -27.659340531034161 75 65 30 255
-53.516951705793886 -16.696741596719249 -25.836510457673114 71 69 33 255
-53.704417001046821 -17.424790172031891 -21.045750104190120 95 88 56 255
-53.911976307488892 -18.337813297800437 -15.742664304944469 180 146 125 255
-53.995539923907877 -18.280712784688006 -13.611682406227715 170 130 112 255
-54.007126070262849 -17.650444048247849 -13.322819851387635 172 127 116 255
-54.010772687096335 -16.956232497370820 -13.238656438770590 160 118 111 255
-53.974457172366243 -15.932372669200817 -14.178180357375993 147 110 99 255
-53.974235652488851 -15.203066770370086 -14.196467370572861 133 98 89 255
-54.002105870167100 -14.708508335223357 -13.498098838529302 128 96 86 255
-54.062073184988606 -14.488191991156896 -11.980543870955785 135 105 95 255
-54.126117112778388 -14.309963939056502 -10.360408467874777 136 107 99 255
-54.138195101316988 -13.693561278394611 -10.071305418410873 111 87 77 255
-54.126330636309859 -12.870853851491447 -10.396636521384096 63 43 32 255
-54.054500301824206 -11.522831517082366 -12.258269058130054 26 12 2 255
-54.042795507482843 -10.692528893416480 -12.583826213118073 14 6 0 255
-54.175269142963685 -11.136466417863403 -9.221978140887018 10 5 0 255
-54.207752222580382 -10.705221711114049 -8.420613416222125 6 3 0 255
-54.144261117193913 -9.414460711604974 -10.077802653852473 2 4 0 255
-54.140893822502768 -8.658719076068280 -10.198481193565385 4 5 0 255
-54.153621869254117 -8.048366166701555 -9.909368941175387 1 2 0 255
-54.178441958336151 -7.549847361448002 -9.312847900374095 1 2 0 255
-54.231356986839742 -7.313880773444481 -7.998972970161276 1 2 0 255
-54.236345876673347 -6.636649661463778 -7.914677705401971 0 2 0 255
-54.237427569033642 -5.922131706935858 -7.932879402314029 0 2 0 255
-54.206605791928027 -4.904307225727322 -8.771040816047389 0 3 0 255
-54.139894533360469 -3.538493684808671 -10.531827520636341 0 4 0 255
-54.109290601860430 -2.509058478260428 -11.370328730056542 0 5 0 255
-54.086794327183142 -1.552423103693513 -12.003945077940557 0 7 0 255
-54.144206151812149 -23.325669882904450 -29.289959188221815 183 162 126 255
-54.195296023083230 -22.962298395896639 -27.876467776998140 197 155 133 255
-54.197896837528205 -22.226563485235758 -27.793118427927595 176 133 111 255
-54.185608702558902 -21.373371588265769 -28.119122819386973 148 110 84 255
-54.173369892778503 -20.518532407500643 -28.445179468383969 146 111 86 255
-54.157446591946247 -19.632006161559303 -28.873641248612330 140 107 81 255
-54.134103694412396 -18.682672313476459 -29.506887921942280 126 104 71 255
-54.129494994941538 -17.882926171864270 -29.628399907168898 103 99 56 255
-54.570799400073682 -17.834023617772999 -17.538847120717207 145 133 106 255
-54.678714827990426 -18.030047523662603 -14.587507144172378 169 136 117 255
-54.663357810324044 -17.170277464689505 -15.015420719073177 163 120 108 255
-54.685445630031239 -16.635623692082262 -14.419207551472027 156 116 108 255
-54.677699036664052 -15.840062724881093 -14.642342945694907 128 92 83 255
-54.688712568057987 -15.209706808318487 -14.353356710486025 117 84 74 255
-54.703536235243135 -14.614413961418919 -13.961908086081337 117 90 79 255
-54.770767549898366 -14.494631076000090 -12.136167143102455 102 79 69 255
-54.834335352117833 -14.350378206543141 -10.412654495979211 55 35 24 255
-54.864335015206727 -13.905960847904254 -9.611075044580446 32 14 3 255
-54.875720688637855 -13.292588275747818 -9.321743630042192 20 5 0 255
-54.745142330480569 -11.354455482913167 -12.926411155476558 16 6 0 255
-54.872563184072433 -11.824084570342038 -9.460388059917022 11 6 0 255
-55.015007272955508 -12.453744436048027 -5.583970381523841 8 6 0 255
-54.929534354743481 -10.925296365486361 -7.959232153325729 8 7 0 255
-54.829206792224639 -9.240278064444297 -10.744838564908378 7 8 0 255
-54.856038072185996 -8.773139515053472 -10.045552281705795 7 9 0 255
-54.871744593654867 -8.200029465521297 -9.653740021638725 3 5 0 255
-54.913694344273374 -7.886479980882328 -8.544242043370105 1 2 0 255
-54.907160217884417 -7.096796810448154 -8.767496186495634 0 2 0 255
-54.919399933105495 -6.492521281397515 -8.478123795774366 0 3 0 255
-54.920527234295861 -5.776820498381241 -8.496365256278068 0 3 0 255
-54.910547769234547 -4.947243256453888 -8.822283436011389 0 3 0 255
-54.855859487237737 -3.657941975531543 -10.378952609137968 0 4 0 255
-54.749016566064995 -1.822273457644528 -13.371751162031899 0 8 0 255
-54.776704158803845 -1.363730518527632 -12.672437008534359 0 6 0 255
-54.900190523855684 -22.593898440547832 -29.372118927607858 185 157 127 255
-54.912936684849001 -21.942261615980300 -28.981630187461462 165 130 103 255
-54.897976462267010 -21.056833114362760 -29.410276072768340 139 108 79 255
-54.883066078177563 -20.169215158385740 -29.838987959326971 119 99 66 255
-54.868207422382227 -19.279402168832533 -30.267766402822133 102 98 55 255
-55.352220031056177 -17.650631317382022 -15.974116862517803 118 101 77 255
-55.324048298044900 -16.657703881915936 -16.812234864395691 147 114 99 255
-55.341092155921764 -16.085904955853081 -16.318265212733081 121 88 78 255
-55.368626422770120 -15.615727251176565 -15.516791466974325 119 90 80 255
-55.403179821177218 -15.216323806874755 -14.510244505640514 91 65 53 255
-55.430860788528058 -14.755129351601553 -13.708577156896069 43 25 11 255
-55.469036261990453 -14.399596044857361 -12.599305045616802 27 13 2 255
-55.552439196643405 -14.493021376326610 -10.157248204154371 20 11 0 255
-55.542142108103143 -13.671657549663976 -10.482890067868880 20 12 0 255
-55.556235629914063 -13.090931321058420 -10.090914719039120 16 7 0 255
-55.525259935186767 -12.058543110702686 -11.031826851329242 13 9 0 255
-55.661506876991155 -11.998797059107972 -7.068961084700618 7 8 0 255
-55.672450539655038 -11.395289988293470 -6.779284475723443 5 6 0 255
-55.607089747093802 -10.001624219358703 -8.745905084158949 5 6 0 255
-55.580018684912645 -8.996269296947602 -9.584577478778442 5 7 0 255
-55.556514400937367 -8.022914030305415 -10.320811007596831 2 4 0 255
-55.533107169952018 -7.045566377207962 -11.057166244435109 0 2 0 255
-55.579218817750480 -6.805559536347346 -9.741897372682899 0 2 0 255
-55.531711306901634 -5.564255182295753 -11.196519915357101 0 3 0 255
-55.567596734258693 -5.217768786160747 -10.188935356502043 0 3 0 255
-55.593163798246842 -4.762838244798445 -9.489064248060856 0 4 0 255
-55.507813765829738 -3.090572773021137 -12.072805593775968 0 7 0 255
-55.460748986771783 -1.827148245474916 -13.528081587929535 0 8 0 255
-55.567069604341000 -21.820290458823678 -32.303458612501345 172 175 128 255
-55.569139261294303 -21.073641629757162 -32.220266894653946 151 142 100 255
-55.555236092809679 -20.180065951503607 -32.649349972254413 123 118 72 255
-55.964329228895707 -15.853038125245433 -19.533671775721643 32 18 5 255
-56.034606270789936 -15.830834577848464 -17.296473465889562 63 45 31 255
-56.076085214413872 -15.523411584124119 -15.981881163924641 51 33 20 255
-56.088764493202177 -14.923461674269831 -15.590078244847916 42 27 14 255
-55.909020939360779 -12.312970534178135 -21.351628681431578 24 14 2 255
-56.149640299357330 -14.101665101622174 -13.678171378520688 20 12 1 255
-56.201047284294816 -13.919843956517369 -12.055348458380649 13 11 0 255
-56.281405533794704 -14.055748932155112 -9.509135938912436 12 9 0 255
-56.236723068267899 -12.854644811349431 -10.963368796269208 9 9 0 255
-56.201749384049108 -11.750505029864328 -12.110042822305047 7 8 0 255
-56.291969007913629 -12.011785853321740 -9.255590711893319 6 8 0 255
-56.273203305938189 -11.083173107799340 -9.889322588397931 6 7 0 255
-56.369995351242743 -11.436678451855414 -6.829159778915084 5 6 0 255
-56.258392386449522 -9.467549560612184 -10.438777756955858 3 4 0 255
-56.233485642679405 -8.458053316388799 -11.278030030205116 3 5 0 255
-56.202263127997227 -7.370983418325693 -12.322681077408447 2 4 0 255
-56.193585967701289 -6.535847128097728 -12.649025291480825 1 5 0 255
-56.201037179670578 -5.884201252234789 -12.462209646373765 0 3 0 255
-56.205379892065132 -5.196088307316060 -12.378045922487843 0 4 0 255
-56.171362324235140 -4.056997359794295 -13.525808840175443 0 5 0 255
-56.195138736560075 -3.593531804055644 -12.825758692242516 0 6 0 255
-56.151729417792993 -2.332449928774437 -14.281779332137774 0 7 0 255
-56.659045728264090 -15.502898446610260 -20.821789708350877 20 25 4 255
-56.770610271578320 -16.001260044707280 -16.941885100631850 27 23 4 255
-56.785124855800838 -15.431085167809186 -16.447318633435486 23 17 1 255
-56.820293291280336 -13.634690477910851 -15.271192260416285 17 13 1 255
-56.948193216839940 -11.490174981592858 -10.949231887895166 3 5 0 255
-56.954598956249775 -10.840912743463448 -10.762126499281749 3 5 0 255
-56.887531390468872 -9.299887031829272 -13.141750353125190 3 4 0 255
-56.888236416566691 -8.573715622959682 -13.160162234418692 3 4 0 255
-56.915511376937260 -8.173602955010239 -12.254451559471363 1 3 0 255
-56.907576638405523 -7.339931837257254 -12.580922136298682 2 4 0 255
-56.885034630219870 -6.320472974222980 -13.420944698918845 1 5 0 255
-56.839071331186567 -4.999957502322815 -15.082734964544670 0 4 0 255
-56.863790656437878 -4.566568514190479 -14.279717521839530 0 5 0 255
-56.862146734326835 -3.798840153038938 -14.401076255242572 0 7 0 255
-56.793004070674478 -2.159143734702312 -16.885143073724407 0 9 0 255
-57.648319961444336 -16.500195719400793 -11.079593616481134 23 22 6 255
-57.828823560807521 -14.518979948079334 -4.307049376566624 5 9 0 255
-57.669169159564184 -10.988417118291068 -10.505821225549596 3 6 0 255
-57.643043341554772 -9.912598206341499 -11.551309763795416 3 4 0 255
-57.638432026408530 -9.118988748264883 -11.775085291215873 3 4 0 255
-57.649976925327266 -8.541592228777091 -11.382465990973458 0 2 0 255
-57.533144183118871 -6.213282229728932 -15.921730257233037 0 4 0 255
-57.571656260995134 -5.994705113943198 -14.501833675536261 0 6 0 255
-57.596879348861194 -5.598207073631357 -13.595581081595697 0 7 0 255
-57.547291113740123 -4.161058614478591 -15.566762024717661 0 10 0 255
-58.323688744574532 -8.075853375623325 -12.873709793790283 2 7 0 255
-58.254742801444948 -6.291753815779686 -15.873542347165312 0 9 0 255
41.571903364064127 -0.808073269557966 -17.039318196117648 104 108 60 255
42.976108286100214 -0.961374698206996 -15.850751853937453 107 114 64 255
43.740410034579753 -0.766516140917290 -15.196938244698458 97 107 55 255
39.795878732440684 -2.539706881257345 -17.764730915902334 128 122 80 255
44.245560087215921 -4.315469065447274 -14.049950899216753 125 114 79 255
45.251092737069655 -4.247548011274219 -13.198198531090043 127 109 76 255
46.176921710753248 -4.142423024896516 -12.413020132943103 126 102 71 255
46.622149329279324 -3.778586105416011 -12.027469379905767 119 94 63 255
47.147792411122310 -3.461937034063752 -11.575365270180981 109 88 53 255
49.357926403337302 -4.087068309960230 -9.724296665777587 107 90 51 255
49.884420740375447 -3.782873037776255 -9.272155833002131 101 89 48 255
49.689080671115335 -3.074803531734830 -9.419755487393331 96 84 43 255
45.410272140762260 -5.736488584796973 -12.301554343655340 142 106 79 255
46.738629822636796 -5.843726696841770 -11.187196005238064 141 105 81 255
48.468943409001099 -6.177722452923277 -9.740961013426784 141 107 82 255
49.236489563384453 -5.997112111581146 -9.090976686900063 134 101 74 255
49.924082504018259 -5.777376880363292 -8.507370400150279 124 96 67 255
50.210381917450320 -5.340058415500906 -8.255673864919316 116 90 60 255
50.577185358505744 -4.949095735258183 -7.937674405393381 109 88 53 255
51.908440797965710 -5.099866623667864 -6.823054978389536 103 84 48 255
51.713233311239634 -4.399998852918330 -6.969900636087914 94 77 42 255
46.213649623647058 -7.557008222376155 -10.879461742204541 152 109 90 255
46.579504820524761 -7.146533070591261 -10.562177102169159 152 105 87 255
47.025937747974581 -6.781354344447976 -10.178841791340346 153 108 89 255
48.115778772939763 -6.765360967960817 -9.266607272651669 144 101 82 255
49.286513596829622 -6.800161894741137 -8.288204031845879 139 99 79 255
49.331751837506317 -6.228869282289608 -8.235576484994795 130 95 71 255
49.618394266338129 -5.789984745147763 -7.984651941896544 121 89 64 255
49.905200815704291 -5.352784199310307 -7.733806005169612 115 83 58 255
50.755506391466014 -5.229996334179589 -7.019994102476943 108 82 51 255
51.525704060965893 -5.067796727787936 -6.372330758955400 104 81 49 255
51.974222866944473 -4.729656595870367 -5.989321020975666 97 74 42 255
44.767334132068669 -8.186996702665127 -11.308549666894322 158 111 93 255
46.903742907606755 -8.698846926730866 -9.543339305989178 159 106 92 255
47.994709983014957 -8.673042994481719 -8.634197052528833 161 104 92 255
48.120118585658247 -8.141603036175582 -8.515474749917018 153 105 90 255
48.648222272810955 -7.825869042717159 -8.067456734480885 150 104 88 255
49.337653916762520 -7.600091552030023 -7.487707529782540 146 100 84 255
49.705203739505151 -7.204521114932660 -7.171531281823746 136 96 76 255
49.186715856398592 -6.328947118897077 -7.580271863655781 131 94 73 255
48.829239864709393 -5.537784068405827 -7.857405010027293 122 87 65 255
49.358254096543249 -5.232224429130312 -7.409723742052876 114 80 55 255
49.887526140519043 -4.929999037582604 -6.962083633507547 105 77 49 255
51.062092866224589 -4.990684500084498 -5.987120914820622 104 78 48 255
50.704907039350388 -4.199846385267776 -6.264709977203097 97 72 42 255
45.618221072125806 -9.408299358207898 -9.841038829084567 164 117 99 255
47.274504484427837 -9.665544072062332 -8.475777008771530 161 114 96 255
47.722359291892843 -9.301112655872629 -8.094776767105685 161 109 95 255
48.251064408443256 -8.981991609524115 -7.648188946763185 159 107 94 255
48.699386246007577 -8.623529518392459 -7.267271715194255 153 105 89 255
49.147933533873442 -8.267903369783369 -6.886400009028250 148 102 86 255
49.354689249937223 -7.785250528455023 -6.702521751592741 147 99 82 255
48.996758145138074 -6.998840180399625 -6.978310992054730 139 93 75 255
48.396623901168567 -6.078215557673175 -7.451250811578973 130 88 68 255
48.442062272978262 -5.506115284260190 -7.399061007518469 123 86 62 255
48.810510477965607 -5.111598433668476 -7.084290643865870 112 77 52 255
49.340655260218909 -4.808641238865178 -6.638226038373688 105 74 46 255
49.709522685423195 -4.419126818874958 -6.323572704666816 99 72 43 255
49.755452446400227 -3.850946935419657 -6.271752278835351 93 68 38 255
43.846149160766089 -9.883380709963987 -10.525314587888232 163 118 97 255
45.746337984958984 -10.248826576520742 -8.968913042769572 165 116 102 255
47.001612933473808 -10.293967564164817 -7.935392252990056 165 116 102 255
47.692320598594847 -10.054127075068052 -7.359499160341244 163 114 99 255
48.141110309305645 -9.692256126677961 -6.979787010064882 161 110 97 255
48.267076592507237 -9.163422207171351 -6.861704172112155 157 106 93 255
49.120141510959456 -9.019797379789139 -6.155086955984956 156 104 90 255
49.812002232254997 -8.795753265878872 -5.579272307439822 153 101 87 255
49.938514832063106 -8.273235167705991 -5.461366262443732 147 102 83 255
49.095218450736184 -7.228674446355157 -6.128593349568945 139 94 76 255
48.736687645912440 -6.441090012885681 -6.403500370915395 130 87 68 255
48.782350713149754 -5.871324531599200 -6.351414689482596 124 83 61 255
49.394191170841026 -5.612273494155858 -5.841371686700882 115 79 55 255
48.873876009320497 -4.731876732668027 -6.247572968541874 105 74 47 255
49.081547655694180 -4.252044182232325 -6.064919405580923 97 70 41 255
48.722906704664496 -3.456821602550619 -6.340551333198960 92 67 37 255
42.393494055907496 -10.539417970297265 -10.940480527674481 166 134 107 255
45.265516988667656 -11.378062037635743 -8.608235382889774 169 122 101 255
46.603153803935840 -11.455542366772889 -7.513254243028456 168 117 98 255
47.133011409917714 -11.128417808069969 -7.069587837238998 168 116 103 255
47.743976390670213 -10.846345716090667 -6.560802978878144 165 115 104 255
47.789156938717184 -10.274942925540969 -6.508090229143619 162 112 101 255
48.077051962657862 -9.830182855670216 -6.260003505011440 158 108 97 255
47.960610392752528 -9.174934765413653 -6.337790136523495 155 105 94 255
48.491491611863637 -8.860477794174926 -5.894355339190099 154 104 93 255
49.103559490448106 -8.592408963762637 -5.385777668543710 151 101 90 255
49.473073439536336 -8.198449933379180 -5.072757789479596 146 98 83 255
49.033150122147617 -7.371265989679486 -5.411645496928230 137 91 75 255
48.755058867505767 -6.628483330167981 -5.620325351598098 131 88 71 255
49.286851918767155 -6.324554604149370 -5.177187209166277 124 85 66 255
49.899910543712451 -6.068352156278493 -4.668880846635290 116 79 60 255
49.621967163186497 -5.324848285086929 -4.877899013436974 106 74 49 255
49.262920637050343 -4.534214346802003 -5.152291103882902 95 67 40 255
48.417434840003693 -3.469566003397844 -5.818185485264991 91 65 38 255
43.651595254765681 -11.945000875991369 -9.155134543205804 167 130 108 255
45.071582981303976 -12.049855919683068 -7.999267615354796 167 121 105 255
46.006534516247058 -11.919380211429797 -7.232672837328352 169 120 103 255
47.022858313522505 -11.836155254694958 -6.401148570482690 166 118 98 255
47.229901753632248 -11.346185932653455 -6.218635168604834 165 114 97 255
47.437072281536729 -10.857453672770092 -6.036190635867769 163 114 100 255
47.239346366892164 -10.160475038905702 -6.178397029461451 160 111 97 255
47.770774123427373 -9.841494753191043 -5.736434610099167 155 106 92 255
47.411053912871267 -9.059036918147967 -6.008701046082820 154 105 91 255
47.942816018810447 -8.743837907564512 -5.566856868588360 152 103 89 255
48.474832876376979 -8.432028368454439 -5.125042033320653 149 100 86 255
49.493610570736138 -8.383215393283365 -4.293589753774910 146 99 83 255
49.296329508987753 -7.687916147467917 -4.436353964831113 136 92 75 255
49.180133090743908 -7.034844504034027 -4.514298519016990 130 88 70 255
49.063937141542823 -6.380718944603871 -4.592369809269996 122 85 66 255
49.515776701726821 -6.036132202453175 -4.215792432697555 116 80 61 255
49.399693077092905 -5.381795204263113 -4.294080506881613 105 75 51 255
49.283610393368718 -4.726367364519106 -4.372500534058616 95 66 42 255
48.923942999025883 -3.934229243115155 -4.646013757305212 91 65 40 255
44.428214606817420 -13.099527893194519 -7.767000077691279 168 123 103 255
45.202170182583757 -12.881426254222603 -7.132424070790648 169 121 106 255
45.246919554315298 -12.303734589748203 -7.079727627317055 167 119 105 255
45.697120739091673 -11.930183409836403 -6.703817816592419 166 121 104 255
46.309732335601495 -11.641663828775933 -6.198610944927310 164 119 100 255
46.760410386116433 -11.274444592548846 -5.822757583853758 162 113 96 255
47.130184725427483 -10.868491130667479 -5.511614940652919 161 112 98 255
47.094439403217933 -10.255413928524533 -5.523926460346388 158 109 95 255
47.545672236445682 -9.894896291276822 -5.148218229312477 152 103 89 255
47.266562005307890 -9.155286940652260 -5.354781493774311 151 102 88 255
47.555715764378732 -8.712577262084352 -5.108595959576547 150 101 87 255
47.845027846907357 -8.271608549610477 -4.862472339350688 149 101 87 255
48.540606749770006 -8.048690753144427 -4.292862766158777 134 91 74 255
48.667839721515634 -7.525475815364615 -4.176268254965038 129 88 70 255
48.551406830245895 -6.871429074997451 -4.253926130181782 126 88 69 255
48.760050852748606 -6.392691951074255 -4.072799614738585 119 83 63 255
48.968821370082537 -5.915097809712407 -3.891752199326788 109 75 55 255
48.933815146672771 -5.304707459484106 -3.905002853106140 102 72 48 255
48.980157340298547 -4.738700162606605 -3.853626032668473 90 62 38 255
48.538566413245917 -3.901518886467812 -4.190865010559122 86 60 35 255
43.179297863867930 -13.253795063564340 -7.995427429315868 168 119 102 255
44.684722349860181 -13.389826992669697 -6.783481884940642 168 116 103 255
45.460139375306056 -13.173692042909209 -6.151162707075144 170 117 104 255
45.180318229287622 -12.435947067313634 -6.356291049297852 169 117 104 255
45.468935854195507 -11.981712982247572 -6.110568476803593 169 119 104 255
45.838942148730979 -11.570344950775521 -5.800468334456355 167 119 101 255
45.965396304591337 -11.037308510667572 -5.683719515618975 163 116 98 255
46.416996798473519 -10.671405808789586 -5.309281643512008 158 109 95 255
46.624981065916216 -10.182722291517436 -5.128218748062721 156 107 93 255
