ply
format ascii 1.0
element vertex 658
property float x
property float y
property float z
property uchar red
property uchar green
property uchar blue
property uchar alpha
end_header
31.544330886209792 -15.078990849756167 35.625969248406378 164 124 109 255
29.597685288898305 -13.620991200413073 34.612305074025230 166 123 107 255
29.925771839332498 -13.190702314680991 34.793592692191808 167 124 108 255
30.982231811884390 -13.097059842923287 35.357411576778446 166 120 105 255
32.403255040405497 -13.178103128898073 36.112614353702114 169 122 107 255
33.187292794487064 -12.970696671626769 36.533251200139091 167 120 105 255
33.789419983468463 -12.682466401349203 36.858342409201185 165 119 104 255
34.482839849728691 -12.440609713226920 37.231343546809669 168 122 106 255
34.994249029899237 -12.116273999045063 37.508771970193905 166 120 104 255
35.870352354864053 -11.968789145966838 37.977619830934842 173 126 110 255
36.017539758251729 -11.476185177545474 38.063848976219134 170 121 106 255
36.985257118798501 -11.380647221107111 38.580724811461451 169 117 103 255
36.767904789815447 -10.714528482138604 38.475669881236882 170 118 105 255
36.915244133481536 -10.225227063564262 38.562034595581451 169 117 104 255
36.332865790809478 -9.377579329576761 38.265567071510517 168 116 103 255
-52.558972097745794 -13.344113157983614 -8.118624475920626 79 71 53 255
-46.550171664398675 -14.477105265898061 -4.960725373417290 123 113 97 255
-51.803792802713502 -11.132342653506910 -7.690264965897427 47 33 17 255
-53.029635244083948 -9.905119379321050 -8.321141040201894 33 22 5 255
-54.979836083102640 -8.426984267765221 -9.331149432022926 23 13 0 255
-51.146911550261535 -7.272041682961699 -7.291291982738670 6 6 0 255
-48.208188366402766 -7.481228467985190 -5.742069713922803 4 5 0 255
-49.121652813758800 -5.545381258472588 -6.198133676735637 0 2 0 255
-32.592600802078636 -9.121237986748937 2.483293792850134 163 154 135 255
-33.636134612714130 -7.979405409943624 1.947830350435623 169 141 123 255
-31.597347187507779 -7.968604556339230 3.024929456761583 174 136 115 255
-30.918096498844164 -7.464336652042661 3.390733176931064 166 124 102 255
-29.875811984071305 -7.100154611022873 3.946394065029807 162 118 95 255
-30.193903196400669 -6.228461392479048 3.790511898031184 169 124 101 255
-30.602847913734621 -5.320439153862623 3.587171256382931 176 129 106 255
-30.195213459106100 -4.723209072895074 3.810904384707356 175 128 102 255
-29.878208139596808 -4.093411547394695 3.987245962456456 168 118 93 255
-29.016417521548334 -3.677568338300546 4.448430483783397 158 108 86 255
-28.426721393748807 -3.160093573130140 4.767323924880458 141 91 69 255
-27.836827326525594 -2.646171823975592 5.086304433601526 119 75 54 255
-27.882539377404470 -1.882777263792391 5.073024646668642 95 59 36 255
-28.109972122671621 -1.046300556090884 4.964800564743229 71 45 19 255
1.039407084996128 -8.102281091735350 20.267593021135397 184 132 108 255
3.454973783844878 -8.465387997393194 21.539052947405651 188 133 114 255
4.415521441444184 -8.221165830793367 22.050386614356114 172 120 106 255
5.194377984611492 -7.904351230240849 22.466784068875839 145 94 81 255
6.246566468454802 -7.710299907592386 23.025887803951676 136 87 75 255
28.422521636697667 -13.815380601576237 34.658973030354446 178 138 121 255
27.748419874278795 -12.927240692121032 34.316032803684138 177 134 118 255
28.532539282352758 -12.700154074054993 34.734178771117300 175 132 116 255
31.231530373421549 -13.356469213056286 36.151504003360628 168 125 109 255
33.475529481108509 -13.818175820066259 37.331223047248045 167 123 107 255
32.892956895065396 -12.978845861936520 37.036080638538181 166 120 105 255
32.492589048479886 -12.221176826593862 36.836082316328131 166 121 105 255
32.821953323350897 -11.804466933934691 37.016813962310479 166 123 106 255
33.972701316062569 -11.778498881782824 37.625980900028196 168 122 106 255
35.397652274006788 -11.889709699596224 38.378091555625176 166 119 103 255
36.092787628827210 -11.659122799108900 38.749514378437908 166 118 102 255
35.875098797658723 -10.992060859822757 38.644920492746365 165 116 101 255
35.748619900829652 -10.367759989561748 38.587945943371295 168 116 103 255
35.622061954431842 -9.742440556779428 38.530984465179003 168 116 103 255
35.952197456583036 -9.340428067070675 38.712157381860067 166 114 101 255
-60.898651517883906 -5.751869837383623 -11.440564561388214 14 9 0 255
-50.589549008067280 -4.376244582956076 -6.013303247891315 1 4 0 255
-34.305214026175491 -7.892027590876594 2.484119266385846 197 179 159 255
-33.080550722868594 -7.579330805311500 3.131021677320831 180 145 125 255
-30.856430618932876 -7.644838878311958 4.297292066176567 178 136 114 255
-30.720778985867099 -6.942128219053359 4.378083780316757 179 134 111 255
-30.494234499879127 -6.274570112841843 4.506126298770454 178 134 109 255
-30.540226371938417 -5.504886045376480 4.492572062728556 180 133 108 255
-29.859161704734873 -5.013326734495976 4.856801466587967 180 130 105 255
-29.541471770054187 -4.385644502537602 5.032228509606966 172 122 95 255
-28.769092102737631 -3.936561813509300 5.443864118368225 164 112 91 255
-28.542053062089479 -3.278518128482304 5.572200312812669 146 95 74 255
-28.042096323201832 -2.729477552855471 5.842304835863530 125 80 57 255
-28.451637633766865 -1.822027910640529 5.640049833594929 101 64 41 255
-28.133480343723619 -1.203458034683919 5.815768884345204 78 51 24 255
1.789548485355255 -8.571964274166021 21.421012421826106 184 139 113 255
3.571221601135562 -8.668131548157660 22.355204929711263 187 129 113 255
4.533353602735559 -8.425191850138276 22.863990467341580 174 121 107 255
4.948938903258153 -7.953177207707185 23.089129510354795 164 113 100 255
5.820458948888387 -7.680529423829313 23.550835881569498 167 122 107 255
6.692269403988206 -7.412986672596830 24.012657111129968 160 114 99 255
7.473175655925189 -7.110604315214943 24.427284284221486 159 120 101 255
8.619181040470494 -6.973612285059048 25.031270910955314 144 103 85 255
9.674347024984826 -6.802857443879816 25.588081659269093 160 119 101 255
23.977681027639846 -11.366282573209773 33.033772639724020 180 138 122 255
27.866349652028305 -12.542262326371500 35.059087899326002 182 140 124 255
30.934612840616239 -13.364725371905465 36.658748022356789 178 135 119 255
32.451419905617342 -13.489343781524070 37.453868705565640 171 128 112 255
31.685190225363726 -12.563029108357213 37.065422379456294 170 127 111 255
31.649525547911935 -11.973274583154776 37.055760270009770 169 124 108 255
32.070695855190337 -11.597814226779292 37.282914260220664 167 124 107 255
33.680085363921279 -11.786469367012089 38.125856398491564 167 121 105 255
33.827490598370815 -11.288734649725725 38.211101040031480 166 119 103 255
34.614894805387848 -11.098005320652163 38.627990747923306 165 118 102 255
34.213808366673533 -10.339268376646629 38.429090048552141 164 115 100 255
34.635669862191804 -9.976693554444395 38.656605272632277 164 115 101 255
35.149126514871938 -9.660986272245609 38.931573708601036 163 114 100 255
35.479751829764808 -9.258372632202153 39.111839639320664 160 111 97 255
-53.479819560728828 -9.246098538419446 -6.642172763475713 11 11 0 255
-46.448666854306651 -10.807056483792323 -2.997997347345091 8 6 0 255
-61.399585759432370 -3.216551624724431 -10.691377594946346 3 7 0 255
-50.920662022175492 -4.421623385122587 -5.245291896538561 5 6 0 255
-50.333822716972378 -3.821030598776005 -4.931459527602129 3 6 0 255
-33.930448893570627 -7.424236605119987 3.571469631063536 195 168 145 255
-32.066801533667530 -7.353438497344726 4.543967742613518 191 147 126 255
-31.203217844093189 -6.920069148964885 5.000000734740809 189 145 120 255
-30.339337372464996 -6.491920003759333 5.456151481830375 187 141 117 255
-30.203211634342466 -5.792857687983073 5.536570780069326 183 136 110 255
-29.611935876157673 -5.268609592545886 5.851961511506829 183 133 106 255
-29.748771204637393 -4.467491315615490 5.791516566598119 176 125 98 255
-29.339338629790319 -3.877576251230877 6.013057919262508 169 115 92 255
-29.020844895504894 -3.254544588347684 6.187670162317374 151 98 77 255
-28.611164916768900 -2.669310287179641 6.409349002208330 129 82 59 255
-28.383560930777008 -2.014264176763120 6.537080131280049 104 67 41 255
-27.973652634442516 -1.433405381130697 6.758892524991268 81 51 25 255
-28.110429701836466 -0.634921373305403 6.698663020946100 63 43 13 255
2.411342963400386 -8.330769038609901 22.510296866742365 179 134 111 255
2.918500807910362 -7.891073455515169 22.781189226226175 165 121 102 255
3.699665090686238 -7.571677957133403 23.193343482108716 157 118 98 255
4.754982335790402 -7.375020466471966 23.746801120871368 168 131 111 255
6.175914326907872 -7.343203732032961 24.488673399453958 172 134 115 255
6.136030010185834 -6.680797477998269 24.477524536312771 172 134 115 255
6.187454174425682 -6.058246300865832 24.513479735390845 171 131 112 255
8.066154412601975 -6.245456929913573 25.491142447262476 173 132 114 255
24.273295736510249 -11.054140050393016 33.878623752484529 176 134 120 255
28.808758290946997 -12.536094475085690 36.223875212749405 180 138 124 255
31.059255357507539 -12.992078491017963 37.391831137182251 180 137 124 255
31.755384936750659 -12.740714666375695 37.759076051928886 178 134 121 255
30.072838142864953 -11.384076848354653 36.901303725269358 175 132 116 255
30.128392433267322 -10.832978572688887 36.938755049504877 173 132 114 255
31.922991928865684 -11.103020486261101 37.871684436055588 170 127 110 255
32.436568159930658 -10.774796866747224 38.144953362081125 167 124 107 255
32.767173124709728 -10.361903150830770 38.324025586273507 163 120 103 255
33.281023144617990 -10.038823292311562 38.597442337337881 162 119 102 255
34.436197131382499 -10.028746939330475 39.200961718452291 164 117 102 255
34.950468944697661 -9.713255283435061 39.474566035651463 162 114 99 255
36.014668525256127 -9.669746768789793 40.031179240333074 158 110 95 255
-57.764545685202933 -8.797745940731275 -7.905245690412102 8 15 0 255
-54.865132870327358 -8.115254517868053 -6.395547446400457 7 10 0 255
-47.549382803860937 -9.787099802160697 -2.629292885462206 6 8 0 255
-62.565265542236688 -2.977828087947586 -10.316581104192693 5 9 0 255
-66.073947037514444 -0.906570860754741 -12.106638116420413 6 8 0 255
-55.579329483674059 -2.105004701389888 -6.688104255564582 0 4 0 255
-32.915256836767384 -7.196943939663029 4.981788209691217 191 150 129 255
-31.777038838157381 -6.864068208564603 5.575645802722306 196 151 128 255
-30.729555682257711 -6.503789974245663 6.122909259252850 189 143 120 255
-30.775435022137202 -5.735664909503271 6.109349441905579 190 141 117 255
-30.000905313091977 -5.280379280898970 6.516577922662435 184 133 108 255
-30.046696040786770 -4.514284773034717 6.503109656407844 177 126 100 255
-29.454172551114510 -3.995230577141101 6.816993589056295 172 115 95 255
-29.317493809166677 -3.301775486667665 6.897140019570287 154 99 78 255
-29.089557266576804 -2.645031974021393 7.024101296123888 135 85 64 255
-28.770315176052719 -2.025802046588467 7.197891842317944 104 64 39 255
-28.268463024563772 -1.481291794702216 7.465305948646005 81 51 23 255
-28.131541799960445 -0.793070180148121 7.545664302995505 66 44 15 255
-1.309837576938264 -6.913463467865014 21.358729794655787 185 156 127 255
0.202966638981081 -6.890938110059537 22.143092757578941 152 116 94 255
1.076352370542281 -6.603523808497457 22.599853546250813 150 119 95 255
4.327356999049556 -7.345267400933565 24.274339224934948 174 142 119 255
5.659005600955936 -7.273421449415181 24.965633762089126 175 145 121 255
5.161735350486680 -6.410781868421921 24.720288373718574 172 137 115 255
5.121685465660335 -5.746081747205267 24.709147708790198 163 127 108 255
6.271111861488663 -5.607194110553934 25.307074847691112 170 133 114 255
9.342796863023239 -6.330716263566742 26.889077815113794 172 134 115 255
11.591749474195581 -6.703213054943816 28.049690906062239 172 132 114 255
29.516502711223382 -13.004603235013647 37.251416384513576 170 126 113 255
27.831785026951223 -11.652623659516166 36.397902152161876 176 132 119 255
30.544034384736790 -12.324934116454770 37.794532796015801 179 135 122 255
30.508233183454507 -11.733465436394795 37.784898634991251 178 134 120 255
26.623090228761981 -9.338369744686119 35.805921881174811 176 134 117 255
28.969831915857128 -9.857952762148770 37.015402782184509 173 131 114 255
30.767292142529641 -10.130462781887999 37.943749419514063 169 128 110 255
32.290271397506558 -10.282233157684075 38.731590736263811 169 128 110 255
31.062274459414510 -9.121949278818676 38.112387010125943 165 124 106 255
33.411389457532465 -9.681992924488526 39.322656101821352 165 122 105 255
34.568575028064885 -9.676307837783597 39.923270372769807 163 120 103 255
34.533179024758425 -9.094160318381498 39.914059151398547 158 115 98 255
-33.400150337319673 -7.175304350735814 5.607940562662293 198 167 144 255
-31.895162608953711 -6.977942390640436 6.384739107246560 201 155 134 255
-30.845977114255362 -6.618391481371575 6.929186911975904 197 150 130 255
-30.617958799621846 -5.954565998435186 7.055162512718937 194 144 122 255
-29.933388336976662 -5.466052536434717 7.413778340841191 189 137 115 255
-29.705153951548965 -4.806417931504924 7.539886314916998 182 129 106 255
-29.202865656960768 -4.254144303557155 7.805629103488485 175 118 98 255
-28.883105157796848 -3.633714553821846 7.978392368924062 158 100 80 255
-28.928693129234063 -2.871781032373150 7.965075606016143 138 86 64 255
-28.791558709419547 -2.181863499142381 8.044867801540363 113 68 45 255
-28.562999454888853 -1.529175724643522 8.171251962013855 89 55 28 255
-28.334377638617269 -0.877849849641620 8.297692190384453 72 46 17 255
-3.201841566207293 -4.931558665838466 21.179428953737755 160 133 106 255
3.401345893850220 -6.450201769541721 24.558114543022739 178 151 126 255
2.078583294696500 -5.222489915450254 23.894406611063530 178 145 120 255
2.862628348152526 -4.911374398331006 24.302638431810379 159 124 101 255
4.380034455843912 -4.928562431774452 25.083900467054391 161 123 102 255
22.339258483594136 -9.875153145277167 34.262988330485882 174 128 113 255
25.237686384173259 -10.608141046540453 35.745480157663607 178 132 117 255
26.724367924725783 -10.120582763572074 36.518814923908877 176 131 115 255
21.418510624829565 -6.452858481361730 33.839748398786696 173 130 114 255
26.522915348711308 -8.268805033664492 36.442998037610010 170 127 111 255
28.139325669454934 -8.452421041474139 37.273367237822640 167 124 108 255
31.134093458291289 -9.305874653183253 38.804016819729469 166 123 107 255
30.914445623365566 -8.626410598791125 38.701281146954855 166 125 105 255
30.602792668362184 -7.900789122384182 38.551876121734935 165 124 104 255
31.301931097246296 -7.666408380488534 38.916020186933608 161 120 100 255
-33.611205395102246 -7.254775226492825 6.373348212926857 205 181 157 255
-32.469387654425560 -6.921994981603305 6.961079497320355 205 159 140 255
-31.692786004164844 -6.459120311370995 7.363868384412910 204 155 137 255
-31.190176540757903 -5.897407745396137 7.627935672326487 200 149 128 255
-30.413101228770273 -5.443059308327705 8.030935776531436 193 140 119 255
-29.727215927275921 -4.958324297759987 8.387761247719027 185 132 110 255
-29.132569692952899 -4.442384585472539 8.698397968510818 177 120 100 255
-28.812176511024433 -3.823253426952718 8.870237655467463 158 102 82 255
-29.132177064261697 -2.955071487182167 8.718030574456236 138 87 65 255
-29.177764127694417 -2.193399215335731 8.704743481043920 114 68 45 255
-29.131854924775695 -1.467869960398502 8.737796699691216 90 56 29 255
-28.719760122345264 -0.889284084773763 8.956152603922419 71 44 17 255
-16.298867638415999 -0.917481129014121 15.307052419013218 167 170 121 255
-11.941962125710745 -2.056277389037348 17.519693033016793 176 158 122 255
-7.075394891125370 -2.757185644904453 19.999172779705916 134 118 82 255
-1.838491209502280 -3.675107912135616 22.665250833804095 175 153 120 255
0.047247512872019 -3.835639393000179 23.627724630076756 169 144 114 255
2.392510254170901 -4.209572389375197 24.822322937914862 157 128 102 255
22.452968351075043 -9.479604702615390 35.011975501176821 180 134 118 255
25.080661991286348 -10.095007868437790 36.347950691788057 182 135 120 255
25.871113500125176 -9.872822099891209 36.755885769431373 177 132 116 255
26.386042977617251 -9.526363552779173 37.024668391663553 175 132 115 255
24.142891359075605 -7.886748754106790 35.900778335662380 173 130 114 255
23.738045783948451 -7.103016305236309 35.705300323788080 172 129 112 255
23.700913641043314 -6.491624010658867 35.695554730260611 171 128 112 255
29.367177584910678 -8.609246748916192 38.565017736531857 168 125 109 255
31.815188381642145 -9.210016460058483 39.809558257605460 164 123 103 255
-34.233953333699361 -6.424615407473709 6.939908760829155 204 165 143 255
-32.815579621042076 -6.197221632092109 7.662772791284908 208 156 142 255
-31.671384924744217 -5.874781486502414 8.247686838529347 206 153 135 255
-30.709943676373172 -5.489627331373796 8.740656408247588 199 144 124 255
-29.931353194894115 -5.040131601141795 9.141652949716388 190 137 116 255
-29.518917758418269 -4.454046631481404 9.358531963369700 179 126 108 255
-29.106353621673492 -3.870440805130741 9.575487779423298 161 108 90 255
-29.335111810132076 -3.038353274204965 9.470048115468899 139 88 69 255
-29.197361656144409 -2.349424301341614 9.548908583873157 121 73 53 255
-29.151250485213751 -1.624933296062750 9.581741502471857 101 60 38 255
-28.738406027595346 -1.047369146201248 9.798941301415425 77 47 23 255
-13.538419637366900 -0.845646399986293 17.522714636969070 103 113 57 255
-12.295691774906118 -0.680370724018800 18.156432074342959 106 107 57 255
-10.685095396628299 -0.680936790116107 18.974840986347175 95 95 46 255
-6.267614252905332 -1.232828289167557 21.212092668223548 81 86 39 255
-1.989695655018096 -2.438645800768754 23.369391456096722 155 154 113 255
25.752563032459648 -9.966259261724190 37.365237905954174 181 134 117 255
26.912759733993454 -9.920740363169074 37.955958176220349 179 134 115 255
27.152556156957019 -9.449947598368141 38.084917778859918 176 131 112 255
22.971842025040900 -6.893745796681401 35.996571894376359 177 132 113 255
29.991194629559772 -9.057219535480542 39.534837239140856 175 131 112 255
31.153021896800823 -9.040460704479457 40.126213970184153 168 126 105 255
31.024965030821903 -8.406387253895218 40.070762165809072 160 118 97 255
-36.552589191139504 -5.723651445475511 6.650965350321655 198 174 144 255
-34.857324421236143 -5.593158467500686 7.507376807306258 210 158 142 255
-32.794709552912906 -5.610714657892018 8.547237562822346 206 158 139 255
-31.465050608311145 -5.362375689383640 9.220834748508679 202 150 129 255
-30.501837430605150 -4.981793569957233 9.711329430224339 193 139 120 255
-30.547448176140080 -4.218580854894256 9.697898642569243 182 129 111 255
-30.226065877148329 -3.597446421100955 9.867812462617394 163 112 93 255
-29.812816073316725 -3.014086941483143 10.083628622997708 142 91 72 255
-29.124072821246642 -2.541538585725277 10.437037391233275 124 76 56 255
-29.077743982138117 -1.818354766955764 10.469655376570358 102 62 40 255
-28.847777164778819 -1.168765291747476 10.594009807743532 79 49 24 255
18.390002375041433 -7.314909265563074 34.353859252851649 177 133 114 255
22.961263324474828 -8.822941428661437 36.641188999869485 179 134 116 255
26.519946952072900 -9.885823794413355 38.423522336171544 179 133 115 255
25.100234403671692 -8.637223414498891 37.724595677169503 175 127 110 255
24.602293427746133 -7.814622857857785 37.485178316634318 173 127 109 255
29.915819445164402 -9.744567680238788 40.141542242206626 175 129 111 255
27.757708505304180 -8.140552848483125 39.074934668279170 177 130 112 255
29.382354721919114 -8.339383609974476 39.893079370899088 177 132 110 255
28.607769722541065 -7.388891566320112 39.515990187984528 174 129 106 255
-34.975926293609660 -5.707896950425251 8.317388574571396 206 161 141 255
-32.634615323289012 -5.829599621412498 9.488584889418917 206 158 140 255
-30.935416201023344 -5.721822284860622 10.341002478669566 202 152 133 255
-30.337975661748004 -5.203731847101764 10.646617788390273 196 143 126 255
-30.383486818582497 -4.442099895226789 10.633206088870367 186 135 116 255
-30.245244915118377 -3.751386136418674 10.711014832089319 169 118 99 255
-29.647423711154232 -3.240729817941059 11.016869422229234 150 99 80 255
-28.681707508575784 -2.878066842147703 11.505237561271784 130 81 61 255
-28.727039148913065 -2.120887794952566 11.492051872307997 105 64 42 255
-28.588491779009729 -1.436753703523806 11.570126010646419 82 50 25 255
23.264425047718845 -8.520501451435635 37.474331514132160 175 133 110 255
19.440921177053269 -6.140205693577514 35.590052518074870 175 128 109 255
20.696323627460117 -6.127472328384883 36.220387071304330 170 123 105 255
24.723727726163702 -7.434111394816014 38.222791817072633 170 121 104 255
26.996890877887381 -7.928201548094592 39.356654512412234 171 122 104 255
27.607279910839679 -7.638371049094388 39.667467696661419 174 128 104 255
27.293481931651399 -6.906269585875123 39.520945714432571 172 126 103 255
-36.289055814952661 -5.377811813063701 8.536623002840798 201 166 138 255
-32.932704310003231 -5.876015488946322 10.200412743550572 209 162 143 255
-31.322861853242813 -5.733630809942085 11.003025410573258 204 156 136 255
-30.264464687063395 -5.390603766440606 11.533741408009007 198 147 128 255
-29.941833509173790 -4.771469469964615 11.701764838397708 190 139 120 255
-29.895201617861716 -4.047570044862567 11.733780595938342 171 120 101 255
-29.664479428435101 -3.395652677443380 11.856568916026745 151 100 81 255
-29.065443983355834 -2.889548106688437 12.160897076835411 132 83 64 255
-29.110777157152967 -2.132324000205330 12.147708618186897 105 63 41 255
-28.787766381158775 -1.521435740437440 12.316070166590450 80 48 23 255
-29.017338210166912 -0.690915908270355 12.212205125714064 64 42 15 255
15.746324013851222 -5.181433862606809 34.447951514124767 178 156 122 255
20.517454821993255 -6.796133520844350 36.803293669936664 175 139 113 255
18.444756050574455 -5.222842000620275 35.792752442067865 170 133 112 255
19.794639250573169 -5.255191077432755 36.465406837129493 168 127 109 255
24.568960383343125 -6.923661976939258 38.821734673963363 166 125 107 255
26.105468063902691 -7.070275726684585 39.585893245386416 169 124 105 255
26.994471388328719 -6.913833755396169 40.031675720099116 166 120 101 255
-36.591962223492573 -5.424160354088414 9.256656728092963 196 167 135 255
-33.414722944964325 -5.853471290258753 10.821555229000552 211 164 143 255
-31.802424538464237 -5.710698143523700 11.619933974188370 206 160 140 255
-30.742395231407869 -5.367307369131041 12.147823636050560 197 150 129 255
-30.234925995184284 -4.818428138113376 12.405138300204158 188 140 120 255
-30.003803756108908 -4.165877022327010 12.527168789095128 170 122 102 255
-29.864806153334115 -3.478879353265896 12.604133081069733 153 102 83 255
-29.449180505372993 -2.901032126519581 12.816557002180275 135 87 67 255
-29.402299032792456 -2.180136255563070 12.848506118491656 107 65 43 255
-28.894260594675615 -1.642746479706389 13.106223185948608 84 50 25 255
-28.755065323451873 -0.960665583990917 13.183437967988837 68 43 17 255
18.743564566892246 -4.913295928734399 36.632468232124552 162 138 109 255
27.195516170727103 -7.742098492048299 40.777990990064254 165 126 102 255
25.397488148428124 -6.297551966296240 39.908588092920112 159 122 96 255
-33.897012609469897 -5.830947591467506 11.443162281359676 207 166 146 255
-32.190001959170360 -5.722532549322864 12.282184669743543 209 163 146 255
-31.405143944634602 -5.273990961709359 12.672608805571173 201 154 135 255
-30.896899222740643 -4.724230105768811 12.928495883900226 194 144 127 255
-30.665413884100730 -4.070808952939956 13.049803308103691 178 125 109 255
-29.879940880132864 -3.633752651364787 13.440551279281962 161 108 90 255
-29.648241802719525 -2.984718645658063 13.562018505940244 137 87 68 255
-29.508839551085913 -2.300682384177989 13.638646723370755 113 71 47 255
-29.277043479453624 -1.654105841395193 13.760242221970174 90 54 28 255
-29.229964830988450 -0.935054152092761 13.792075512822066 69 45 17 255
23.518097491776615 -5.547652986168558 39.656971296973111 128 121 78 255
-34.194817513448498 -5.877391315020333 12.154509090544465 209 169 146 255
-32.669970708746717 -5.699632337377750 12.899789469058987 212 164 148 255
-32.345943872651247 -5.075664315967899 13.064855641080044 203 156 138 255
-31.836972688024417 -4.524209036714154 13.319301595558059 196 146 129 255
-31.235403487159971 -4.011325263937579 13.618499519274039 180 127 111 255
-30.263812611519967 -3.645293162894831 14.096448492955204 164 109 92 255
-29.661805091833543 -3.140582103312923 14.395875651580340 139 91 70 255
-29.429575938311785 -2.493936930918778 14.516724525692837 117 75 51 255
-29.382306021885796 -1.775375567240204 14.548290287080334 95 59 33 255
-29.797664118475353 -0.872537774244520 14.356504247920711 73 48 20 255
-35.972585429525139 -5.372321537942881 12.154929817944776 204 170 144 255
-33.705398036058426 -5.468309590563550 13.251410748606361 213 166 148 255
-32.640556439304618 -5.122465954209787 13.770802143191730 206 159 141 255
-31.482802270146095 -4.818170631390672 14.334764884615367 197 146 129 255
-31.065303990048136 -4.236269428556568 14.543511460895118 180 127 111 255
-30.092109408040670 -3.871764395435136 15.018908519650495 165 109 92 255
-29.766883515407955 -3.260320579129782 15.183426811194408 142 92 72 255
-29.534198139195979 -2.614423176312897 15.303587159301117 121 77 53 255
-29.672036011101767 -1.823350047800901 15.246051927067796 99 63 37 255
-30.087932270573702 -0.920745629229728 15.055211366080670 73 47 20 255
-35.020747676250068 -5.132846006539140 13.473787886688328 212 169 147 255
-32.564154976700507 -5.309289144631848 14.652991530906235 208 162 143 255
-31.311837329705355 -5.041517078659822 15.258110290107084 198 147 130 255
-30.708124494296868 -4.532260024858203 15.554086592681728 181 128 112 255
-30.104226157594013 -4.026552123290415 15.850170708740620 165 110 92 255
-29.685641293767702 -3.452209407732738 16.057967803604470 141 93 72 255
-29.452467890181737 -2.807599547821511 16.177449896835611 120 77 53 255
-29.683148770074041 -1.981200395692170 16.075968231853309 99 63 37 255
-30.006737312432136 -1.116540739426824 15.930299720901246 73 47 20 255
-35.967615853261663 -4.936398995439347 13.876605958290639 209 171 147 255
-33.228952800870815 -5.216060771464257 15.181281044300903 210 164 147 255
-31.696251754677263 -5.053183425089415 15.914947856703435 200 149 132 255
-30.627311712951638 -4.721557697193973 16.429050172827473 184 131 115 255
-29.650895374502142 -4.360372824067611 16.899350733291584 168 112 95 255
-29.417255691675194 -3.716222942415968 17.018092764404159 144 95 74 255
-29.276464934640813 -3.037085881572565 17.092938942663750 121 78 54 255
-29.600247520361251 -2.175638053769546 16.947985077470847 100 63 37 255
-29.924173367495797 -1.312287901502472 16.803048163492690 75 48 20 255
-36.265529155769542 -4.983099082622729 14.588168225578485 206 173 146 255
-33.243860617185788 -5.367844793530068 16.016943201109655 211 164 148 255
-32.266614766322704 -4.994315754398400 16.484354356257114 203 152 135 255
-30.917091123670531 -4.768660124827804 17.126791873815932 186 133 117 255
-29.846146621129918 -4.443454059907339 17.638243605361410 170 114 97 255
-29.612067874511666 -3.799776947293637 17.756293506312261 146 95 76 255
-29.191857250615982 -3.230167778645523 17.961884237776559 123 78 55 255
-29.702088557617486 -2.296785554434521 17.730184720544997 100 63 37 255
-29.654096449128502 -1.581770833231460 17.760942914137686 76 48 19 255
-30.443914975205445 -0.532539353625552 17.398028823474007 56 43 11 255
-35.725448243420914 -5.342303167765792 15.690495226429519 201 180 147 255
-33.164573741757778 -5.554591519276372 16.894203695932660 212 166 147 255
-31.999517195038237 -5.252840774358390 17.446019623301055 203 153 136 255
-31.392852254171004 -4.744684751274505 17.737094022395553 188 135 118 255
-30.413427045118880 -4.383296353647523 18.202240006173000 173 117 100 255
-29.899493002668606 -3.847234665144512 18.450063506871857 149 97 78 255
-29.478586807207677 -3.277816993751415 18.654491140923767 128 81 58 255
-29.523529985299348 -2.527752972828281 18.641493307595510 105 63 40 255
-29.661730112682761 -1.740522583677475 18.585034920061915 77 49 25 255
-30.266139197687636 -0.766664593472626 18.311049449896927 56 42 13 255
-31.965117831178844 -6.161169324421635 18.288013177647883 211 166 145 255
-31.264252972256855 -5.687606042918759 18.620632795522624 207 156 139 255
-31.216030216523251 -4.969427684673818 18.650619690697553 192 139 122 255
-30.608130520243122 -4.466355122201236 18.940196219024017 178 122 105 255
-30.373240435838710 -3.822535689562301 19.056845746997425 153 101 82 255
-29.858357855794992 -3.289108570971280 19.303366763880035 133 86 64 255
-29.996639243215412 -2.502369703396681 19.247105662020445 106 65 42 255
-29.948309008914492 -1.788578395084514 19.277433526364234 81 53 29 255
-30.553534859580537 -0.814951980120838 19.004868349379194 59 44 15 255
-33.562102157326848 -5.718052488246201 18.383646134237395 210 166 143 255
-31.926491154532215 -5.593436646355599 19.144445560470103 209 158 141 255
-31.411172342152582 -5.052013458686289 19.389267302092890 193 140 123 255
-31.082542089376119 -4.442002416979776 19.548152217321984 178 122 105 255
-30.566959006665030 -3.906040944862028 19.793176007033580 154 102 84 255
-30.331582094810841 -3.264053587113594 19.909214394200035 132 86 63 255
-30.096156376605251 -2.623421471238473 20.025331507263843 102 61 37 255
-30.328100691657909 -1.799733957520445 19.926328078554064 82 54 29 255
-30.840660457497933 -0.863217523193171 19.698224167728483 60 45 16 255
-35.723694680491832 -5.065158206502801 18.228734171283151 208 168 142 255
-33.150692370104792 -5.287781356613038 19.412999136588155 211 160 142 255
-31.792845350927195 -5.063534557485255 20.041413277252786 195 142 125 255
-31.183005689430189 -4.560822653284845 20.327725175905300 180 124 107 255
-30.947274656364385 -3.917395369817498 20.442987708761081 156 104 86 255
-30.992259477955059 -3.166328814512326 20.429941082882323 132 85 63 255
-30.850084969210485 -2.488201291124852 20.502548536953114 109 67 43 255
-30.707896208884819 -1.810876407711675 20.575227601876250 85 56 30 255
-30.659331276305267 -1.097197052917323 20.605168673067368 61 46 15 255
-36.204897837428774 -5.042001998971344 18.848413099609957 208 173 143 255
-33.347095450168382 -5.369916989871911 20.153742941797930 210 160 142 255
-31.893488552812840 -5.181603827052484 20.821202729063955 194 141 124 255
-31.563726454843589 -4.572245501363597 20.978235793885972 178 122 105 255
-31.233883081140419 -3.964800246140371 21.135358879885231 158 106 87 255
-31.372586301568418 -3.177608350192770 21.079762887827997 133 87 64 255
-31.323889345898209 -2.462804457181889 21.109344478600192 111 69 45 255
-31.181453772969434 -1.785132282966217 21.181561218108456 88 59 32 255
-30.945231882018533 -1.145395337886995 21.296427788880209 64 49 18 255
-35.936121958867972 -5.298631282831096 19.806990250357160 199 175 138 255
-32.792568123855887 -5.733975758643737 21.232018275232292 209 160 138 255
-31.711867903529907 -5.406182800830393 21.726526961211249 192 138 121 255
-31.756788501247257 -4.655228847678544 21.713384286050697 173 117 102 255
-31.426373120850002 -4.048242058222741 21.869586859237870 158 106 87 255
-31.283603417910712 -3.370506573143587 21.941226327124127 137 89 66 255
-31.422456636476596 -2.583790422867366 21.885942937106506 112 71 46 255
-31.279709953165167 -1.906853445506883 21.957717071118267 90 59 31 255
-31.043040742393231 -1.267846991064104 22.071908230943336 63 46 16 255
-32.611037680316400 -5.956989492420846 22.137309275812896 207 159 135 255
-31.622553570994256 -5.595194725669941 22.586960877419415 191 137 120 255
-31.573434745579817 -4.881307385003723 22.615932683949069 170 114 99 255
-31.242383251378072 -4.275860702220925 22.771234688160320 159 108 87 255
-30.911253209435444 -3.672317188603643 22.926630181753893 138 92 66 255
-31.332173165861917 -2.777923310503013 22.745336353064971 116 76 48 255
-31.659244667708464 -1.917941020310380 22.606165357124183 88 57 29 255
-31.704323289408563 -1.167443309235338 22.593346637865139 62 46 15 255
-34.121158292705758 -5.545719956913885 22.286667939444285 206 161 137 255
-32.190486457479864 -5.535618057308128 23.152139185872926 191 139 122 255
-31.576646083835413 -5.035773323594441 23.431972303081423 168 112 97 255
-31.150871035775680 -4.467370635283288 23.628219613277750 161 108 88 255
-30.913259552969720 -3.828776403786563 23.740853415865530 143 96 70 255
-31.052216322318912 -3.045177682999864 23.686119097694146 118 78 50 255
-31.285429563850045 -2.223892049290328 23.589566254016617 88 58 30 255
-31.330392429041325 -1.475489510456541 23.576800524712297 66 49 19 255
-31.752220383719163 -0.577170133276951 23.396585800566555 35 26 0 255
-35.728780340470820 -5.099310618378865 22.400045246218554 205 162 136 255
-33.041645590761703 -5.369543435426522 23.593425045021519 191 140 122 255
-31.861487290619067 -5.082877890450064 24.121294404666855 167 109 95 255
-31.435021579706671 -4.514653861844792 24.316385453015386 167 113 93 255
-31.196994686121826 -3.876245536608764 24.428333176572380 148 102 76 255
-31.241795391697536 -3.129432889947736 24.415480940095634 121 82 54 255
-31.286651639938640 -2.382334728060115 24.402689289034953 90 61 33 255
-31.331564689599219 -1.634940746253079 24.389959138275685 65 48 18 255
-31.848231705230006 -0.700245985203352 24.169075947583849 38 28 0 255
-37.339969306401514 -4.652998894290405 22.519515969747729 206 166 140 255
-33.705453209911894 -5.274492556914254 24.119808437362167 197 147 129 255
-32.429193082007117 -5.022656626198781 24.686008480833209 178 120 106 255
-32.190876037099628 -4.381718990694552 24.797159246958003 173 117 97 255
-31.858104602739246 -3.778449731781350 24.949788865957117 152 103 78 255
-31.430831051877107 -3.213653013396026 25.143912053641301 130 91 63 255
-30.720120094391206 -2.761837980090107 25.462342418946307 94 65 37 255
-30.670426235732720 -2.054202303601144 25.491080803012153 67 51 21 255
-31.187616810500487 -1.122433222971040 25.271439904085966 40 29 0 255
-38.387824917810946 -4.418117220793988 22.891902751277570 204 166 139 255
-34.464585725096100 -5.143959998092484 24.606458525301079 199 150 131 255
-33.186482369077311 -4.890908872736645 25.169370575610756 187 129 114 255
-32.664235527339798 -4.356904415952400 25.403266213943667 170 113 95 255
-31.858204019407282 -3.934800761888468 25.760747778407392 150 101 76 255
-31.335629921914489 -3.407567731934392 25.994894574164434 128 89 61 255
-30.623756105728859 -2.956998095112269 26.311491031253794 96 67 38 255
-30.952249336335939 -2.102156787648582 26.175358460496454 75 56 26 255
-31.375514012790603 -1.207988535461780 25.998089443517046 49 35 6 255
-38.869878989056218 -4.394589482008385 23.512988130299902 201 169 141 255
-34.751634285653239 -5.190890442192213 25.299523455636489 200 153 135 255
-32.998342478433443 -5.116775731460748 26.063733108488918 188 137 118 255
-32.759196838360396 -4.476202917585951 26.173514677280693 166 116 94 255
-32.330638907426788 -3.909590237063398 26.365230944374673 140 99 74 255
-32.091379209411144 -3.272263430814817 26.475205916836757 113 76 50 255
-31.189053863603050 -2.894184845173456 26.871789578331629 93 65 33 255
-31.328540325053751 -2.112962142414148 26.818242327703899 78 58 24 255
-31.468120467364912 -1.330887766707733 26.764753037508910 61 46 13 255
-34.943637823323712 -5.273281300893686 26.032796345288119 203 157 140 255
-33.092931258067694 -5.235308433181643 26.833254881148221 188 137 119 255
-33.042952903971155 -4.523403908068801 26.860998087428769 167 115 94 255
-32.708531239005055 -3.920664103149562 27.010877257042907 139 95 72 255
-33.037910398095761 -3.063829688734515 26.876017069600664 108 71 44 255
-32.324039332498245 -2.610320367931607 27.188856854815157 97 67 36 255
-32.653555483433792 -1.752623141939850 27.054127143943845 86 63 29 255
-32.698568200187395 -1.005135592002148 27.041555749161603 73 56 26 255
-35.324918594716081 -5.284676488615801 26.684258492868736 198 152 135 255
-33.661338185209530 -5.175038850267768 27.399158650853948 186 137 120 255
-33.611270727393133 -4.462507486147530 27.426675028054589 168 119 97 255
-33.561228996214453 -3.750245825818425 27.454267498210243 138 95 71 255
-33.416238123676322 -3.074809156949456 27.522394468251875 112 76 49 255
-33.081258003486624 -2.473837935254963 27.671532781698147 100 69 38 255
-33.221253205460499 -1.689196405335608 27.618444427722281 97 71 37 255
-33.076269174516227 -1.015837054397238 27.686831289401198 85 64 33 255
-36.181444707841280 -5.118669036636177 27.134703315217138 197 151 136 255
-34.515492172765875 -5.007521717900019 27.845378497411701 186 138 120 255
-34.085062392623541 -4.437623146926370 28.033510536001273 174 124 105 255
-33.369238260377500 -3.979031113564744 28.342412904469199 149 103 82 255
-33.509233679469020 -3.195445404354501 28.289451084618108 124 86 60 255
-33.363934679425796 -2.521520910183540 28.357233379062905 110 77 46 255
-33.979801157723244 -1.551547244704167 28.103247421028769 104 75 41 255
-34.024954569368077 -0.802253392637468 28.090700075491554 90 67 36 255
-36.848976234931996 -5.023626787633958 27.667437165647655 197 153 137 255
-34.799813509709196 -5.054484088579244 28.533797206493063 182 135 117 255
-33.797391707640855 -4.700839776924099 28.960658356694154 175 125 106 255
-33.556545512827171 -4.062598994889171 29.067819067943930 152 106 86 255
-33.791915404211039 -3.242915623610727 28.975134867450066 130 91 64 255
-33.932146609797172 -2.458680606076385 28.922497485690428 116 81 49 255
-34.072474745326389 -1.673597424808619 28.869924023521364 111 79 46 255
-33.831703151039704 -1.037141706960611 28.977425235888376 94 69 39 255
-38.470561403111930 -4.573901386769407 27.804225958630781 202 155 139 255
-34.893189031344122 -5.172893299007853 29.301235564439210 188 140 124 255
-34.079938044290344 -4.747910447685555 29.646063553339744 177 128 109 255
-34.220168751334739 -3.964713988004647 29.593549422671686 157 111 90 255
-35.123595927046978 -2.888263518121761 29.223063971571051 137 97 71 255
-35.073341113024554 -2.174876938138880 29.250158705282317 122 86 54 255
-34.641437715094611 -1.610110156944415 29.436391377274560 115 82 49 255
-34.209437426675748 -1.047741670939843 29.622745427900398 98 71 41 255
-38.759282548763309 -4.620759888659009 28.500134123516489 202 154 136 255
-35.463128039292229 -5.112575084364224 29.869745788156564 190 140 126 255
-34.648694336604905 -4.686925723884471 30.212477551204401 178 129 112 255
-35.171149199652319 -3.757989860932767 30.002151047143329 158 113 92 255
-35.884880609987846 -2.752954310552582 29.712812820783725 136 96 71 255
-35.834576453609230 -2.038385303689225 29.739682131035892 121 84 53 255
-35.306518514531803 -1.509510967605408 29.964282609809601 112 80 47 255
-35.065053873993435 -0.871484858058849 30.070414495893999 95 68 38 255
-39.143332644157482 -4.632123981468695 29.156314374744312 203 156 138 255
-35.938009868006048 -5.087977069051831 30.478474286722786 191 142 127 255
-35.409266364973888 -4.553922565351556 30.701286851356116 175 127 109 255
-35.932493609175339 -3.623830082511986 30.492139082356090 157 112 91 255
-36.551610983175209 -2.654188787578036 30.243735760746105 137 95 71 255
-36.405563791930575 -1.975523426123047 30.309675852463812 121 85 54 255
-36.259519018984207 -1.297632880061386 30.375712653049590 108 77 44 255
-36.113477958904554 -0.620507245810145 30.441847186383669 95 68 38 255
-40.388996060102642 -4.324353420863645 29.461209185436218 203 157 138 255
-36.987675747156260 -4.848993306255451 30.853457480561730 196 147 132 255
-35.500578588688626 -4.672911035540892 31.465276413443860 179 131 114 255
-36.216030898560206 -3.671018952995809 31.179248021147600 159 114 93 255
-36.740179258794939 -2.738118880753873 30.971335306256663 135 94 69 255
-37.072927446041916 -1.875827423795172 30.841567377843887 118 83 52 255
-36.926683027235896 -1.197015926617624 30.907153725591044 107 76 43 255
-36.780443485468737 -0.518967547421738 30.972839576699812 96 70 40 255
-41.541264952714670 -4.052078520252579 29.809130341419561 202 156 137 255
-37.176283401217091 -4.931545804009161 31.580959554064719 199 150 135 255
-35.686981062536887 -4.755848383536389 32.189064544822060 177 131 112 255
-36.403384316262560 -3.754431415519377 31.904714326841386 157 113 92 255
-37.311956109440615 -2.675846861614588 31.542745665311543 135 94 69 255
-38.028985408511772 -1.665688972200741 31.258418397101480 118 83 52 255
-37.498714813182147 -1.133462187771286 31.478845603114053 105 75 42 255
-37.160290215551782 -0.529465657572672 31.621749425616017 97 73 42 255
-41.735653277908881 -4.134319601326382 30.546451501263448 205 159 140 255
-38.804721391822028 -4.478257908329979 31.729007015147587 197 148 133 255
-37.121377469153941 -4.370856098400523 32.410476680877593 175 129 110 255
-37.550773112078190 -3.475170779321687 32.243479951590729 160 116 95 255
-38.172515061701148 -2.503951281077349 31.999363061555670 139 98 73 255
-38.506253277871991 -1.639582353999558 31.871034931422514 117 84 52 255
-37.686884274304674 -1.218189002394624 32.205860355554961 104 72 40 255
-37.636275303675092 -0.502570713594068 32.232084561507463 99 74 43 255
-42.217938685300197 -4.110178753918902 31.167858055973781 201 159 141 255
-39.282794158773783 -4.453624756368598 32.343172005225682 192 149 132 255
-38.366446764407357 -4.057888094126170 32.713737427837202 174 126 109 255
-38.796563643693986 -3.159676407697333 32.547668553289711 158 115 94 255
-38.938248416312632 -2.368583990051377 32.496690151133379 135 97 71 255
-38.791355373087441 -1.687043869012982 32.560844512323385 117 81 53 255
-37.970763760629978 -1.265783344736917 32.893601206524110 99 73 43 255
-43.855900931491504 -3.660727940109908 31.332603299102345 198 158 139 255
-41.109338337535206 -3.929002100147542 32.424421961018609 193 147 131 255
-39.228736025678103 -3.888884216164911 33.173650617348329 178 131 113 255
-39.274183258876320 -3.134246547910095 33.160965698088006 157 113 94 255
-39.319701244741367 -2.379308939345989 33.148365574258975 134 95 69 255
-38.979833656327997 -1.771251159091051 33.288323740152364 111 75 48 255
-38.350765785410459 -1.276254801207614 33.542772654786432 98 70 41 255
-38.010734783984873 -0.672710389293499 33.682991513413526 100 79 47 255
-45.015341064845160 -3.388525410370733 31.692760384000934 196 159 137 255
-41.204158173007642 -4.047195689298505 33.194297172232382 192 146 130 255
-39.224337127414373 -4.043689887818459 33.976755044272025 178 132 113 255
-39.173277705590550 -3.326284961694768 34.001997719199778 157 113 94 255
-39.218742554989007 -2.572599980887887 33.989456676490192 135 95 70 255
-39.457284032660567 -1.745016046776172 33.901236102655034 113 77 51 255
-39.020339176253884 -1.175481710028677 34.078303173200538 99 72 43 255
-46.756330177023557 -2.903753901406176 31.830923757153457 194 160 135 255
-42.263901351397550 -3.808289177360109 33.586471835741278 195 150 131 255
-40.184751532431477 -3.838672025353077 34.401645867961221 181 136 117 255
-39.650651298267604 -3.300761429052741 34.614864191483179 162 117 98 255
-39.599539873295697 -2.583215855875693 34.640001392317288 134 93 70 255
-39.838386788004556 -1.755530580410564 34.552289492418254 108 73 46 255
-39.690753950281561 -1.074681307242216 34.615265023405669 95 69 40 255
-47.244147549195276 -2.879620668504529 32.461763465146788 195 162 135 255
-42.842025725459138 -3.747893787594236 34.168929246956793 196 150 131 255
-41.437007677375817 -3.525743506356832 34.717165228160013 181 137 118 255
-40.999004767936441 -2.949015386988137 34.891568659975107 162 117 98 255
-40.367392742276905 -2.447726394936026 35.140927748633743 139 97 75 255
-40.219507306277109 -1.765995276135413 35.203367213439904 108 72 48 255
-40.168425859146708 -1.047967643394145 35.228497924729012 90 64 34 255
-48.216410027505191 -2.678330321486982 32.907301189838179 192 169 138 255
-43.130169849234022 -3.794557049106999 34.863830234153639 199 151 133 255
-42.401156530470843 -3.320740567464512 35.148425233438104 183 138 118 255
-42.059477522141520 -2.706014827249490 35.284498069410162 159 114 93 255
-41.523948942715293 -2.166175114389645 35.495050484114785 133 91 67 255
-40.988300198520534 -1.629278441779960 35.705749687387851 101 67 40 255
-41.034111691812285 -0.872990049340231 35.693488596466210 89 64 34 255
-48.705489955605316 -2.654144262297351 33.540287298842074 189 175 140 255
-43.999964865114094 -3.627014878137970 35.336715730367828 194 147 127 255
-43.075964216946403 -3.223626084662826 35.693317636927105 182 137 117 255
-43.024871190864104 -2.499252770292500 35.717670336577001 156 114 92 255
-42.294582758613473 -2.030659661217783 36.000715371398357 129 90 64 255
-41.661160182783505 -1.529316320469647 36.246980898011742 96 67 38 255
-41.707056775256689 -0.772094835173078 36.234753406215660 83 61 32 255
-48.029589329810136 -3.054917182515084 34.614029535021942 188 174 137 255
-44.288414944200241 -3.673591170359657 36.032127992551693 198 151 131 255
-43.363058190921862 -3.270322788845093 36.386432068690198 183 136 116 255
-43.409000096027654 -2.509871790764279 36.373895930474802 160 116 95 255
-42.969162751560276 -1.931623287238111 36.544989893500670 130 92 67 255
-42.820804176818086 -1.245445571962748 36.606091295636517 96 68 40 255
-42.575256336708861 -0.597069548855217 36.704024397231038 75 57 27 255
-45.549202263859939 -3.363267727630600 36.362504671292484 200 154 133 255
-44.136275290937448 -3.137180708192929 36.896785172156228 184 137 115 255
-43.598564049691191 -2.592891530992603 37.103084369419463 162 117 94 255
-43.449969566987221 -1.905551825643201 37.163644687598207 127 89 64 255
-43.301389947302113 -1.218974854187437 37.224321489777964 90 62 36 255
-46.715081314952300 -3.088641128459827 36.733350733254454 194 157 132 255
-44.715783595259751 -3.075918591749613 37.481498676986249 180 138 114 255
-44.079888196709163 -2.567168632367455 37.722662887727267 153 116 90 255
-44.028518722600239 -1.842933825684952 37.746560782122913 122 88 60 255
-44.269585711252915 -1.008612948312802 37.661841293332429 88 64 33 255
-47.883175562412902 -2.814020777368569 37.107974549115312 192 155 129 255
-45.686062753475113 -2.870822220654688 37.923199957712711 187 142 119 255
-44.366375052461734 -2.613834756050323 38.414738502025386 153 115 90 255
-44.510056669867055 -1.816762035242405 38.366450199516720 120 86 58 255
-44.458654944642859 -1.092344131516555 38.390271225397285 87 66 34 255
-47.197734590003307 -3.217185294276689 38.165735855224966 197 157 129 255
-45.290384562559353 -3.168934376547995 38.868386633038412 181 139 115 255
-44.945722403766666 -2.551783899831804 38.999083325438761 154 112 87 255
-44.796452232123585 -1.863511422132021 39.058380103815765 114 82 54 255
-45.331359860787046 -0.918673427477898 38.867385908488103 85 63 31 255
-47.389571518099928 -3.299186896387184 38.898678154508374 195 153 128 255
-46.164256046766155 -2.999696483177061 39.348020058989306 182 140 116 255
-45.819166897645886 -2.381047143470752 39.477809609396559 150 115 87 255
-45.963319043051939 -1.581826931093801 39.430066966108967 114 83 55 255
-45.911841321667936 -0.855241979265784 39.453499466583310 80 62 29 255
-48.070610625178546 -3.202786137048975 39.454280689815647 199 159 131 255
-46.451751629191477 -3.046054583273573 40.041778789776146 182 140 116 255
-46.889966771294468 -2.137864066874968 39.888325402335965 150 116 88 255
-46.740428700135141 -1.446057260486086 39.946743070213884 114 84 56 255
-47.178981776973302 -0.534483094007527 39.793461551479936 79 64 30 255
-49.635243735931027 -2.785391171754526 39.695853611796821 200 164 136 255
-48.112389519409390 -2.589273473151778 40.244311079589679 182 140 116 255
-48.158947196447826 -1.822253908025985 40.232039957196747 148 113 85 255
-48.205591872181827 -1.054904858065314 40.219877800044259 114 86 57 255
