ply
format ascii 1.0
element vertex 648
property float x
property float y
property float z
property uchar red
property uchar green
property uchar blue
property uchar alpha
end_header
-51.953641385546995 -8.482992385481054 -21.954576544838460 8 10 0 255
-51.648360199514407 -8.387435447877237 -23.021579983738462 5 7 0 255
-52.427682933683890 -5.308180771135653 -21.573104433903239 0 6 0 255
-53.427660323693125 -1.601419383306734 -19.620674782160222 0 3 0 255
-52.777918454747656 -13.198501090343115 -14.217363676993926 200 154 143 255
-52.194164081742109 -13.820699285295092 -15.966732914360449 194 148 140 255
-51.722396829702639 -14.152768758351755 -17.445612618561057 183 140 129 255
-51.334565262858895 -14.266840332617022 -18.721936903561073 173 129 120 255
-51.085910395788368 -14.011216160792543 -19.665628996509412 155 116 104 255
-51.003768427760882 -13.307605540980944 -20.213552077387362 121 84 70 255
-51.115376185425127 -12.076869438887627 -20.303229913333467 52 21 7 255
-50.977705531918510 -11.523026487981127 -20.982726313907364 37 14 1 255
-50.757219430187526 -11.197355565216299 -21.856848141535693 27 15 1 255
-50.895857542573133 -9.886499438652351 -21.884804021788710 19 15 2 255
-50.565182549455891 -9.867173153896857 -23.016777596521621 14 14 2 255
-50.482957830540151 -9.164355819999940 -23.564064517325050 11 13 1 255
-50.813711086597586 -7.312775840798452 -23.144359680013395 2 8 0 255
-52.766674224767634 -0.923571666827172 -18.936079651685048 0 3 0 255
-52.105060785029828 -1.819478268538830 -20.844575997487738 0 5 0 255
-52.539703879015768 -12.376256651736469 -12.156165527349970 191 154 134 255
-51.656656379874782 -13.804399789645942 -14.643891236560307 198 150 140 255
-51.188080545315181 -14.131187079955851 -16.127283992872577 197 151 140 255
-50.802709507054097 -14.240627724936076 -17.407529493500505 187 144 132 255
-50.417857663265870 -14.354838997037604 -18.684055999737410 176 133 123 255
-50.198306656942968 -14.024486871332613 -19.561978715461947 166 122 111 255
-50.061296303093521 -13.471052398092667 -20.241221315249305 149 111 98 255
-50.034018725493503 -12.617311129316221 -20.657788470084540 140 106 91 255
-49.897066022198693 -12.064921920376321 -21.336210334287131 57 28 17 255
-49.842286351675789 -11.286265755434698 -21.818432471303680 32 12 0 255
-49.732761074684952 -10.659183567020648 -22.430881353534460 22 12 1 255
-49.869100503181549 -9.347162188893208 -22.459517682372308 15 11 0 255
-49.977738697929688 -8.108218636332253 -22.555375816071233 9 11 0 255
-50.767639195739086 -4.951737058493734 -21.041163212342127 3 9 0 255
-50.738736667344149 -4.085741141339213 -21.467253044508112 0 3 0 255
-45.240604296223445 -6.958335619553651 -39.215159745062152 170 128 109 255
-45.725392700346880 -4.601463744873172 -38.443703981714179 164 125 94 255
-51.004818338641535 -14.087894779718766 -13.583647720941457 201 158 142 255
-50.457652821115325 -14.632352382067836 -15.270416071022595 198 153 142 255
-49.993109609695772 -14.961389235455329 -16.752452682796815 194 152 140 255
-49.828927658731665 -14.477411442811047 -17.501836935426866 154 117 104 255
-49.501547277052062 -14.442842045160148 -18.646213315741846 114 75 63 255
-49.228979518005282 -14.262424514174256 -19.655840941282065 136 94 80 255
-49.038247918509548 -13.859787068283310 -20.466032345573097 157 118 103 255
-49.010568578852492 -13.007089993773747 -20.881731396175581 162 124 111 255
-48.982770037853335 -12.153642824136682 -21.298011248945159 155 121 111 255
-48.873564721581722 -11.526647815431943 -21.910424753183946 110 84 73 255
-48.818534723817500 -10.748283827311184 -22.392389511727032 33 17 7 255
-48.898672676482583 -9.588802318655269 -22.550335788728404 23 13 3 255
-49.464892193194267 -7.052203581308987 -21.545790025914300 10 9 0 255
-49.570957339907672 -5.807427318278371 -21.645991693084568 3 6 0 255
-49.299051867209549 -5.634907666874312 -22.649441739055874 0 3 0 255
-50.051485429228570 -2.539195792111570 -21.211161548584727 0 2 0 255
-42.197835056162369 -14.409998787559459 -43.875934298286438 189 144 132 255
-41.960761861601121 -14.229118199256675 -44.761720998634843 176 128 112 255
-42.548590477012063 -11.571701708725186 -43.727075522172356 167 119 96 255
-44.756264025832770 -4.012532273681416 -38.935761544080691 128 104 66 255
-51.080918634144588 -12.386798235494268 -10.715405599906461 205 172 149 255
-49.914931730037019 -14.618260655250680 -13.945280944813874 202 154 142 255
-49.399531934141216 -15.090073649997464 -15.564911387224100 177 135 123 255
-48.965901207789322 -15.346054199668117 -16.980046189260122 76 36 24 255
-48.775680939132648 -14.937552846547788 -17.794929506480258 123 89 73 255
-48.423919380026298 -14.978861487313935 -19.004661209299854 196 158 145 255
-48.207266830751344 -14.650113161823441 -19.881619537812099 167 123 110 255
-48.044644864559935 -14.173401733911021 -20.625419940997887 126 84 70 255
-48.150930107672743 -12.945008957035128 -20.712685653154296 158 119 104 255
-48.149435522243856 -12.015815393402193 -21.063707849154156 153 115 104 255
-48.094116695899181 -11.236908599923652 -21.546071644986768 148 117 106 255
-48.065534557999463 -10.381735341243683 -21.963634566377863 110 86 77 255
-48.143952444509146 -9.221195701462847 -22.122237287069339 26 11 3 255
-48.168550092542681 -8.210943397733928 -22.412181580031557 15 8 0 255
-48.192936057358430 -7.199094021230053 -22.703366913913186 7 9 0 255
-48.457450893819789 -5.494530176731871 -22.416287833276357 2 4 0 255
-49.068143968427684 -2.783514436288499 -21.298505719720254 3 3 0 255
-47.431156485441498 -3.741384976291727 -26.637729945419551 0 4 0 255
-46.711392882731253 -4.911315911682266 -28.707171942312442 0 3 0 255
-47.372409086599227 -2.021229556207629 -27.480448312845425 2 3 0 255
-41.491718977474683 -15.820461238147232 -42.814108859330247 209 169 155 255
-40.886282830088696 -16.747736001425551 -44.575756974280694 201 154 139 255
-40.624807300883710 -16.649471879209784 -45.521566797044358 195 146 132 255
-40.442757797114375 -16.314981092657888 -46.278766553067328 187 138 120 255
-40.787555708885584 -14.382886691554745 -45.796288881764013 173 129 105 255
-44.628684721261102 -0.851561290971063 -37.456743456370958 102 102 56 255
-50.144580570041178 -12.474217342038912 -10.675922913095604 192 159 141 255
-48.801866447270221 -15.222399143591815 -14.374061048263769 208 161 151 255
-48.317723056795138 -15.621788169455670 -15.926325609222573 168 126 115 255
-47.834293802967899 -16.027651869055205 -17.473543763455069 177 135 123 255
-47.591962371540085 -15.769920737705803 -18.419566064975413 188 148 136 255
-47.296534011101620 -15.664167994053969 -19.495668256996424 187 143 132 255
-47.108116288897087 -15.262406563592322 -20.305409588015181 175 131 120 255
-47.053048220646737 -14.486998604671612 -20.785032183155352 169 127 115 255
-47.237399648181089 -13.033553138290017 -20.674706693542134 170 126 113 255
-47.261723940260474 -12.029045629283843 -20.960078264800586 165 125 113 255
-47.312391718113226 -10.947215253011279 -21.181443291026483 165 129 117 255
-47.230115925682306 -10.243055336547741 -21.729786811272987 139 110 99 255
-47.280378467331396 -9.158244437604708 -21.953466850092411 48 30 18 255
-47.171462055273800 -8.529588909081838 -22.567224117057066 14 7 0 255
-47.380116961065404 -6.982561556750198 -22.405538587437292 10 7 0 255
-47.905451306085460 -4.509526286754920 -21.474356677277939 8 5 0 255
-47.980636237873576 -3.335818397842161 -21.643035958819297 11 6 0 255
-46.699581486386812 -3.287366444568192 -26.152478523442142 1 5 0 255
-45.802098138636758 -5.002332815960244 -28.667681636895310 1 5 0 255
-46.140497726798152 -3.051808002329096 -28.199110603402715 6 2 0 255
-45.900869946559631 -2.821215744304766 -29.123950272119970 87 65 54 255
-40.734826479486493 -16.492159208015892 -42.203372063996198 207 166 150 255
-40.186583214689911 -17.256796245766139 -43.843801507575790 209 166 150 255
-39.769931471336243 -17.632492747228440 -45.166024996000175 207 159 144 255
-39.641182570626164 -17.138820951283748 -45.798863386062294 195 148 133 255
-39.538629740293040 -16.566324635419477 -46.368867541208402 194 141 127 255
-39.827097196184859 -14.794858633469005 -46.009288394727804 180 133 113 255
-40.635666209122967 -11.414014460125600 -44.418637318549060 148 112 86 255
-42.873356452971429 -3.597508174828420 -39.450225591438596 111 98 59 255
-48.064156603629847 -14.793139967703809 -13.868581556810000 205 158 148 255
-47.530917403767127 -15.339207414945861 -15.555538104541256 185 137 129 255
-47.210218071403354 -15.298716232010975 -16.705299685874166 171 128 121 255
-46.837055322899566 -15.411046879966250 -17.984540495464842 187 142 136 255
-46.305913795207594 -15.976115196751721 -19.656687833461746 174 131 124 255
-46.171464062787784 -15.425414023756389 -20.334037175456132 105 62 55 255
-46.089824543727026 -14.725493480669883 -20.879094201174809 103 60 51 255
-46.297926304391218 -13.197402066839601 -20.702372619768283 186 142 130 255
-46.400193974740667 -11.966781242431466 -20.790979037565165 174 132 118 255
-46.502096035043657 -10.733290977018271 -20.881816763017781 165 126 111 255
-46.472295320109900 -9.876603368198744 -21.300449620368340 138 104 91 255
-46.363650808153885 -9.247608994049955 -21.914503444079713 53 34 17 255
-46.700748664590996 -7.321044163287723 -21.426843863035629 23 15 0 255
-46.932266413371671 -5.694076302803126 -21.202857006041739 22 10 0 255
-47.006166046688868 -4.522817692061324 -21.369464059786395 17 3 1 255
-46.687602595309578 -4.504041313320442 -22.502273766038542 59 33 27 255
-46.526189697918802 -4.025941684085296 -23.247299103350173 20 5 3 255
-47.121644590880230 -1.304063029000758 -22.136510130968901 5 2 0 255
-46.699103760897692 -1.598872059429254 -23.522096153497415 2 3 0 255
-45.912582063502619 -2.989094540854580 -25.794082110181648 0 5 0 255
-44.841182177250069 -5.249464722826644 -28.755154106090345 1 4 0 255
-40.574546816984828 -15.354082460165841 -40.144306368428914 208 168 156 255
-39.485791036081743 -17.766822119121514 -43.110967581305118 214 171 155 255
-39.175838344313000 -17.822745600269627 -44.185594684406311 216 171 156 255
-38.943949222685283 -17.644589113053854 -45.069770732698402 209 163 147 255
-38.944976514590145 -16.753219526916979 -45.391139486403574 198 148 134 255
-38.842578567780940 -16.179660061543416 -45.962000829325206 194 143 128 255
-38.972404957864136 -14.886956969005979 -45.974673189901551 177 132 111 255
-39.720357932217190 -11.666804831724733 -44.506420534006196 148 111 85 255
-41.573837997520208 -4.976665178606879 -40.397802258730110 104 86 49 255
-47.060609720262526 -15.102011538975376 -14.030677259976102 194 150 137 255
-46.663153828216629 -15.278732858071720 -15.384368939849992 157 113 103 255
-46.318659261585118 -15.312193428907449 -16.601070995817821 143 100 93 255
-45.948459971280307 -15.424449837878569 -17.880681539982248 65 21 14 255
-45.421890217613232 -15.989420885664316 -19.553385620494367 136 93 86 255
-45.392485727969465 -15.139208905475584 -19.966937951243068 147 104 93 255
-45.389058557321725 -14.213168894438411 -20.315262918284276 194 150 139 255
-45.489757671163510 -12.984783759590641 -20.401936325449839 189 145 132 255
-45.511942391552942 -11.980046895266781 -20.687264766273387 179 136 120 255
-45.585959196918900 -10.822279116034053 -20.843213102924238 171 132 115 255
-45.581662332649138 -9.889858887058296 -21.196493438197706 143 108 92 255
-45.603175651205710 -8.880126515210804 -21.485702775864326 79 53 36 255
-45.676376141530774 -7.716090924765410 -21.646523171016810 25 3 0 255
-45.723340505432780 -6.626179895954351 -21.873891182885984 48 22 10 255
-45.355637511750480 -6.762714184070461 -23.134560329410391 85 51 42 255
-45.221350656303422 -6.211098201464040 -23.812650363795058 108 68 63 255
-45.190557309122973 -5.351620484216426 -24.233385972573842 91 65 59 255
-45.676177636402834 -2.943094510996900 -23.374942692136273 8 0 0 255
-45.799482747297283 -1.612121455847159 -23.417201527145608 2 1 0 255
-45.045988208343793 -2.924385958765924 -25.626384747470183 1 2 0 255
-42.076435836164116 -10.043259324770190 -33.628450125179285 77 58 52 255
-40.505758886050138 -13.912146354989716 -37.823460858178521 220 183 173 255
-39.400149892915188 -16.389342436079914 -40.865301748919734 212 169 158 255
-38.527399187205070 -18.173489263266077 -43.328379992379155 217 169 155 255
-38.245622924882106 -18.151321480089337 -44.339800705350939 216 168 152 255
-38.117864520202723 -17.656697220605480 -44.973496429437972 208 159 144 255
-38.118100778292806 -16.765337161506750 -45.294774628986744 198 149 134 255
-38.092642526435476 -15.952536585615007 -45.679149341312694 189 138 123 255
-38.296848083196842 -14.419358883979982 -45.506042021705269 172 127 106 255
-39.036090487850707 -11.198063895073659 -44.037779173593037 136 101 73 255
-40.665509864439890 -5.149994283706576 -40.421238197021921 101 78 42 255
-46.240913284475347 -14.894250967857374 -13.725188745809874 190 147 133 255
-45.846616357668260 -15.070254030259207 -15.079780085443730 148 103 91 255
-45.608463356400186 -14.806095840300429 -16.031324602343005 148 106 95 255
-45.189246127034316 -15.065670575356535 -17.445129152167823 124 80 70 255
-44.770647201786524 -15.330872611445727 -18.854547494851801 173 129 119 255
-44.662933610269739 -14.703323825683754 -19.467555582605740 194 150 137 255
-44.581077888914557 -14.001226500757696 -20.014311714806098 195 150 136 255
-44.679842627122575 -12.772206856235243 -20.101283996800163 184 138 122 255
-44.623553851954462 -11.993329837677663 -20.583522445749082 176 133 116 255
-44.644466173290546 -10.986990573822681 -20.869984819494306 163 121 104 255
-44.587968260990841 -10.206836827096055 -21.353211189533994 144 105 88 255
-44.659938951247007 -9.045670653083363 -21.511632859314432 102 67 50 255
-44.860007685741898 -7.500309291925930 -21.347728446964169 72 40 25 255
-44.674659357913079 -7.098827938303145 -22.157570372799540 104 68 57 255
-44.489497519303605 -6.699148098496551 -22.966006904298297 85 41 35 255
-44.278915953667713 -6.378256105074399 -23.837388155525133 170 124 122 255
-44.298818623064300 -5.364796156764385 -24.129376905175178 98 69 63 255
-44.599653140757404 -3.498220313874356 -23.718393586252688 18 4 1 255
-44.823137390934185 -1.858256461862766 -23.503843223671396 10 0 0 255
-44.178736048914722 -2.859701133452063 -25.458599504997892 9 1 0 255
-39.250860750187421 -15.180141298866602 -38.735715336764457 209 170 159 255
-38.461293599351045 -16.716370182075025 -41.019825463352305 214 166 155 255
-37.800039479523967 -17.870080407641950 -42.980305964698715 217 165 152 255
-37.520322580350886 -17.847029109558321 -43.992641651361822 211 162 146 255
-37.393015392460434 -17.351546224409503 -44.627063888368156 204 154 137 255
-37.442982552255508 -16.300288994596031 -44.824172555557254 190 141 124 255
-37.492708855650356 -15.247000357071613 -45.022862753377780 183 132 115 255
-37.820058801626324 -13.312195038184598 -44.540698219565769 158 113 90 255
-38.499921843432595 -10.248393327892700 -43.197493741747905 128 93 61 255
-39.455626006775553 -6.287836044244216 -41.185301157790406 110 81 47 255
-40.787098465801641 -1.101189315346289 -38.263375846781571 107 87 52 255
-45.965573924282403 -14.074939259888538 -11.657774637367964 182 154 128 255
-44.956661396520623 -16.014904017116919 -14.622975132718551 166 124 106 255
-44.694401437255955 -15.823959872493106 -15.642010923673837 171 127 111 255
-44.406798630078931 -15.710318358913412 -16.725174282392402 195 151 137 255
-44.170839032128434 -15.451309094172103 -17.672876284677500 198 152 138 255
-43.807091109468210 -15.568195374560759 -18.949501747115534 203 157 142 255
-43.674150045687846 -15.016112872399873 -19.628102030267684 199 153 138 255
-43.566848379335447 -14.389911523034613 -20.240087550405946 193 147 131 255
-43.714953446396258 -13.011385186089967 -20.194630621213349 183 136 118 255
-43.709514820699532 -12.082128880495532 -20.545288520808441 169 124 105 255
-43.678420906893997 -11.227414366842140 -20.962224973735658 153 110 93 255
-43.596283796195571 -10.523801020508387 -21.510150721018675 145 104 86 255
-43.717640597609496 -9.211217009404720 -21.537659666786539 127 86 68 255
-43.940242045716907 -7.589956578317299 -21.308222572536749 107 69 53 255
-43.832176567659594 -6.958975269620765 -21.923908796278653 92 50 38 255
-43.597327079685407 -6.712378827219482 -22.861908976190364 72 24 19 255
-43.413443714644423 -6.314466575974564 -23.669081550619609 163 118 113 255
-43.381638058522164 -5.455184560824364 -24.089556121325870 105 78 72 255
-43.375015344043995 -4.517751282763243 -24.446557595338220 13 0 0 255
-43.519828204430674 -3.113434463923682 -24.421154976188092 11 0 0 255
-42.402172862175938 -5.596962614754943 -27.584655378340102 10 0 0 255
-41.412625620517836 -7.707756725277932 -30.416765184997246 11 0 0 255
-38.938609871977143 -14.450953138176033 -36.976938199021703 225 196 187 255
-38.079924991631522 -16.212625017729579 -39.459269935379297 213 172 160 255
-37.599895194211207 -16.807345394834982 -40.985394821783018 215 166 154 255
-37.170893596266048 -17.251155679112259 -42.380377703247149 217 166 151 255
-36.968413063497330 -16.989066441382107 -43.206097190128816 209 161 143 255
-36.766184968597507 -16.729184558438988 -44.030097190754276 200 152 134 255
-36.689420013049535 -16.073879355288767 -44.540375836771545 185 137 116 255
-36.837815800095946 -14.701023555182871 -44.490464121943262 168 120 100 255
-37.235696392426640 -12.524951407096069 -43.822742640875788 147 103 78 255
-37.707546938459181 -10.100438624944104 -42.975499520883801 128 92 58 255
-38.278088551089546 -7.345208176627295 -41.888476608692969 127 94 60 255
-39.270958220230916 -3.209128430867452 -39.763155098089641 107 85 52 255
-44.500902602707363 -15.707552476751061 -13.027200775265527 204 172 144 255
-43.883848691329696 -16.545099647777931 -14.986534911310855 173 131 109 255
-43.598239113031845 -16.429589936968057 -16.071385169650540 154 108 89 255
-43.439964659289380 -15.946488612148897 -16.820696139017201 198 152 136 255
-43.231075407185905 -15.613630948095334 -17.701719635701778 204 157 141 255
-42.946377173904061 -15.506936084068684 -18.779693147817085 203 156 139 255
-42.687370611692167 -15.328888925178887 -19.788869087983130 201 155 138 255
-42.504571701512582 -14.928713700293230 -20.597945448156878 194 147 129 255
-42.650455557033958 -13.551684457577750 -20.551071228776294 186 139 120 255
-42.619160022548151 -12.699395522891678 -20.966067930777115 160 115 96 255
-42.713847808861637 -11.467833416681856 -21.054623382768796 150 107 89 255
-42.606609009124945 -10.840752452744368 -21.667311260615321 144 102 83 255
-42.826621553931410 -9.224505559458834 -21.433636841188331 139 96 77 255
-42.995733376185861 -7.755957836968378 -21.333657589064586 121 78 62 255
-42.988489295223822 -6.819157664425234 -21.690093075601482 113 67 57 255
-42.930892193049040 -6.034725396094473 -22.176588322982298 133 80 74 255
-42.697734963483178 -5.788829149641742 -23.114212261329897 149 101 97 255
-42.740379092260220 -4.696480761647251 -23.343054776533904 36 14 9 255
-42.582592704212580 -4.221343124554721 -24.086117828895055 9 0 0 255
-41.999998896804293 -5.067041190111581 -25.914688987040250 7 2 0 255
-41.842920098979683 -4.598260153369665 -26.652798339636576 5 1 0 255
-39.789980790469123 -10.061827596193666 -32.222410196739162 22 13 9 255
-38.239410594580313 -13.993958036667181 -36.497439001098286 218 189 180 255
-37.488496883804096 -15.440375567640586 -38.728712679019935 215 170 158 255
-36.937907121758037 -16.268930848584887 -40.446269960072044 214 163 150 255
-36.587047350294135 -16.474536811130605 -41.654072291801299 212 161 145 255
-36.360853312965411 -16.289402899980558 -42.544365056687553 203 155 135 255
-36.209357015589525 -15.868970899355247 -43.244817038004754 188 141 121 255
-36.231431909171526 -14.893246036414865 -43.507185961645149 176 128 106 255
-36.426558584971993 -13.357781024465112 -43.334935042831461 160 113 92 255
-36.818941993400394 -11.178184435070278 -42.669424408309681 138 96 68 255
-37.086895612614775 -9.391415833700478 -42.319796440589812 130 91 56 255
-37.378840803463824 -7.518438469335649 -41.912943685846784 127 94 57 255
-38.261652254537061 -3.705274609555488 -40.032380066099421 108 91 56 255
-43.551867747680724 -15.868453543677333 -13.056194935234373 126 89 62 255
-42.789468179644452 -17.149048413551668 -15.417426035413172 128 81 61 255
-42.556521060809906 -16.887169460090405 -16.367714069338092 178 132 116 255
-42.348968730023721 -16.553731039023262 -17.249337243706123 174 128 112 255
-42.317340813163973 -15.701529090808208 -17.664230257621142 207 160 142 255
-42.034832823879348 -15.594985616772874 -18.742313887417538 204 161 142 255
-41.903003087041533 -15.042831732916966 -19.421087265224145 203 154 139 255
-41.621093253182146 -14.942024336094875 -20.494696533212931 194 144 129 255
-41.689579074071823 -13.790838013666814 -20.644858578574798 188 137 120 255
-41.657841738983770 -12.939169457721761 -21.059318205071662 163 114 97 255
-41.800650808915272 -11.556844639270679 -21.016309997886594 153 106 88 255
-41.668798405631982 -11.005863505930364 -21.694153371506701 146 101 81 255
-41.786053469971371 -9.694573557276584 -21.720208261897454 142 99 79 255
-41.803387338904962 -8.685350658128328 -22.008575985223160 115 74 56 255
-42.019332707647187 -7.062130713730909 -21.779990281307761 150 106 94 255
-41.961562848263988 -6.278320168454059 -22.265975625768419 129 89 81 255
-41.953339497940512 -5.340242558364594 -22.623318769673460 94 64 57 255
-41.944958262037936 -4.400999568305394 -22.981567138984730 8 0 0 255
-41.787898239850470 -3.924986472685816 -23.725398895466299 3 1 0 255
-41.334233550534158 -4.381686643692490 -25.235530050517951 3 1 0 255
-40.807195165570228 -5.078321271149946 -26.931973660614574 2 1 0 255
-38.973041574137433 -9.918554229918925 -31.994135112653282 43 31 27 255
-37.635497026549764 -13.224040196019814 -35.763727141892844 214 184 171 255
-36.817704921020415 -14.903599832336795 -38.187367584210961 212 167 154 255
-36.296660028353024 -15.651918240028238 -39.843559231452303 213 163 148 255
-35.874829869061891 -16.092427253545793 -41.241905998313882 209 157 141 255
-35.723805573264379 -15.668921708704573 -41.944838636135870 198 147 128 255
-35.671056348116373 -14.929554449079546 -42.396197022874105 182 134 112 255
-35.691780214145830 -13.951301158726721 -42.660424099457202 170 121 99 255
-35.908160226783913 -12.333607192779198 -42.427513057801320 148 101 78 255
-36.148409543525140 -10.630980460430465 -42.136355106012076 135 92 61 255
-36.388023822517304 -8.922938550931832 -41.849413818861080 131 92 56 255
-36.700224370373029 -6.968387317978483 -41.381278042784942 126 92 57 255
-37.816245008375525 -2.348137032045258 -38.884257707120383 91 85 47 255
-42.653617438341179 -15.882212327209004 -12.951041246925882 199 162 133 255
-41.898481879381016 -17.162663988612223 -15.313147975093187 200 153 133 255
-41.592520082276259 -17.122725081083274 -16.464019409943006 182 136 120 255
-41.510688018110052 -16.418817520394185 -17.012209890104430 194 148 130 255
-41.354334147068720 -15.938287679473007 -17.759688423999904 206 159 141 255
-41.173297008483509 -15.533775939727263 -18.572379789040099 205 160 141 255
-41.017217438238966 -15.056222548040125 -19.317532790782309 200 151 134 255
-40.811748688776696 -14.730173215820969 -20.193529994138544 191 140 123 255
-40.804372552441386 -13.804168537003648 -20.541412572875657 184 133 116 255
-40.796828743081612 -12.876997707620887 -20.890199959361524 166 117 100 255
-40.887853268985786 -11.645869144461557 -20.978028029739619 155 108 90 255
-40.781242900567669 -11.019159238155851 -21.590488360840055 141 95 75 255
-40.896374200249717 -9.707879673011462 -21.616312150470009 129 89 69 255
-40.888047938970168 -8.774986781026172 -21.969543471663286 105 69 50 255
-41.100821858746720 -7.152007283171201 -21.740434737389961 105 70 55 255
-41.165630289911398 -5.984598963215149 -21.903042162590651 33 5 0 255
-41.377341483421240 -4.352926920266441 -21.680697548667922 14 0 0 255
-41.490407566560584 -3.025006186934604 -21.719467471297605 6 0 0 255
-41.309242979519134 -2.622544104296196 -22.530524217418105 1 1 0 255
-40.859202010756981 -3.075566053572970 -24.043945089078449 1 1 0 255
-39.579077089805502 -6.180909232691931 -27.722008098024105 3 3 0 255
-38.106088239766940 -9.931378936359124 -31.893004858335871 64 50 46 255
-37.026104838016757 -12.454220890483981 -35.029362365809135 215 181 167 255
-36.289215218447985 -13.896168431747157 -37.265643546582510 209 166 150 255
-35.626674773672939 -15.113654418958760 -39.303475850166876 208 162 144 255
-35.135509694342211 -15.789254258226237 -40.892390166738153 204 154 137 255
-34.985211205044216 -15.364883740830862 -41.596083155752950 192 141 123 255
-35.004902450836717 -14.386761847628748 -41.860097926707482 179 131 109 255
-35.194064212533583 -12.850440728117491 -41.687898160680305 153 106 83 255
-35.382687290631715 -11.309553422587953 -41.519253634300327 142 97 71 255
-35.619149223639504 -9.604224839370318 -41.229835316564362 131 90 56 255
-35.830812806967039 -7.973631606991006 -41.006632385499216 124 86 50 255
-36.379831819623995 -5.212998878155076 -39.921623802191675 112 85 50 255
-41.804541897979824 -15.748854350093922 -12.711550577372009 200 169 138 255
-41.007347439391900 -17.176301486681751 -15.208837026894145 191 144 124 255
-40.777661701381426 -16.914310778272352 -16.159555736637770 188 141 125 255
-40.646600087127958 -16.358149488877018 -16.841579516780399 198 151 133 255
-40.491048304210771 -15.877365503844999 -17.589343252844685 201 153 133 255
-40.335620846510942 -15.397964463105154 -18.336026151753373 201 154 134 255
-40.204833363254160 -14.845101967360506 -19.015469413068075 198 150 131 255
-40.049633627814735 -14.368254713714805 -19.760156209876385 189 138 119 255
-40.065816450024762 -13.365905409247404 -20.042966237249743 180 129 111 255
-40.057342121988420 -12.437448001675818 -20.392673627543275 168 119 101 255
-40.024286051274721 -11.583519968986963 -20.808782060673707 154 107 89 255
-39.893551652963787 -11.032477270325728 -21.486791465220762 135 90 71 255
-40.055291981859689 -9.568971126524332 -21.382050778651291 123 85 64 255
-40.021793704414868 -8.711975780990315 -21.800538993870674 87 55 34 255
-40.255663861026086 -7.012269522605038 -21.506401509424251 76 50 33 255
-40.318837035724009 -5.844442117045446 -21.669168805084951 44 27 13 255
-41.061174609456138 -2.519098744646556 -20.027666613738205 7 1 0 255
-41.316976784351631 -0.723027841501846 -19.684121320306758 2 1 0 255
-37.094157587931470 -10.412387954165183 -32.173927599664125 81 65 58 255
-36.097696216567222 -12.701610369527657 -35.120042721988767 207 172 157 255
-35.464518182519122 -13.830272699554001 -37.103282240322784 207 164 148 255
-34.928754718645258 -14.654128765455567 -38.826112528545195 205 158 140 255
-34.562241217200643 -14.934009398592821 -40.101454358355710 201 150 133 255
-34.436515689374851 -14.428204576482727 -40.744207062935118 187 136 118 255
-34.502847407594224 -13.288955724132904 -40.884700704548237 168 121 98 255
-34.592856427518520 -12.067749959905711 -40.964573436092962 149 105 80 255
-34.802248637917366 -10.445064566815034 -40.734877162056591 132 91 63 255
-34.915374164002763 -9.137124252524558 -40.757849157551760 119 80 46 255
-35.267064216985467 -7.024437784934122 -40.163075360915940 114 81 44 255
-36.047540483396610 -3.457802456497575 -38.460568909511636 95 83 43 255
-41.198184716116948 -14.879883192840168 -11.800067072170322 197 170 137 255
-40.335390866595723 -16.525960965640081 -14.501332837537092 146 103 81 255
-39.936701671848546 -16.779934386872583 -15.921722332223368 175 126 110 255
-39.806150152929966 -16.223309586585060 -16.604166275600306 150 103 84 255
-39.578490640381553 -15.965305549382208 -17.551944248338742 196 148 126 255
-39.448186918988632 -15.411448366544647 -18.232225060389652 200 154 131 255
-39.342205590681409 -14.783709821442471 -18.845565044284371 191 143 121 255
-39.236252406043498 -14.156505699320803 -19.458485262509612 184 133 112 255
-39.178721767059635 -13.379305675886343 -19.939266904621689 178 127 108 255
-39.193638353660937 -12.375358151505992 -20.223208205760216 165 117 97 255
-39.208339364751289 -11.369822309856175 -20.508383213871326 149 102 82 255
-39.246948338750094 -10.286796420781627 -20.729428307175624 130 85 66 255
-39.333489831073258 -9.049529673449229 -20.821641083817667 115 75 55 255
-39.347452153238116 -8.038382644882063 -21.111176918783514 85 53 33 255
-39.529540416038579 -6.489876825759325 -20.947872680590052 63 41 23 255
-39.783142458379380 -4.706561320367825 -20.594007185972657 20 8 0 255
-40.708001287916481 -0.762449205876067 -18.437637237376038 4 0 0 255
-40.096446050494315 -1.739847691221883 -20.414860811043837 0 3 0 255
-38.828734263186227 -3.878167279899287 -24.475328517598939 1 2 0 255
-38.387775247216730 -4.339629256307660 -25.983026618344724 5 0 0 255
-36.156950245564694 -10.659301501990342 -32.264060989721202 127 108 94 255
-35.242330025546160 -12.714292081586393 -35.020241636174234 206 168 152 255
-34.472393934723023 -14.313535630124250 -37.384500843630093 205 162 146 255
-34.060901031951452 -14.745284158889717 -38.790861889990879 205 158 140 255
-33.864083863046410 -14.473226233760585 -39.625060802055685 201 150 133 255
-33.857523898847866 -13.570723560489427 -39.954439357874918 180 131 114 255
-33.921997361384449 -12.429163772357697 -40.096565887085347 162 116 93 255
-34.080983904210477 -10.967134299412720 -39.990368171545441 142 99 74 255
-34.334187594100491 -9.182093959651127 -39.637825184254979 125 88 58 255
-34.563053613025183 -7.471149363544072 -39.352051849749301 109 77 42 255
-35.074808991861381 -4.793101188661012 -38.325741846636191 95 77 39 255
-35.939370569709020 -0.899272657002200 -36.379134950272231 66 71 28 255
-39.754859298238607 -15.580623259742083 -13.525032005500492 161 120 98 255
-39.166750783169313 -16.423639142677359 -15.483078283759482 157 110 93 255
-38.892325968264565 -16.311106613390450 -16.566747475978190 161 115 95 255
-38.714379821307922 -15.904438464250973 -17.381468920889233 197 151 127 255
-38.584612537559032 -15.350332329245049 -18.062002948544006 197 151 128 255
-38.550832433093397 -14.497840733376506 -18.476899198186942 183 135 111 255
-38.492979453228379 -13.719658765472303 -18.958423711933136 183 133 110 255
-38.458985352442717 -12.865901716019863 -19.374298454696657 178 127 106 255
-38.448777132886057 -11.935932846818361 -19.725019414301045 165 116 96 255
-38.533918056077873 -10.702057892535521 -19.814402352617634 145 98 78 255
-38.499426234285671 -9.844813355277751 -20.232983402407370 130 84 65 255
-38.512478892155578 -8.834610788908066 -20.521676715503958 110 70 52 255
-38.477710612621912 -7.975467651418882 -20.941730511172210 83 52 33 255
-38.823307274002140 -5.891029994001542 -20.323972897537516 45 27 10 255
-39.120491331041059 -3.952560467316175 -19.841540800164097 10 0 0 255
-39.440603244688283 -1.930455946862537 -19.299736472724959 4 0 0 255
-39.107364610607526 -1.037666571822967 -20.866470531755198 0 3 0 255
-38.503358938647544 -2.029179584885753 -22.833322079806464 2 1 0 255
-37.120606958289507 -5.597772383301788 -26.901785969759942 7 0 0 255
-35.339265308041128 -10.516117904113827 -32.035636637479428 164 141 128 255
-34.363265330661754 -12.805227663963024 -34.983988277055943 202 159 145 255
-33.718943473554482 -14.012342325866200 -37.031936147215532 205 159 144 255
-33.358196455261286 -14.285869045411317 -38.312909000990146 203 156 138 255
-33.186104291691557 -13.933645805605323 -39.085179836358890 192 143 126 255
-33.131625903991171 -13.187823014302353 -39.541462962543022 175 127 108 255
-33.264764672055954 -11.807351662005829 -39.495973804433532 156 110 86 255
-33.561494419795771 -9.866651061969151 -39.015258768027792 136 94 68 255
-33.951071408062994 -7.600416307067462 -38.290050566330223 115 83 52 255
-34.456583485855070 -4.926181912974073 -37.260068698636275 92 72 38 255
-35.194454925888557 -1.440087942367711 -35.617316405849067 69 75 33 255
-39.143366897815760 -14.709187033810764 -12.614959389434262 182 145 121 255
-38.274928988413414 -16.437320773656836 -15.378660289800479 196 149 131 255
-37.955110187911977 -16.473114913946972 -16.596106236759141 201 155 135 255
-37.778312435086868 -16.066826333632463 -17.410647972443655 198 152 128 255
-37.625422973430894 -15.587728655163460 -18.157357277919743 189 142 118 255
-37.638624298108390 -14.586190752667505 -18.439212594340461 184 137 111 255
-37.580553599309546 -13.808198889401154 -18.920563889161940 183 133 110 255
-37.617053038817978 -12.728865478254988 -19.138466902197649 177 127 104 255
-37.606016636141767 -11.798459462107189 -19.489446720242995 158 110 89 255
-37.783697485173370 -10.261437205506724 -19.316596627930039 135 88 68 255
-37.748547454569284 -9.402904185429009 -19.736127766783767 121 78 58 255
-37.760405320813369 -8.391422356539550 -20.025707561863186 111 73 54 255
-37.701443027212783 -7.607311645797694 -20.511805186891337 78 49 29 255
-38.042112906292608 -5.521865598475017 -19.894328129932887 36 17 1 255
-38.311420619409567 -3.659123592100514 -19.477003597052430 8 0 0 255
-38.392280303621227 -2.405771965126235 -19.581342933380085 7 3 0 255
-38.027478080652550 -2.615741591071014 -20.912162757274814 0 2 0 255
-38.014448672673758 -1.670224838284071 -21.274885741972895 0 3 0 255
-37.439960109474960 -2.585739726840927 -23.177015965864371 2 1 0 255
-35.721723047442801 -7.322632314836085 -28.205150894799146 8 0 0 255
-34.520387700615125 -10.372974428089719 -31.807055379692059 210 183 171 255
-33.507933813891817 -12.817951822660319 -34.884157255722869 205 161 146 255
-32.870077680268544 -14.024960710485573 -36.932867364410868 205 159 144 255
-32.582368257495354 -14.062477784112730 -38.024388032473524 199 152 134 255
-32.481018719314328 -13.473006874039584 -38.607945082485315 185 136 119 255
-32.565436094110375 -12.251462892116649 -38.687498499208999 169 120 103 255
-32.788648215330092 -10.551334920529939 -38.392576029400374 149 104 80 255
-33.173375620735790 -8.289313052192369 -37.663526547090555 127 89 63 255
-33.580259130440659 -5.939210247416042 -36.878540503560515 104 79 48 255
-34.263494854505161 -2.621255564197327 -35.352923614748477 75 69 33 255
-38.148255601847346 -15.018123258904609 -12.777889261421052 199 165 137 255
-37.430039902509613 -16.303071679529694 -15.140313843785663 193 145 125 255
-37.089368004783928 -16.412560276529319 -16.425212558083416 201 150 131 255
-37.007606384028769 -15.708400901849757 -16.973609611738453 198 142 125 255
-36.831960071526730 -15.302816044472507 -17.787715557599853 191 135 118 255
-36.820574825276232 -14.375245650301224 -18.136415836858248 181 131 110 255
-36.738772644693746 -13.671634886453489 -18.684374692116052 176 127 104 255
-36.797299140645357 -12.516618569239654 -18.836520973019816 166 118 95 255
-36.785410931200879 -11.585563094977715 -19.187925104680090 139 93 70 255
-36.890066943842989 -10.274958169047011 -19.212115892472809 131 85 64 255
-36.807773844707533 -9.568190635054918 -19.762520176723996 135 90 71 255
-36.935098288877235 -8.176615955083690 -19.725203349480665 115 76 58 255
-36.968893021292168 -7.086593320846447 -19.951277495887837 69 40 21 255
-37.258101241522048 -5.152768142430489 -19.464334741041455 38 16 1 255
-37.221450721323443 -4.286613174814875 -19.889737233160901 18 4 0 255
-37.115110570056878 -3.650577441131418 -20.509602491397629 7 1 0 255
-36.429590972881904 -4.944160062686024 -22.740696678135123 1 1 0 255
-37.018273839428396 -1.993244453748218 -21.426564278462195 0 2 0 255
-37.004412986459620 -1.047413075242559 -21.789448867099964 2 1 0 255
-35.327589610971991 -5.701972023821952 -26.759122291854993 12 0 0 255
-33.538828533789321 -10.775951036041675 -32.024955547537587 223 191 179 255
-32.698575718138962 -12.674254393339311 -34.657013231359116 205 162 148 255
-32.205259941151503 -13.410122796131873 -36.325962767877712 201 155 139 255
-31.988781980985301 -13.209959003606997 -37.229163604147431 197 150 132 255
-31.956368763560683 -12.381569478716415 -37.625138986638120 185 137 117 255
-32.153319673769182 -10.761728153017970 -37.391887398948455 162 115 95 255
-32.372601541804492 -9.057622401690594 -37.099698806799182 137 92 69 255
-32.820210646394479 -6.553169909497143 -36.185210167118498 120 85 58 255
-33.403918600992121 -3.560842680107783 -34.903311528989633 93 75 42 255
-37.038666435845535 -15.695859419615317 -13.276752020586542 198 168 139 255
-36.397763306433269 -16.760657099082977 -15.437628953580315 201 153 133 255
-36.106713062352931 -16.722972998836070 -16.588281831741739 201 149 131 255
-36.117963959837446 -15.722038623545274 -16.869455072647867 197 138 122 255
-36.059404092296468 -14.943351275339239 -17.351305146108558 184 127 108 255
-36.047117874092983 -14.014703688628742 -17.700762909657612 171 119 98 255
-36.011515635988964 -13.159931342411596 -18.117271961725208 165 113 91 255
-35.998918271395645 -12.229174198040880 -18.468365694278617 142 92 69 255
-35.893762034974181 -11.599102361648477 -19.083637864002355 129 83 60 255
-35.904005541218716 -10.591201208890425 -19.370215980308700 137 92 71 255
-35.867938159996605 -9.733488176340586 -19.789002247928295 127 82 62 255
-36.131069604043667 -7.885763017643512 -19.359151453425653 102 62 46 255
-36.324448166919744 -6.260717004977096 -19.129641767739827 52 22 5 255
-36.563170267145374 -4.477647759639467 -18.774019846380412 38 17 3 255
-36.227442674331989 -4.607126196674756 -20.043625844476082 19 6 0 255
-35.571297518163696 -5.818646391053392 -22.214780492622367 5 0 0 255
-36.702610585829895 -1.022471837551791 -19.346788838315518 1 2 0 255
-35.803923255391489 -2.069522794885586 -22.518107451222960 4 0 0 255
-34.351406892835151 -6.026389194947797 -26.911793544213282 64 48 43 255
-32.879053986514556 -10.086812257100235 -31.349418603518330 209 172 162 255
-31.956357668053577 -12.295941272803816 -34.238695483593602 210 164 151 255
-31.558785985262297 -12.716943394861744 -35.655017773753372 197 151 132 255
-31.298270309885687 -12.672125455622904 -36.686585651550018 191 142 125 255
-31.446796285532720 -11.211414426522339 -36.578247240692207 174 126 106 255
-31.594829802243801 -9.746570021039446 -36.473126575796272 151 106 83 255
-31.923596120539521 -7.643365063822984 -35.868447238976529 128 86 61 255
-32.341989727628025 -5.214678057231311 -35.018895590688629 107 77 48 255
-33.120957521565323 -1.501546880244007 -33.176241857311879 83 70 36 255
-36.233115332915453 -15.414704561193872 -12.902869335195163 208 184 154 255
-35.575585513998753 -16.552491573007501 -15.132200335167681 192 150 129 255
-35.309884448654081 -16.439920550927297 -16.216815525807874 195 144 127 255
-35.434756013110679 -15.066148932658166 -16.165159356929053 182 119 104 255
-35.398662744726984 -14.210917636299598 -16.581979897337447 166 103 86 255
-35.408256929184496 -13.205310473428540 -16.866675361490877 157 101 82 255
-35.303238552058595 -12.573280512052065 -17.483510842419378 143 88 67 255
-35.289667830437644 -11.640810976155478 -17.835856893905571 126 76 53 255
-35.161783005567791 -11.084468794599445 -18.518357158394139 138 92 69 255
-35.056785201143221 -10.453422079906147 -19.134417067305151 141 96 75 255
-35.042942169654118 -9.519387981711418 -19.487972081762564 126 83 65 255
-35.324758270817902 -7.594970996077677 -18.992811811649233 81 43 25 255
-35.605770438467381 -5.663877895249470 -18.502847860852370 48 19 3 255
-35.681624832946731 -4.414778520622690 -18.603298437589530 50 29 15 255
-35.439582966549473 -4.237057644809170 -19.613996726203965 22 11 0 255
-35.447100623407984 -3.216050387514599 -19.910655468403803 5 1 0 255
-32.880978030728990 -8.062209886704579 -28.473414597512345 160 137 124 255
-31.876333647595580 -10.567821620333177 -31.631307687384975 208 169 156 255
-31.211339125631262 -11.917695210238122 -33.820030784463341 205 157 142 255
-30.884882835614611 -12.102289945856569 -35.047013760973499 196 149 129 255
-30.716182417979063 -11.741179732058356 -35.826670000263618 187 139 119 255
-30.794456118578090 -10.514510727546906 -35.909632446927191 164 117 95 255
-30.939614034038620 -9.047792742638165 -35.805691958629865 139 96 72 255
-31.330511977193176 -6.704924362390500 -35.013305936718240 113 76 49 255
-31.899255425556341 -3.717376241130069 -33.726056592533126 95 70 39 255
-34.978988494850888 -15.604722154662369 -14.156136887996354 186 151 129 255
-34.692436258408044 -15.563503050131260 -15.310057956050969 157 113 94 255
-34.814624002030605 -14.187189309574336 -15.260130896820812 144 85 69 255
-34.868366592702749 -13.030974591334115 -15.412723024750107 153 92 74 255
-34.785981708629215 -12.321220488187464 -15.965480000745572 136 79 60 255
-34.658356113446253 -11.761639079569989 -16.650569643743921 117 62 41 255
-34.530810472804099 -11.203023772664551 -17.334903508181924 124 72 50 255
-34.358223846935225 -10.796281008919067 -18.150246449866671 174 126 104 255
-34.275963721828724 -10.088691762455426 -18.701304155060967 170 122 102 255
-34.306246659611325 -9.001829988388607 -18.924509555443734 111 67 50 255
-34.651086138622894 -6.847700008737547 -18.233865571955761 65 28 10 255
-34.815275777574236 -5.296040628601247 -18.071177298145841 57 28 10 255
-34.754534294359736 -4.504976363787989 -18.562588339408705 55 34 19 255
-34.559255431535995 -4.173966549469299 -19.443578619574680 27 11 0 255
-34.811977127265727 -2.306416574274124 -19.028316416128717 7 0 0 255
-35.041585591926257 -0.509771450813673 -18.682476309839359 4 3 0 255
-34.443961945790910 -1.569742693579201 -20.723780696880482 9 5 0 255
-33.579701083506798 -3.570488148507195 -23.528153476681780 13 0 0 255
-31.803304735575544 -8.775466997004344 -28.947530448229543 211 182 165 255
-31.054832392530066 -10.424817354321107 -31.402340966940926 202 158 143 255
-30.507999556136788 -11.383095049742252 -33.273548999549774 203 152 137 255
-30.362076159922829 -10.938767146100275 -33.993487098547490 199 150 129 255
-30.238491483535505 -10.417183317473445 -34.648945404999694 184 134 113 255
-30.270166664880300 -9.344626144592070 -34.860982228404822 158 113 88 255
-30.390160837531347 -7.953822215497212 -34.822286443796287 129 89 62 255
-30.752992332794413 -5.687337036625365 -34.094469402728208 111 78 47 255
-31.247389016068574 -2.935593327842128 -32.996697183942871 97 72 42 255
-39.937270782675647 -1.596152558977280 5.074649100589937 141 117 82 255
-39.443189524591567 -2.151447808330715 3.262949661858187 126 105 73 255
-39.333125205949621 -1.468022315884070 2.605990773395973 122 95 71 255
-35.925349171157897 -9.553745495521355 -8.551223942204899 28 0 0 255
-34.764049712204390 -12.387816215290485 -12.328397093845780 26 0 0 255
-34.613801537185573 -11.895010876036594 -13.086226122889542 172 121 102 255
-34.396506011294285 -11.627395374334441 -14.042694290686853 130 76 56 255
-34.179485544091499 -11.362447245430332 -14.997081479982228 138 81 62 255
-33.784007097111974 -11.700360142808648 -16.479345592312086 172 117 96 255
-33.723957550450173 -10.915789010814649 -16.965693296148942 190 138 116 255
-33.552379128625070 -10.508155934643412 -17.781846269847023 175 124 103 255
-33.492320742032682 -9.724032391505943 -18.267839010901071 139 88 69 255
-33.521170255518435 -8.636106899746039 -18.491735356711075 94 48 28 255
-33.727506123323373 -6.937487798552809 -18.193848245790093 64 24 6 255
-33.866606120964612 -5.462363014026380 -18.095921616330401 61 29 10 255
-33.894355488024097 -4.365665042706325 -18.326641382051434 62 32 17 255
-33.788981432779401 -3.727300451265307 -18.948450117552937 33 10 0 255
-33.993321906852636 -2.012390172752134 -18.663239630767492 14 0 0 255
-33.534164586976949 -2.606494134297748 -20.319974967543402 13 0 0 255
-32.921348678886609 -3.749441402410639 -22.421984662401769 21 5 2 255
-31.802666318756856 -6.686821574649343 -25.993982134657045 86 62 46 255
-30.862468119487581 -9.021981979671409 -29.037598206742160 204 170 150 255
-30.166150635728336 -10.515844058691954 -31.365006228120166 201 157 139 255
-29.800785183037171 -10.848580366535117 -32.726592945708177 201 152 133 255
-29.831100981891588 -9.775394078033884 -32.938984722457690 196 145 124 255
-29.861169702407274 -8.700197960311755 -33.152940308638335 177 126 105 255
-29.869095246964896 -7.701834390977325 -33.431731093114365 150 105 80 255
-30.008060633447634 -6.227556343290672 -33.333120582125332 124 87 57 255
-30.168383152375590 -4.669882881168576 -33.174783491585373 112 82 49 255
-30.568221077239862 -2.233397624401960 -32.329452718607342 102 72 43 255
-38.950834418428293 -3.785255316301573 5.758326361133044 180 150 121 255
-37.771186830066902 -5.547482523222527 1.519066140137767 161 127 101 255
-37.483955259151223 -5.456199063149313 0.325616329059471 152 119 95 255
-37.753890967908610 -3.535881708095872 0.825266174704382 141 109 86 255
-37.311153725766111 -3.961899734978886 -0.838213177781455 131 99 76 255
-37.224711916497064 -3.214929204514078 -1.419981932219599 127 92 70 255
-36.760906918697692 -3.725354027715355 -3.142418248579901 121 83 62 255
-35.034128485389395 -8.470817195001530 -8.674606885689712 117 74 53 255
-34.130413277640521 -10.495710403858027 -11.711603154141272 185 138 118 255
-33.737314985400765 -10.820764645221544 -13.204288036354626 187 136 115 255
-33.455375036832230 -10.777850025621717 -14.360034283801212 188 133 112 255
-32.997274564118463 -11.339039622523956 -16.042915228664725 188 132 112 255
-32.848672549567617 -10.854315546205612 -16.794524881967476 185 128 109 255
-32.612106318872385 -10.672764308769786 -17.808827584384773 172 119 100 255
-32.683857208028677 -9.435102324384275 -17.899800723451904 131 80 63 255
-32.667350120029290 -8.498064891563018 -18.255451732786696 85 39 22 255
-32.892128777229026 -6.722970826379139 -17.892058227573557 65 23 5 255
-32.918877996230172 -5.628700578642679 -18.120752741135647 69 31 12 255
-32.879667668266315 -4.761947011325447 -18.546360065260757 68 29 12 255
-32.752845346214464 -4.201339000048847 -19.232346036135169 30 0 0 255
-32.298347086875957 -4.795661769637945 -20.889397264613109 40 5 1 255
-31.691895905612519 -5.937316793027151 -22.993097076217566 125 95 77 255
-31.108424797897463 -7.011915359504741 -25.024316802183847 179 148 126 255
-30.743853500458123 -7.320714293296248 -26.404920914351777 192 158 137 255
-30.075388272013790 -8.724049336120146 -28.678925004062052 195 157 135 255
-29.451708489417605 -9.982963996058174 -30.815998668059621 202 158 137 255
-29.241615709510278 -9.766730818302960 -31.732580230017987 198 151 128 255
-29.291956143694527 -8.612172158883226 -31.883505390189811 190 140 117 255
-29.277039880811039 -7.691061946613246 -32.226725199706038 167 120 95 255
-29.305234138830777 -6.611112930688904 -32.444243522598157 144 102 73 255
-29.354787805185062 -5.450104099356508 -32.600188086387476 123 88 55 255
-29.404048573566861 -4.286661884068224 -32.758026675334520 112 85 49 255
-29.647009628896519 -2.405519108790202 -32.352491769240629 104 75 45 255
-35.961992172142352 -9.436845376528936 -0.715731437304186 166 127 104 255
-35.633975986273136 -9.498387457662801 -2.039883223690424 153 112 90 255
-35.901171662460762 -7.590965630120081 -1.529745674525572 136 97 75 255
-35.749526348190166 -7.069838490502235 -2.309830128680517 129 90 69 255
-35.685908269765029 -6.255995166947571 -2.818957114521282 123 86 64 255
-36.280779473229209 -3.229630930792553 -1.309288085177315 136 99 75 255
-34.812910041906811 -7.141799051981536 -6.120515423637613 127 85 63 255
-33.961400191854842 -9.004238570431824 -9.035624014945626 114 67 47 255
-33.199104482345057 -10.584166896401825 -11.671827731131657 168 119 97 255
-32.831680552244698 -10.834756945595899 -13.098174681742620 185 133 112 255
-32.595851204963417 -10.642171330378972 -14.121282721383636 201 146 125 255
-32.185912647102022 -11.052807842835307 -15.672438459331687 190 133 113 255
-32.016272839321410 -10.642425083742069 -16.490969840787898 184 127 108 255
-31.759793133268523 -10.535624537819814 -17.571988459740112 152 99 81 255
-31.764457572319891 -9.524503110787577 -17.860528238140176 114 63 46 255
-31.660381346191407 -8.891130286286909 -18.478524778631396 64 17 4 255
