ply
format ascii 1.0
element vertex 643
property float x
property float y
property float z
property uchar red
property uchar green
property uchar blue
property uchar alpha
end_header
-38.529260042702106 -16.028009408060399 -14.278514135511788 189 143 120 255
-37.860704966168896 -15.294534365615561 -14.387373046361446 152 103 80 255
-37.341709683973761 -14.427051644950524 -14.483869317570687 133 83 62 255
-35.706120511360041 -14.571562816330811 -14.671963239300247 107 60 38 255
-33.926607024239900 -14.857691590835543 -14.871390036448140 102 57 36 255
-27.335879064475762 -19.565988118610619 -15.463106664164840 221 182 159 255
-21.954411292126565 -23.219408214998680 -15.953914930324409 209 176 151 255
-17.848219944490353 -25.739130370475834 -16.339163060042637 203 171 148 255
-18.984250396403809 -23.410831139716777 -16.298118152418095 203 171 148 255
-14.677399171232565 -26.163507440327351 -16.697730383914422 199 167 144 255
-14.857883286352205 -24.728678882914465 -16.733944452101461 200 168 145 255
-14.888954498390575 -23.428068008733760 -16.782443369944026 193 161 138 255
-13.458150373188545 -23.513064058883657 -16.948439425129678 188 156 133 255
-12.977793543204911 -22.697732088698871 -17.037984937933363 183 150 125 255
-13.078360309927376 -21.323006458212859 -17.081159469267337 181 149 124 255
-12.451262276535914 -20.645498548513160 -17.182507663765630 184 153 125 255
-11.896894063898714 -19.898224953801417 -17.278020740763630 181 151 122 255
-12.641517560335330 -17.881408717863678 -17.270621524489876 173 144 114 255
-14.820421910805550 -14.441798987255993 -17.150435480422058 163 136 102 255
-14.688312650517020 -13.256882688144572 -17.213437295540473 146 125 86 255
-14.697713161008380 -11.927105506826308 -17.265472112069773 131 114 73 255
-15.205238704149281 -10.094132668752366 -17.278685197777943 119 104 61 255
-16.992410314087977 -6.965540147100484 -17.192317473332327 104 92 50 255
-18.128291721957083 -4.469307410374427 -17.157683569441161 92 85 43 255
-19.824793279313553 -1.386312645214161 -17.080176195973507 75 73 35 255
-50.699043005656790 -10.523312488787184 -12.012283728965727 152 134 115 255
-47.823240202809700 -11.679026309168250 -12.315144907279979 199 173 156 255
-44.806837855686013 -12.980714184200821 -12.629313933145593 185 153 134 255
-42.851164336210559 -13.363815104593499 -12.850843446029312 177 142 122 255
-40.676796925318627 -13.955364983600901 -13.090700605646749 170 131 110 255
-39.928567528919132 -13.282162812581959 -13.207167622695589 154 113 91 255
-37.988458524724422 -13.686265949784399 -13.425920744518343 133 92 70 255
-36.277366910769842 -13.895850230100791 -13.624505021935079 91 49 27 255
-19.351129841895016 -25.467266457758143 -15.221484152169502 207 175 152 255
-16.505921358242716 -26.832042764701384 -15.512297150824459 203 171 148 255
-14.480046332488428 -27.456068270195544 -15.732761244080393 207 175 152 255
-13.561796488002443 -27.056971126336691 -15.858970599327819 208 176 153 255
-12.791726625786396 -26.522131621721883 -15.972507167482263 206 174 151 255
-11.438040459027633 -26.542559779139879 -16.135049297628949 199 167 144 255
-10.963041769120082 -25.734497921218718 -16.223463976381833 191 159 136 255
-10.997119075803909 -24.438445342310217 -16.269231195714227 189 154 131 255
-11.827277348728842 -22.370295964765546 -16.248665595369346 188 154 129 255
-10.912895606145753 -21.976443449474402 -16.374074979806998 187 156 128 255
-9.783385033124034 -21.795843541793488 -16.517206345325302 186 155 126 255
-9.594027209350003 -20.701861081403308 -16.582064624441731 177 146 117 255
-10.770248105820031 -18.261487344784655 -16.533996848414301 165 135 103 255
-11.508063650292883 -16.236630872503611 -16.522799033385219 149 124 86 255
-13.099726072397033 -13.349798898357932 -16.441758058629421 133 114 74 255
-15.039148851002466 -10.093017023141869 -16.332983812685097 117 101 59 255
-16.610838381933604 -7.179271336279612 -16.255343708188711 104 91 49 255
-17.603776622068267 -4.827350764092444 -16.225872959997155 90 83 41 255
-18.944646174937020 -2.105710759146120 -16.168639381911596 76 72 36 255
-46.433709006835272 -11.386436632292146 -11.459907910003377 95 83 62 255
-44.624942838138793 -11.631051414368585 -11.673481358098734 123 104 81 255
-42.821418500331561 -11.882739273678169 -11.886120065907484 144 118 95 255
-40.873833610807935 -12.275607789454199 -12.111222982162136 134 103 80 255
-40.123980019955752 -11.600085987997062 -12.228539546209021 117 83 58 255
-36.030068251517775 -13.962546768610224 -12.644654998458304 125 89 65 255
-20.561550078887706 -25.473806155680080 -14.121040796256104 213 178 156 255
-17.932467526511118 -26.624889372016128 -14.401765039002136 208 173 151 255
-14.944098414239704 -28.130079405343821 -14.713547064928473 210 178 157 255
-13.216311883405325 -28.483916386038885 -14.912889338673011 216 184 162 255
-12.007280928069946 -28.363254732486809 -15.065973344140541 220 188 166 255
-10.947627899170072 -28.108592094487761 -15.205624550402625 220 188 166 255
-10.255491536561777 -27.510927843279887 -15.312750836455070 215 183 161 255
-10.001324613760517 -26.497548258614472 -15.381378596495328 205 173 151 255
-9.673233010360008 -25.552206761095050 -15.456558876318322 200 165 143 255
-9.489356454930771 -24.465904119156505 -15.519199102749916 194 160 135 255
-8.218100348396433 -24.429076201507314 -15.676710577701705 191 157 132 255
-7.600212080483573 -23.763838047858059 -15.777105148952472 191 157 130 255
-7.631335228026956 -22.464317046903034 -15.821134568131193 180 146 118 255
-8.307114683184722 -20.524642429780243 -15.809550056615912 169 135 105 255
-8.762263282799069 -18.790613331334072 -15.817468687280758 154 124 90 255
-10.859397212362808 -15.413256190576703 -15.684235523738586 140 116 78 255
-14.230282043061294 -10.734610462282404 -15.442475680188348 120 99 60 255
-15.516963723439375 -8.109294998845570 -15.381038666571360 103 87 46 255
-16.510959161292419 -5.760178248365264 -15.345355592531607 87 76 36 255
-18.703909357540425 -2.176631777318562 -15.207868239771383 75 70 34 255
-43.981227651432050 -9.324532910311916 -10.805041684913490 166 141 114 255
-35.634312259849651 -14.164256125086013 -11.679081182024461 209 177 152 255
-16.884402051825845 -27.441838944246257 -13.556966666367192 207 172 150 255
-13.825888188352735 -29.017994068934740 -13.884133117532315 216 184 162 255
-12.174424677111688 -29.306070597346235 -14.080687654900007 221 189 168 255
-10.674505869001479 -29.463193782625126 -14.262881127116810 223 191 170 255
-9.764063060453253 -29.073971904062944 -14.390581328597690 225 193 172 255
-9.074278035636326 -28.479340056107844 -14.497902292060633 225 193 172 255
-8.895006468245811 -27.399541470747124 -14.558451646085221 217 185 164 255
-8.205541192317611 -26.805349828620621 -14.665677313053081 210 175 153 255
-7.081778214077417 -26.631452550317590 -14.812388788029992 203 169 144 255
-6.033022947323531 -26.391049658956717 -14.952043717187760 198 164 139 255
-5.852786116333419 -25.309967567709407 -15.012682210310142 196 161 135 255
-6.247179476400504 -23.662526820980077 -15.021393277366649 185 149 123 255
-6.637463641520270 -22.009550954941659 -15.030794978459390 175 138 110 255
-7.310429816433327 -20.067152287609701 -15.015023324636203 163 131 98 255
-8.550288567481857 -17.547964416277466 -14.948659338293499 146 119 82 255
-11.709291794067980 -13.090032436176699 -14.710573770556309 123 99 61 255
-14.139483200224106 -9.325871655084654 -14.539171065841241 105 86 46 255
-16.414122438446981 -5.687271733897887 -14.382778449222194 88 73 35 255
-18.534180915832366 -2.175542157976793 -14.241228317103296 75 70 33 255
-31.155977863909186 -18.077922714079563 -11.110008544521580 213 183 157 255
-20.455645188943038 -25.268553600241177 -12.230959312830642 214 182 157 255
-16.279975739012116 -27.849968457405055 -12.675961624028687 221 189 164 255
-12.856092274236346 -29.769226932831828 -13.047496310894090 219 187 166 255
-10.766553304190694 -30.471160187769129 -13.290071521251424 222 189 170 255
-9.343254203702486 -30.563176084222903 -13.468318571138223 224 191 172 255
-8.728039259692395 -29.901365825770426 -13.569020891152061 224 191 172 255
-8.113224482268322 -29.240099490946562 -13.669634541744106 224 191 172 255
-7.862710405159959 -28.232129069994869 -13.735510735010145 225 192 173 255
-6.666945467580433 -28.128208123880995 -13.891301791157701 223 188 166 255
-5.691538484988570 -27.818662594603637 -14.025936250436342 216 180 158 255
-4.790446258534530 -27.441740466062669 -14.153357579788040 206 170 146 255
-4.756660832220234 -26.223265500457273 -14.198648924423154 200 163 137 255
-5.152537220599385 -24.578635223184051 -14.203555743734082 190 152 127 255
-5.544304404058096 -22.928469520438767 -14.209154479056242 181 143 117 255
-6.433515254613098 -20.775960963031082 -14.168301958090165 171 137 106 255
-7.244874203125249 -18.686068939406255 -14.135237379127439 149 118 85 255
-9.548073969645770 -15.088479797425435 -13.962937601980734 131 105 70 255
-12.905961287088530 -10.399254251600638 -13.693061766895518 107 84 47 255
-15.465152902627779 -6.476520189913685 -13.499069623719478 92 72 35 255
-18.293632231852712 -2.246560583919631 -13.281107888586401 75 65 30 255
-31.556027430127187 -20.185855523663889 -9.997984060124310 206 180 157 255
-26.736344197427798 -23.235945641415356 -10.525045672125380 208 178 154 255
-25.421947425193139 -23.138969906183604 -10.698716915117991 211 181 157 255
-23.888778726790747 -23.249576056309110 -10.894061477381666 213 183 159 255
-18.297387138892532 -27.101855775640701 -11.495331646685351 221 189 166 255
-14.496897105660679 -29.348430069217244 -11.915971501281163 225 193 170 255
-12.549210873148553 -29.905247356972552 -12.150658268486318 224 190 169 255
-10.681117698577054 -30.401867706971444 -12.376939735246545 225 190 170 255
-9.331436510654896 -30.424856182010444 -12.551205559111395 224 189 169 255
-8.862053745420184 -29.624566160726431 -12.637770406010681 221 186 166 255
-7.809272039373866 -29.377809112247405 -12.782171801325205 220 185 165 255
-7.195226222773726 -28.717509494403970 -12.882958343235753 220 185 165 255
-5.710728749795862 -28.893771400206248 -13.069706271625261 218 183 161 255
-5.099427475908271 -28.237179864493100 -13.169982724512614 218 182 160 255
-3.910544410556497 -28.141963115681193 -13.327091503685963 211 175 151 255
-3.805954453721569 -26.995969241284456 -13.377360687391143 207 170 145 255
-3.987214935567181 -25.565329833316383 -13.399696191835943 201 161 136 255
-4.524155617670743 -23.776681317823176 -13.387400974167871 193 155 129 255
-5.414358641550848 -21.626764239716948 -13.340892688338698 179 142 113 255
-5.798106961008727 -19.966607063123746 -13.344296480731806 161 127 96 255
-8.387444887541932 -16.087275936161006 -13.133010587875383 142 112 78 255
-11.318281287179076 -11.830817992577948 -12.889542259082564 121 95 60 255
-14.233412760248626 -7.553192786439695 -12.648768561314192 87 63 29 255
-17.203640998459406 -3.182347108684951 -12.403823994829484 71 51 18 255
-33.535425403610702 -19.566204075288169 -8.765166600982461 210 190 163 255
-28.407889314848376 -22.867400030548254 -9.340927023703834 211 181 158 255
-25.231987765584620 -24.446222535059178 -9.711804091310508 206 176 152 255
-23.698548401581093 -24.555625455600648 -9.910862078649792 209 179 155 255
-20.911755218928192 -25.821827754153077 -10.239911738951658 217 187 163 255
-17.470384668790814 -27.712538971599713 -10.636218870668451 220 188 165 255
-14.189003461132387 -29.484061839527726 -11.015039935159582 224 192 169 255
-12.169039358433054 -30.109665034442628 -11.262433685692784 222 188 167 255
-10.448939542471578 -30.469769012920864 -11.478359527588282 223 188 168 255
-9.465785927818530 -30.148977232525851 -11.617845082877217 223 188 168 255
-9.214732778999178 -29.140756821378460 -11.681729384406452 219 184 164 255
-8.161148146646781 -28.892463001880145 -11.828256719602273 217 182 162 255
-7.400645903655004 -28.369526582045296 -11.944491463672222 215 180 160 255
-5.625856048224676 -28.823361646542793 -12.164682727840386 215 180 158 255
-5.159164295933124 -28.026767950949761 -12.250482537908386 220 184 162 255
-3.825817811101416 -28.071093977466603 -12.424913339369574 218 180 157 255
-3.648742903647957 -26.995189177372936 -12.481004707501555 213 173 148 255
-3.038868370959165 -26.340457441177449 -12.581312677185171 206 166 141 255
-3.074856520856542 -25.049476884512757 -12.615832883617770 201 161 135 255
-3.537685472208807 -23.329297398501637 -12.607134845398406 190 150 124 255
-3.924692151794488 -21.674343220484502 -12.606431011977456 172 135 105 255
-4.734995187505348 -19.585411863713261 -12.563121499648592 163 130 97 255
-8.737502839902135 -14.265196512381578 -12.197346410660206 154 123 90 255
-17.939435761065965 -0.884993346302792 -11.391209820612076 101 82 52 255
-34.610519637811024 -21.077734325149322 -7.580097187723638 221 207 174 255
-32.530146702109391 -21.620580556220403 -7.843704769825859 224 198 173 255
-30.381731162473784 -22.239078399483816 -8.114230707533238 215 190 167 255
-28.165758976121936 -22.933882915752179 -8.391591259471152 215 181 163 255
-24.323375429228008 -25.118361683539490 -8.844047322167203 211 180 156 255
-21.680772031287859 -26.242281590428888 -9.166191033340901 214 182 159 255
-19.047292587169068 -27.378506874078766 -9.486734202969217 214 182 159 255
-17.455707350452997 -27.576074427077515 -9.694624672428553 215 180 158 255
-14.470174495642567 -29.074578279748636 -10.051882546652749 216 181 159 255
-12.817410950734285 -29.357055157014287 -10.265487610989432 219 184 164 255
-11.316138771376330 -29.509013252906783 -10.462525715879590 218 183 163 255
-10.477249618568635 -29.047564796187942 -10.588422386284151 221 186 166 255
-9.712691410930148 -28.518951497595026 -10.706272425371559 220 185 165 255
-8.439581722371543 -28.476384641565943 -10.878275503764556 220 185 165 255
-7.315058526932688 -28.299382385692525 -11.034216165997258 217 182 162 255
-5.540907510938467 -28.752990422144535 -11.259056639948625 218 182 160 255
-4.857059839356140 -28.165823977484365 -11.367707638191586 219 181 160 255
-3.668862355576124 -28.070368119846989 -11.529785983360959 216 178 155 255
-3.707529440192843 -26.783486701601873 -11.561710257679298 210 170 146 255
-2.809892767886254 -26.410245189965423 -11.692810948275934 208 166 142 255
-1.913955888540698 -26.039298580619175 -11.823602916909973 203 161 137 255
-1.520280031810131 -25.173832353254085 -11.901298545956347 196 156 130 255
-1.696826151012829 -23.738090157764873 -11.918970258017456 188 149 122 255
-2.724469529420048 -21.441222198717014 -11.847345468271293 182 147 117 255
-4.029208577089150 -18.848412408612660 -11.747087116151739 176 143 112 255
32.566714246837535 -1.316743081767925 -17.147540038542825 165 130 96 255
33.587206893566020 -1.280064903174150 -17.285147427468530 172 131 98 255
34.224196745885138 -0.756143168283927 -17.385368245510683 170 129 96 255
36.317127843328308 -0.780125452051095 -17.664776270553276 154 121 86 255
37.705917085708506 -1.251182777852364 -17.837174833536508 151 122 86 255
38.838811112576877 -1.397715905168809 -17.984613141749229 146 122 84 255
-34.963889006466104 -20.612433014717169 -6.547059231096025 227 199 178 255
-33.107398312190526 -20.953885525855185 -6.791176359304210 223 198 176 255
-29.765860551912340 -22.639568141126347 -7.201140403277989 220 189 168 255
-26.659464648313303 -24.140319081776624 -7.584056590105870 215 184 163 255
-22.079989950403217 -27.001436035829585 -8.130744547584758 217 183 163 255
-19.739411842519928 -27.861488871341209 -8.426649948374031 216 183 162 255
-18.441037553649636 -27.784188800223717 -8.605967783256546 212 177 157 255
-17.293412051017697 -27.575495696196526 -8.768292343581116 209 173 154 255
-15.559961180022981 -27.915543387138541 -8.995525679350209 210 175 155 255
-13.611559237525256 -28.467752942571138 -9.246268908006289 216 180 158 255
-12.035559796073755 -28.685447780520576 -9.455331437134276 219 183 161 255
-10.756463891847289 -28.634158423422036 -9.631222951714896 222 186 164 255
-9.699419330717603 -28.380287391556266 -9.782340962234926 225 189 167 255
-8.208198574190675 -28.544973482075335 -9.981238313084773 223 187 165 255
-7.374578053219352 -28.090374893410143 -10.107329875122176 220 184 162 255
-5.673173191008999 -28.473652556393546 -10.328898468617183 217 181 159 255
-4.771968685765103 -28.095262320123851 -10.462098205490399 217 179 158 255
-3.872461705995676 -27.719163989327399 -10.594989349986250 212 174 151 255
-3.837999427726629 -26.501502794605244 -10.632847711249745 209 169 144 255
-2.652816908327850 -26.409536283621833 -10.796920345533817 206 164 140 255
-1.040888374670658 -26.746143364217033 -11.007488737465881 204 163 139 255
0.208805562066004 -26.734526672033525 -11.178141358419268 200 160 134 255
0.100481293347542 -25.374746449773284 -11.200348130299538 199 160 133 255
-0.716418872433536 -23.297089250571247 -11.145486532115818 192 157 127 255
-0.888482810359562 -21.855931192255923 -11.161192580325814 187 154 123 255
-1.623946385100226 -19.835806160657228 -11.115840015916639 184 150 122 255
27.125165637752673 -0.990436086445868 -15.538889437227279 156 128 95 255
29.061052188724915 -2.061549817112848 -15.773411492971569 161 126 99 255
30.797122077319642 -2.900103175319032 -15.987021249881437 164 128 101 255
32.270746670076733 -3.423215192264877 -16.173433401090307 169 126 101 255
33.803408431194498 -4.034048732618601 -16.365514899229225 173 128 103 255
35.012118441116343 -4.245047163497418 -16.524307409432772 174 131 105 255
36.153646710150326 -4.379301476538558 -16.676032846918567 173 130 104 255
37.101611376699225 -4.272565774823477 -16.807926327880288 173 132 105 255
37.730909765916039 -3.758869790151209 -16.907443631234564 171 129 102 255
38.611952881107300 -3.575037883784034 -17.032320808536792 167 127 99 255
39.742824355619859 -3.723653270648867 -17.182227669469327 162 123 95 255
40.556475436234507 -3.463359017163555 -17.300008975557191 157 121 92 255
40.679509911824539 -2.293667282556839 -17.348361289565972 158 121 92 255
40.804405921182706 -1.121464575014215 -17.397041656251105 148 114 84 255
41.616609529730113 -0.863116866328767 -17.514593733129125 134 105 72 255
-38.003657672333077 -19.086752291615795 -5.164629456529269 215 206 172 255
-35.615838195800563 -19.881559692110102 -5.475520374800876 225 197 183 255
-24.337341184430386 -26.084390049490366 -6.880555425859576 215 188 167 255
-20.061737898138063 -28.682734259150379 -7.406784747012065 217 185 164 255
-18.318316963567952 -29.008304271610740 -7.640277011303461 216 181 162 255
-17.170833003974337 -28.799281174105147 -7.804854944909017 212 177 158 255
-16.541732096233204 -28.118361456993512 -7.909662207095625 213 176 157 255
-15.030866461673128 -28.255709489117180 -8.115693689408790 211 175 153 255
-13.377573461215832 -28.535550596089479 -8.337796501858996 210 174 152 255
-12.168345033286130 -28.410553598818638 -8.508711656461738 213 178 156 255
-10.669987026608482 -28.564775458528459 -8.712527479243271 221 187 162 255
-9.685977044703407 -28.241660217647535 -8.857273832697288 225 191 167 255
-8.413162174213454 -28.198201427597979 -9.034865262111492 224 189 165 255
-7.796554713621902 -27.534150319042453 -9.137398530573289 220 184 161 255
-6.022229576702586 -27.985346604943544 -9.371790649316040 217 180 158 255
-4.686803664248060 -28.024740342032032 -9.555892461184119 214 176 155 255
-3.571192101720271 -27.858726077203272 -9.714779211408736 205 167 146 255
-2.817739528544308 -27.344702955728792 -9.832377495163183 206 167 144 255
-1.706655736239412 -27.184799062024894 -9.990453281242132 208 166 143 255
0.403819469036591 -28.019087381526759 -10.261548459017583 208 167 144 255
1.221650517747577 -27.585532794488074 -10.385968371829946 205 164 141 255
1.610584670215189 -26.726690393360059 -10.461831763030030 201 164 138 255
1.218064813215221 -25.081603328405890 -10.449526007220761 198 163 136 255
1.538952999542374 -24.147251346870405 -10.517869086211608 195 160 133 255
2.002256000574420 -23.355408205984759 -10.602286375149085 192 157 130 255
1.900923538338020 -21.986770394496006 -10.623217123041790 182 148 120 255
1.661504685094229 -20.469793763480226 -10.628799201791640 173 139 111 255
25.785223483332771 -1.830838719027781 -14.441584222282032 150 122 92 255
28.116379724480964 -3.371171307842758 -14.724981457857950 154 121 93 255
29.857943671554324 -4.201104223048731 -14.944850042766852 153 118 90 255
31.014240553921070 -4.314806802133376 -15.101936789885585 155 119 93 255
32.616552855882361 -4.997968215866365 -15.306270871311249 156 119 93 255
33.829198842657149 -5.202952609084321 -15.468840022007129 159 118 93 255
35.102115452250644 -5.493932850584088 -15.637566624227127 161 117 94 255
35.670365991612812 -4.895149626756847 -15.731400821632693 158 119 94 255
37.127855789588580 -5.439047401442338 -15.919247177822704 158 121 96 255
38.200168635082832 -5.498715967519843 -16.066104911785619 156 118 97 255
39.269536490118895 -5.562353514402048 -16.212458694354613 156 115 95 255
39.516113293496062 -4.560976964559245 -16.272029672082990 154 110 91 255
40.392960506084222 -4.382406643554475 -16.397908814587538 156 113 94 255
41.016846712712493 -3.875861748970237 -16.497125148173573 156 114 95 255
41.890378091973417 -3.701758701778999 -16.622443414707043 157 117 94 255
42.449805845203997 -3.114859852549216 -16.714794722296165 157 120 96 255
43.133392281624793 -2.695076041195023 -16.820086152078130 148 115 89 255
43.257011074586842 -1.524955772035526 -16.866968513455554 140 109 81 255
-36.557428826936928 -20.211415063026806 -4.331295657755831 192 182 146 255
-34.248246487938161 -20.943519274829328 -4.639271766156881 224 195 179 255
-32.319560705563333 -21.352656267429779 -4.901386931218035 222 193 175 255
-26.153891809192714 -25.579411695702674 -5.668615041682965 220 191 170 255
-21.423768126215293 -28.564936540145140 -6.263418140826040 220 186 168 255
-19.305776325877957 -29.220439820418278 -6.546218646313235 217 185 164 255
-17.638351793024640 -29.480252865882335 -6.775038601036130 216 181 162 255
-16.639953570096168 -29.137327279417235 -6.924080661554378 214 178 159 255
-16.011706238994947 -28.457485054528661 -7.029060602302454 215 178 159 255
-15.016523853468613 -28.118902220471369 -7.177514095857859 214 176 155 255
-13.070394673838848 -28.671746648522088 -7.438488291295798 211 175 153 255
-11.423054128435695 -28.958655277414948 -7.663747770639940 208 173 151 255
-9.853619133839715 -29.183408072073064 -7.879511409913420 217 184 159 255
-9.453905319899008 -28.310117214577275 -7.956872356143251 224 192 167 255
-8.617674027454768 -27.851466117975377 -8.085746022379436 223 189 163 255
-8.000306457457299 -27.186315537879551 -8.188737682796894 219 183 158 255
-6.587653264160082 -27.288071325492183 -8.385315351239441 217 179 158 255
-5.178958064005172 -27.395166339386776 -8.581193784002700 212 174 153 255
-3.414157941014992 -27.858121554620823 -8.818670723769728 203 165 144 255
-1.726781655964203 -28.258270894367485 -9.046737902622219 206 165 143 255
-0.331414665888616 -28.383343666236613 -9.240268885872617 209 168 146 255
1.417636267680393 -28.867540313651858 -9.474980130758947 210 169 147 255
2.304708137313156 -28.507560952448785 -9.608542071683669 207 169 146 255
2.905255265573089 -27.865110625529439 -9.708518732956158 206 168 145 255
3.221212189550755 -26.937581190693777 -9.775245333713322 204 168 144 255
4.317764883874759 -26.796762161964466 -9.933016034314072 201 165 141 255
4.916591701327405 -26.156638756283087 -10.032661363102140 197 159 136 255
4.597710635841025 -24.580281604192010 -10.025518539829353 192 156 130 255
4.001005226735685 -22.709723716597011 -9.986297601532129 185 150 122 255
3.268884790184529 -20.687351962841092 -9.931637689541603 174 140 112 255
1.631458770369107 -17.712026263105230 -9.772336191655327 165 132 102 255
21.173014190836142 -1.399235131378475 -12.910239590245993 139 114 83 255
22.744584644699330 -1.955568798474985 -13.117999458001137 143 114 85 255
24.050546696891502 -2.201231210479648 -13.295802340028931 149 116 88 255
25.872084625695265 -3.089321211243941 -13.530817717907990 147 111 85 255
27.881466360583403 -4.225731982053276 -13.786338850969155 147 111 85 255
29.689545254820473 -5.131965356395028 -14.019031178946840 147 111 85 255
31.168849172520027 -5.645497616758917 -14.214837540524140 147 112 85 255
32.514675696955862 -6.004601374539561 -14.395550825537967 148 112 88 255
33.663849692816228 -6.127258553856677 -14.554239512325800 149 113 89 255
34.553835823404597 -5.930588582756172 -14.684082593666371 149 113 89 255
35.314192005811947 -5.574303238716965 -14.799498179190394 149 113 89 255
35.818564212422018 -4.894371503387333 -14.886622276129458 149 113 89 255
37.148339454078382 -5.275110468395326 -15.064576594703340 151 114 91 255
38.663901908075076 -5.906941946523432 -15.262684479799780 153 112 90 255
39.732033487167257 -5.971663111086883 -15.411374450362366 155 114 92 255
40.230057958816985 -5.300284979312153 -15.497417893051843 156 114 92 255
40.979453511075633 -4.958769963562702 -15.610963900176081 155 113 91 255
41.727509717753492 -4.619059296243222 -15.724283757894611 152 109 87 255
43.037077730112287 -5.027032803919667 -15.898775189045299 146 107 82 255
43.718644961708435 -4.609768827820517 -16.004602202941292 144 107 81 255
44.461418765965362 -4.277175199335090 -16.117027249793829 140 103 77 255
44.582268766142363 -3.111151584698177 -16.161838826803624 139 102 76 255
44.519287621508852 -1.691395923591017 -16.186846125806795 135 99 73 255
44.767834395553024 -0.687589700546937 -16.245768962266439 126 94 66 255
-36.310807128014858 -20.277196628590303 -3.359321861868430 181 187 142 255
-35.347696582315166 -19.814302816309038 -3.507805570921896 218 196 172 255
-25.094930858944508 -26.381023950508563 -4.828538966943938 216 189 168 255
-21.853934523241549 -28.028068653216934 -5.255699383079644 218 185 168 255
-19.217176022586301 -29.152726478854447 -5.608067742612960 219 185 165 255
-17.550294911572337 -29.412311595222917 -5.840994745174800 217 182 163 255
-16.404531450563525 -29.204574308592726 -6.009795889317431 214 177 159 255
-15.482168602981574 -28.796644764685027 -6.151095285966115 216 178 159 255
-14.414657068481262 -28.527285422170820 -6.310048431687740 213 175 154 255
-13.056452664024420 -28.534529953747210 -6.504392132463604 209 173 151 255
-11.336399531281131 -28.889574256125002 -6.742714486114792 210 175 153 255
-9.767462674825452 -29.114100509915659 -6.962319929716454 216 183 158 255
-9.076401861947573 -28.516644189846858 -7.074692480481680 220 188 163 255
-8.095621429967537 -28.197103679145044 -7.222287819963071 222 188 162 255
-7.624008946651799 -27.394128976825527 -7.307833234040444 220 184 158 255
-6.356983485531458 -27.357191663803633 -7.490036389797663 215 177 156 255
-4.804762645743949 -27.604269707046655 -7.706678509662193 207 169 148 255
-3.041249466805880 -28.067870933816067 -7.948695568673038 205 164 143 255
-0.996092470369035 -28.820275635677689 -8.224536586535912 208 167 145 255
-0.104083440283290 -28.453305657042733 -8.360416334258503 212 171 149 255
1.929928456646167 -29.220741522440278 -8.634302739779510 213 172 150 255
2.744635377863972 -28.790867178676166 -8.760506796213996 210 172 149 255
3.842599210406178 -28.647621212447092 -8.920815752182996 210 172 149 255
4.582905955662710 -28.150929852540514 -9.037848132038029 208 172 148 255
5.888846389097409 -28.228679219566402 -9.222949281453140 207 171 147 255
7.049799509121243 -28.167646309447974 -9.390400642339369 204 168 144 255
7.220564755172745 -27.101791985258330 -9.438646631378205 203 166 140 255
6.548615924218296 -25.166548595224810 -9.385757631917851 196 160 134 255
5.952244341746621 -23.296542476348549 -9.342212854356390 187 152 124 255
4.730658387638982 -20.765298939180241 -9.223995750415131 180 146 118 255
5.752856610149792 -20.557089863049015 -9.374839443181497 180 146 118 255
7.469789577910944 -21.083523094323738 -9.608642524369905 180 146 118 255
8.624771827078661 -21.030554613880327 -9.774995810273943 181 147 120 255
9.152281163510423 -20.319393390209854 -9.866286671781996 181 147 120 255
9.610468285897355 -19.534566038037326 -9.949298919687561 180 146 119 255
8.273198202885339 -16.825044123791969 -9.818464048627984 176 142 115 255
7.858134010424664 -1.842164888948844 -10.092551204630560 149 127 94 255
8.672246681708572 -1.413138416892423 -10.218448020271694 142 121 87 255
10.556582943869984 -2.215285052841921 -10.469937671268418 139 120 86 255
12.434399239515216 -3.026222183103016 -10.720296318730057 149 124 91 255
14.572316057921626 -4.155003790632691 -11.000761881859461 152 123 91 255
15.372551428908764 -3.744688739976368 -11.124245053724820 150 123 90 255
16.967411490342499 -4.268596264619930 -11.340532775884579 145 119 86 255
17.762963495668743 -3.864596080585272 -11.463201106971773 144 116 85 255
19.415306792158759 -4.478132824375678 -11.685708168465176 140 118 87 255
20.996252636404961 -5.020799604461502 -11.899584322928341 141 115 87 255
21.389513970040781 -4.156400979517059 -11.974983053268552 142 115 90 255
23.225031389916523 -5.024365583537190 -12.218011462170125 147 119 95 255
25.969254993456218 -7.007001637820338 -12.566141510235134 144 117 91 255
26.680934440407611 -6.548950558795951 -12.678016640236223 143 111 86 255
27.716823386977865 -6.489439137717426 -12.827371459965118 150 114 90 255
29.204303418697975 -6.990986764177279 -13.028800305792135 150 113 90 255
30.427970713450378 -7.179695056757737 -13.199477502251796 152 114 91 255
31.712604277644914 -7.453335816063202 -13.376981636053799 153 115 92 255
33.186547975869701 -7.973131186365976 -13.576073355760890 152 116 92 255
34.205854337530212 -7.935973769091845 -13.722566230977332 154 116 95 255
35.414795481932799 -8.144533156796683 -13.890703449505054 153 115 94 255
36.300486339856150 -7.953259304559367 -14.021528815487734 153 115 94 255
36.865329007701519 -7.358913862984764 -14.115457884639724 154 116 95 255
36.730059313976739 -5.870055009195937 -14.129207019502203 155 117 96 255
38.691800878761683 -7.069217258644301 -14.382932823126922 155 117 95 255
39.823333286961912 -7.215006867545185 -14.541415974265824 159 116 96 255
41.267257079865715 -7.775267287606340 -14.735339813297777 159 116 96 255
41.824721733989918 -7.190864163226422 -14.828011046396142 158 116 96 255
42.507427258038746 -6.771865391263020 -14.934910695953814 159 115 95 255
43.001158579777979 -6.106257720653815 -15.020287026184697 160 115 95 255
44.057257897687379 -6.186612331487481 -15.169465687229483 154 113 89 255
44.861096705598783 -5.938552869815254 -15.289894617149024 156 115 92 255
45.663283916935569 -5.692718606557008 -15.410043844507349 156 115 92 255
46.029734801772747 -4.864449847310823 -15.480866679358321 152 111 87 255
46.520481016295832 -4.202859667650159 -15.565756491008329 146 107 83 255
46.517636649613252 -2.869706701275902 -15.595033131596146 140 103 79 255
46.640369982610565 -1.701503331687093 -15.638599362306515 135 102 76 255
46.949098518269409 -0.783922009172045 -15.703186431094089 122 96 66 255
-28.850769613965269 -24.149821644869263 -3.357893916903770 217 192 168 255
-24.780536728426000 -26.514304195873507 -3.900687999915895 216 188 166 255
-21.689919200997736 -28.027668296607175 -4.318742710863134 218 185 166 255
-18.758403929795918 -29.421409059468346 -4.716136793791833 218 183 163 255
-17.092875279298823 -29.681856983781273 -4.953030690560887 216 181 162 255
-16.095525278463469 -29.339564315841329 -5.105303859121168 214 177 159 255
-15.394321792060310 -28.728280601003746 -5.220103317799001 214 176 157 255
-14.547094315658484 -28.254259923034141 -5.353264010001787 215 177 156 255
-13.335182669732404 -28.123898991530695 -5.532282375890247 211 175 153 255
-11.614914221731908 -28.477628074159952 -5.775124748339000 211 176 154 255
-9.681231801092963 -29.044830073426851 -6.044540177055030 214 181 156 255
-8.626475793682687 -28.792226165798894 -6.203214273021974 215 183 158 255
-7.864317920335480 -28.265846685532438 -6.325032154050504 221 187 161 255
-7.030807478625320 -27.810337273260927 -6.455737369565853 220 184 159 255
-5.981947443688512 -27.565690788672640 -6.613352736396561 213 175 153 255
-4.358792623270034 -27.883301556745209 -6.842753316975902 203 165 142 255
-2.812483487430029 -28.137453603704984 -7.062290524015339 205 167 144 255
-1.055507820132192 -28.608782289165276 -7.307926357430034 212 172 147 255
0.051534057959401 -28.452770600595215 -7.472111998936189 214 174 149 255
1.870250678241462 -29.007930161889078 -7.724959018933951 213 174 150 255
3.326707051078188 -29.216167134209769 -7.932346130891958 212 174 151 255
4.352211137777402 -29.003027124085662 -8.085835650388706 210 175 151 255
5.233467544089137 -28.650234365234382 -8.221249396464199 211 177 152 255
6.396178761743300 -28.586245941995372 -8.391565075321509 210 176 151 255
8.120922077708144 -29.101047015245172 -8.631542414054731 212 176 152 255
8.994491875220461 -28.758623798183805 -8.765595966630073 211 173 149 255
9.163301492800883 -27.695711512873316 -8.812167096341781 205 167 143 255
8.421750310974431 -25.688306258067541 -8.746023642189208 199 162 136 255
9.645443913339875 -25.709176439220244 -8.923397075114064 193 157 130 255
10.167597676102503 -25.005215754649981 -9.013846704007307 190 155 128 255
10.759318508191001 -24.374531441953877 -9.112878233116181 189 154 127 255
11.559123727417585 -23.964504121756903 -9.237564852677007 186 152 124 255
11.941509077925787 -23.114854783822267 -9.310701572455887 184 150 122 255
12.670335101600187 -22.633460097077176 -9.426538953093157 183 148 120 255
13.122029125335985 -21.857436938881875 -9.508206507054318 183 148 120 255
13.436235116200010 -20.932647011140517 -9.572972523286474 178 143 115 255
17.946551373224395 -19.529760435151530 -10.257054800218839 191 156 128 255
18.462727700188879 -18.833876531343947 -10.346389907690948 185 151 123 255
19.215269631468260 -11.972204830482525 -10.597295377682237 163 133 104 255
19.936696288750198 -11.500803616525531 -10.711773392407714 166 133 105 255
21.589569803381323 -12.112532655756297 -10.939152155072016 171 136 109 255
25.456879677327436 -12.745990987777219 -11.487603521319507 171 139 111 255
25.506949777809581 -11.509067855397092 -11.520379016772011 165 135 109 255
27.401731123282758 -12.462916588998155 -11.775815120275400 165 132 109 255
28.436300716481838 -12.404661934423871 -11.927224309424751 165 130 110 255
30.646948669608662 -13.767982337382620 -12.220075955919562 163 128 108 255
31.150731099797440 -13.088817579682740 -12.307221012468695 162 128 108 255
32.306073943626416 -13.201865522477107 -12.472631161453915 161 126 102 255
33.003097241288685 -12.763367293728606 -12.582870100121330 163 125 102 255
33.958453332044712 -12.644843132124294 -12.724019075330958 164 125 102 255
35.364274547157208 -13.088453837822016 -12.918981004217727 163 122 100 255
35.926719358320895 -12.497264411807066 -13.012830353142832 163 122 100 255
36.810584769299339 -12.308058359643439 -13.145059420787966 160 120 98 255
37.307228219922166 -11.638517070720127 -13.230973115123419 160 119 99 255
37.931883248733584 -11.130519293001015 -13.332143678936063 159 118 98 255
39.258546344736374 -11.513783773362519 -13.516863959051960 158 117 97 255
39.943737640060334 -11.091234332203925 -13.625066250814974 160 119 99 255
40.755025824492947 -10.832809452432230 -13.748195088360966 161 120 100 255
41.691453143779739 -10.739800249030225 -13.886085074771731 161 118 99 255
42.562329839549989 -10.568100998548744 -14.016083469599749 163 118 99 255
43.241969377801524 -10.153033246596294 -14.123337687313850 163 118 99 255
43.668888459389564 -9.410424299978473 -14.200656907736160 163 118 99 255
44.096065355398849 -8.667466818417779 -14.278024955962834 162 117 98 255
44.836525297972486 -8.337462479527346 -14.392368224340387 161 116 97 255
45.825428227723819 -8.340763989229117 -14.535915032809370 161 116 95 255
46.811718695742115 -8.347586308597727 -14.679014881231623 163 117 96 255
47.298397013072957 -7.691468745264274 -14.763251066831163 163 116 96 255
47.908955272957911 -7.202463800362239 -14.862033270713020 160 115 94 255
48.086185269815104 -6.128219522882404 -14.909974446575390 153 110 88 255
48.326612157974580 -5.135836205965973 -14.965409798015486 151 109 87 255
48.199354622005501 -3.636776953367360 -14.977916139618493 144 106 85 255
48.443209255006309 -2.639769262882339 -15.033958966431740 137 102 77 255
48.504801296157723 -1.387293059165529 -15.068814952015483 128 98 71 255
48.934635805543678 -0.640737092365953 -15.146711271173409 119 97 66 255
-24.689231550440468 -26.447106213061829 -2.944802299883854 218 187 163 255
-20.710453847932854 -28.764902724790687 -3.487989347994514 220 185 165 255
-18.004139014387590 -29.959216515099286 -3.864835505038975 219 184 164 255
-16.635849659368660 -29.951436648777047 -4.067171770252756 217 180 162 255
-15.860373471826392 -29.406880092680098 -4.192265487435925 214 176 158 255
-15.526858731089931 -28.456170769897824 -4.259884636228357 214 176 157 255
-14.459198806143092 -28.185703223388430 -4.422835413401693 217 176 156 255
-13.174386899315152 -28.123478474186186 -4.613840317477511 215 178 157 255
-11.600876626320428 -28.340039170627676 -4.842109441700906 216 181 159 255
-9.667767385246350 -28.906798648527541 -5.116740785210247 213 181 156 255
-8.685698145477090 -28.584734850456101 -5.267995914999346 212 180 155 255
-7.995715870408191 -27.988459648751331 -5.381375436883136 217 183 157 255
-7.161749859422571 -27.532071029825545 -5.513318651763399 218 182 156 255
-5.607216787760620 -27.774231078913289 -5.738236852417348 212 177 153 255
-4.129320837212248 -27.952714548705671 -5.953050848556966 204 168 144 255
-2.655706653416900 -28.136973333559183 -6.167111353780690 208 170 147 255
-0.899534769882422 -28.608296367268565 -6.417372195815652 211 174 148 255
0.636418402309801 -28.875516335472355 -6.639024899782843 213 176 150 255
2.524702880499063 -29.502733231089337 -6.905780969009246 214 176 152 255
4.121865870542507 -29.854436501426733 -7.134831207093782 213 177 153 255
5.074520148669421 -29.572055022682008 -7.280879587428437 213 177 153 255
5.883343475783477 -29.149585507902771 -7.408370931162839 211 177 152 255
7.115239941068864 -29.158740057899053 -7.590037228561187 211 177 152 255
8.837888341418562 -29.675275695735309 -7.834417977535402 214 178 154 255
10.062027281634073 -29.694893039287251 -8.014722103990650 214 176 153 255
10.650524192546385 -29.068470967673989 -8.113563461533868 210 172 149 255
11.028314385886489 -28.225120853069456 -8.185448916032740 205 167 144 255
11.896211305388562 -27.890021479563757 -8.319937969191503 202 165 140 255
12.692628994760469 -27.484290583755893 -8.445221291201296 196 160 134 255
13.139593033633560 -26.714686987188031 -8.525882918803397 193 158 132 255
13.656238274797005 -26.018142363704158 -8.615424059812192 191 157 130 255
13.964911753018384 -25.100982156892371 -8.678484419271474 188 154 127 255
14.827507253220261 -24.773038271018493 -8.812019338557079 188 152 126 255
15.688398110334703 -24.447394046974125 -8.945252477940880 188 152 126 255
16.478774802938773 -24.049816865067328 -9.069448576762639 188 151 125 255
17.405066433318012 -23.803003627127936 -9.210814524450100 190 150 124 255
18.397820247776309 -23.633588913059043 -9.360503626104226 191 154 127 255
19.183245522259284 -23.242691095865638 -9.483824834165645 194 157 130 255
20.103621725335870 -23.003856713234086 -9.624149660830483 198 161 134 255
21.293996164038617 -23.069018008801464 -9.798503907887159 201 161 135 255
21.870456080972474 -22.458845971039523 -9.895164295349687 197 157 131 255
22.175762124587948 -21.546238431880255 -9.957585623985420 186 149 122 255
22.684507946422400 -20.860358988625848 -10.045691524848092 184 149 121 255
23.260521805314227 -20.250791224424148 -10.142261942719742 182 147 119 255
23.365702233699466 -19.106991225519266 -10.179556407688626 183 147 121 255
24.478343900367747 -19.109955725852387 -10.343605100887508 182 148 121 255
25.654883269687019 -19.193775521655112 -10.515535463754755 183 147 123 255
26.027467933417626 -18.357469440015166 -10.586405445028277 183 145 122 255
26.467161954505372 -17.597688675980379 -10.665713730148397 183 145 122 255
28.500685290704723 -18.697143941134271 -10.944696426937458 182 145 121 255
29.930581393309325 -19.107396191772040 -11.147769446721156 182 145 121 255
30.695103706032285 -18.744690722552178 -11.267420528016537 181 144 120 255
31.392334732035863 -18.305706210075186 -11.378597418875920 177 138 115 255
32.022756496703096 -17.789792743781192 -11.481383838233626 178 137 117 255
33.046039114259031 -17.746233372011318 -11.633119443610987 177 135 117 255
33.870356431507503 -17.469914704891863 -11.759940177970702 176 134 117 255
34.562429939307151 -17.037884285309588 -11.870220180044129 171 132 112 255
35.188339866284196 -16.528054182249150 -11.972222572185750 169 129 107 255
35.813525458677958 -16.019200612881377 -12.074099511594483 169 128 106 255
37.021163552457097 -16.228097527002205 -12.248218242665502 170 128 106 255
38.031286131855438 -16.202280287197141 -12.397674450710770 171 127 106 255
38.716382031232996 -15.779656569026571 -12.506747584191704 171 128 107 255
39.143171227591836 -15.037275954924269 -12.583811525788335 169 126 104 255
39.826831383887964 -14.616587312754689 -12.692638462327917 168 122 104 255
40.445458945296735 -14.116573794178521 -12.793385508838867 167 121 102 255
41.127209415570462 -13.698458926497949 -12.901885309171945 173 128 109 255
41.935281463481772 -13.444039591170338 -13.025902126487718 168 123 104 255
42.805200169061408 -13.273239378829771 -13.157451287625889 168 123 104 255
43.863201833080240 -13.349869224625849 -13.312033140826532 165 120 101 255
44.602272191872629 -13.021474518246947 -13.427289409989740 164 119 100 255
45.024811892995217 -12.284818714188617 -13.503636053376709 164 119 100 255
45.321853186051726 -11.383356283245433 -13.564613995026789 165 120 101 255
45.619792067948623 -10.480682856866736 -13.625751261783286 165 120 101 255
46.168861202463660 -9.907440190715249 -13.717660401630205 166 121 102 255
47.029542662415082 -9.749087616715315 -13.847635218852169 167 120 100 255
47.826012993628524 -9.510301987311436 -13.969675458900888 168 120 100 255
48.248362204994720 -8.773897062853848 -14.046015067505827 167 119 99 255
48.732898545092098 -8.120651592743911 -14.129948841181335 163 115 95 255
49.155627303252999 -7.383732443806110 -14.206365238173284 159 114 93 255
49.640228267898806 -6.730397183522030 -14.290321858814927 154 111 89 255
49.879027537005243 -5.740444886510147 -14.344440082997949 153 114 93 255
49.935223666204422 -4.495672553929523 -14.376484297884062 144 108 86 255
49.871376241290591 -3.078738634210310 -14.394108219969862 138 102 78 255
50.054207934161610 -1.997235706034814 -14.441736158896934 123 93 65 255
-22.221915579126403 -28.518717837556835 -2.306943624165854 216 191 163 255
-19.583869228629965 -29.636281246853343 -2.682969845008600 220 187 164 255
-17.028871659858680 -30.698877107469428 -3.047497286354123 221 185 165 255
-15.884167623369962 -30.491014370375012 -3.222910505477536 217 179 161 255
-15.110126618376057 -29.948192833573785 -3.348629798704160 215 176 159 255
-14.924643392054435 -28.863364001478828 -3.395628626288620 217 179 160 255
-13.931561814421002 -28.526051009015077 -3.550551796165720 219 178 158 255
-12.428681648418433 -28.669996171267911 -3.773432813012690 219 181 160 255
-10.930079684037850 -28.819712137816992 -3.995559663231475 217 182 160 255
-9.726928807763272 -28.700006050513963 -4.178117755327300 217 184 159 255
-8.744659610932985 -28.377281205439715 -4.331119670696602 217 185 160 255
-7.981819264521107 -27.849578698763338 -4.454818033373108 216 182 156 255
-7.220029744204538 -27.323295300356648 -4.578323876715508 216 180 154 255
-5.665674499758950 -27.564796072174119 -4.807143292732199 210 176 151 255
-4.115923955295585 -27.812507518485660 -5.035153342763685 204 170 145 255
-2.283481474718741 -28.346848703657059 -5.300495856855751 209 173 147 255
-0.600260771458437 -28.748497031694654 -5.545790573528254 214 178 152 255
1.292213858491408 -29.368846106120543 -5.818602729292429 216 180 154 255
3.107130054714986 -29.926823787881716 -6.080875172762401 215 178 154 255
4.560256943872503 -30.137877386159545 -6.294998915041091 214 178 154 255
5.440961596998307 -29.785167467133874 -6.433208192428019 213 178 154 255
6.319964437323392 -29.434753913056312 -6.571113910810485 214 180 155 255
7.762825368072384 -29.659654351181274 -6.783431294383618 214 180 155 255
8.989802787471717 -29.674796362774543 -6.967063577929430 217 183 158 255
9.720856774127867 -29.189976793241300 -7.085128965448831 219 181 160 255
10.591275247554961 -28.851144203234554 -7.221514267059614 217 179 158 255
11.880292765101984 -28.949587459532353 -7.412962071171663 212 176 153 255
12.816226796216370 -28.689368473911372 -7.557773991130226 212 176 152 255
13.750134936350207 -28.431882431496092 -7.702227699171093 207 171 147 255
14.125479049238010 -27.591948042109266 -7.773173549066207 203 168 142 255
14.917810752742099 -27.191461924897197 -7.898903257801450 202 168 142 255
15.431779016993175 -26.498513840201440 -7.988035464185646 198 163 137 255
16.291074254202613 -26.174688601498616 -8.122445170181990 193 156 131 255
16.872971411320833 -25.557099771105925 -8.220425209461087 193 156 130 255
17.798264310271634 -25.311237425118236 -8.363348306273128 195 155 130 255
18.652929698575832 -24.993658091459309 -8.496938494296373 200 160 134 255
20.121859434796363 -25.350373239318600 -8.710763974642479 201 161 135 255
20.630269767519991 -24.664925985712500 -8.798899724998627 203 163 137 255
21.751659018083956 -24.655506141722810 -8.967048412685912 205 165 139 255
22.462307955350980 -24.198217770182993 -9.081485623954610 206 164 139 255
23.239695511561536 -23.817891662612141 -9.204571926358909 204 162 137 255
23.948065466257759 -23.363677739574939 -9.318605813079351 194 154 129 255
24.722853469408989 -22.986858170389809 -9.441233693126520 196 156 131 255
25.630894163073862 -22.764264725710802 -9.581125823331320 190 149 126 255
25.932514697408692 -21.856803141491412 -9.642133715560220 186 148 125 255
26.904953842315280 -21.714327489454263 -9.790267175236039 186 148 125 255
27.875052271933583 -21.575008258786312 -9.937992102889837 185 145 122 255
28.709463197253427 -21.284746959913889 -10.068024569121590 187 146 124 255
29.076583216905732 -20.455919809693427 -10.137459964817953 189 148 126 255
30.174136528505471 -20.478644149980084 -10.301440803290234 188 147 125 255
31.467289421526715 -20.738476433310836 -10.490579977409620 187 146 124 255
32.690470985909712 -20.925706156595652 -10.670503918243888 186 144 122 255
33.317188729341439 -20.414644166477103 -10.773270802099113 185 142 120 255
34.140311861358924 -20.139603562158328 -10.901336389100958 185 140 121 255
34.896193554729962 -19.788279801781187 -11.020660478570864 186 139 123 255
35.781488995727926 -19.596357154837108 -11.156586542286874 183 137 121 255
36.142929842827158 -18.775189130282740 -11.225027052329708 181 138 119 255
36.569997962438492 -18.032480760754993 -11.301928127055518 176 133 114 255
37.321855472770551 -17.686582733417424 -11.420553453390774 177 132 113 255
38.396101164715560 -17.740732286248885 -11.580487258343624 177 131 113 255
39.467383801789794 -17.798876501507692 -11.739908177000032 177 130 112 255
39.891404483456370 -17.060276343392275 -11.816282689201124 177 130 112 255
40.379937378891981 -16.401638870079182 -11.900925824412692 177 132 113 255
41.124833501292073 -16.065125307249730 -12.018348704316878 179 130 115 255
41.868374210938498 -15.730438764730735 -12.135538232730255 179 130 115 255
42.546771295887822 -15.316640179460677 -12.244352464031010 176 127 112 255
43.096876487711739 -14.741927717880799 -12.336760337969480 177 128 113 255
43.963941466231404 -14.574580915377680 -12.469538155445921 175 126 111 255
44.829018520921778 -14.409913653748902 -12.601974027811103 173 124 109 255
45.313208550819127 -13.757128008450820 -12.685878716283831 172 123 108 255
45.860323802468287 -13.186444156004740 -12.777779104856471 172 123 108 255
