ply
format ascii 1.0
element vertex 654
property float x
property float y
property float z
property uchar red
property uchar green
property uchar blue
property uchar alpha
end_header
-43.586994560339193 -5.944355836809578 -30.046360596617433 0 1 0 255
-45.618751604356191 -8.881876593579264 -37.979799511961460 0 2 0 255
-43.799935918656857 -3.257996348625582 -30.964016373848779 0 2 0 255
-44.523930103622490 -3.344774343439852 -33.815663458995402 0 3 0 255
-44.119776639400378 -2.002641073376594 -32.257521897498350 1 8 0 255
-43.640307722001694 -0.513221114839226 -30.405967365562418 0 5 0 255
-38.332156363506414 -17.656276608515356 -11.467054458639353 183 139 118 255
-39.035842388231671 -17.992670407959707 -14.215739221603627 191 145 122 255
-39.486520218522173 -17.983912782539988 -15.985779434302543 200 153 133 255
-39.861363580641473 -17.875945460878967 -17.462152144606534 200 154 136 255
-39.881818730439903 -17.264118401194281 -17.568709982527565 201 154 138 255
-40.028946702487382 -16.836934004970814 -18.164392901572484 191 144 128 255
-40.176151420149111 -16.412916232431414 -18.760009596381337 178 132 116 255
-40.374088494527676 -16.066812647132949 -19.551207125693736 171 125 109 255
-40.445465196333245 -15.536712705675001 -19.853222904849559 169 124 106 255
-40.415584707069300 -14.856468846882265 -19.763927034014984 166 123 104 255
-40.487090390357295 -14.328334056138075 -20.065865443099852 162 121 101 255
-40.584001029171567 -13.840173636291965 -20.465566698228542 154 113 93 255
-40.706323210921603 -13.392794153977960 -20.963019709981978 145 104 84 255
-40.828724712775568 -12.948001519693037 -21.460411209730296 151 108 89 255
-40.849844650257893 -12.348702766006838 -21.566546017475360 103 56 41 255
-40.896373807064279 -11.789354299243698 -21.770442013648903 110 58 44 255
-40.841598883805531 -11.071693513581650 -21.583129827779743 115 58 49 255
-41.014994035499882 -10.713564916283289 -22.275897223506291 154 97 88 255
-41.213827428916204 -10.399433876188638 -23.066371960016824 132 78 72 255
-41.362057777625139 -10.008226428596970 -23.661199739492702 110 60 55 255
-41.358273555828049 -9.374714610458867 -23.669290185234274 68 27 23 255
-41.379912295221757 -8.782197895901845 -23.775125132006963 45 22 14 255
-41.503041278925913 -8.355807853711141 -24.272006274568696 10 1 0 255
-41.955877642930830 -8.474213317691920 -26.039798788281956 2 0 0 255
-42.079204354905549 -8.056399630351152 -26.536505086755341 0 2 0 255
-42.202621092931722 -7.641100114437407 -27.033145834480734 0 3 0 255
-42.123251339587441 -6.888082647201514 -26.747662929129007 0 2 0 255
-42.196117402515711 -6.390016754903627 -27.048690881850263 0 2 0 255
-42.167621171108244 -5.721068397407095 -26.958663660586893 0 1 0 255
-42.900115545128045 -6.351668767750667 -29.801024189337284 0 2 0 255
-44.266892995789497 -8.088225930676032 -35.086753315940172 0 3 0 255
-43.145233517200253 -4.936339465470894 -30.800980718416866 0 4 0 255
-42.787399398361167 -3.697495204200862 -29.440131087403500 0 5 0 255
-42.734057560794199 -2.987221316929904 -29.252105287095389 0 3 0 255
-42.883766991248926 -2.635407574706235 -29.845875435507281 0 3 0 255
-43.439531032503261 -3.010611127621104 -32.003156793637316 0 3 0 255
-42.574540746189889 -0.848120787718557 -28.687884758243172 0 5 0 255
-36.424362892885213 -16.530068861222333 -6.744853612201894 189 150 125 255
-37.773801528985352 -17.732171559034782 -11.934221507144315 191 145 124 255
-38.305486892713184 -17.818843739092870 -13.995660980000252 193 148 125 255
-38.709481054285504 -17.736707565306872 -15.568269378206793 198 152 130 255
-39.113589942829137 -17.663162893831597 -17.140739785934500 198 151 131 255
-39.364397500514329 -17.378829970715799 -18.126728021744725 199 152 132 255
-39.487439131353405 -16.915668521569458 -18.624019778374389 189 142 122 255
-39.559405731358382 -16.380926566241740 -18.925819466450804 181 134 114 255
-39.708163181940144 -15.959846395518682 -19.520714172550498 175 128 108 255
-39.780266222510967 -15.428989012948222 -19.822413764303377 170 123 103 255
-39.775698383487118 -14.785913228528585 -19.830950259129224 162 120 96 255
-39.796768110912232 -14.180921739813570 -19.937164992728810 161 119 96 255
-39.869065285737904 -13.653277478810210 -20.238745551717585 159 118 94 255
-40.018187045374468 -13.243326721684937 -20.833365337461572 142 101 77 255
-40.116217493749218 -12.758508303861433 -21.232533538326180 140 97 74 255
-40.291089003981845 -12.393538522005883 -21.924711836530435 180 131 114 255
-40.312506308888565 -11.794986376111538 -22.030706514577588 170 118 104 255
-40.231622693984910 -11.037590992263105 -21.745942824854666 149 92 83 255
-40.150793576468551 -10.278422787960196 -21.461172755880284 152 97 88 255
-40.249188264247302 -9.799949612411154 -21.860114423479018 122 69 63 255
-40.373260868902960 -9.364110136717684 -22.356670356204489 87 39 33 255
-40.574214623183551 -9.053504076869174 -23.146164086167488 71 36 29 255
-40.775263954422634 -8.747065030158851 -23.935573084365785 42 22 13 255
-41.002011321123788 -8.486226344556599 -24.822557392134883 9 1 0 255
-41.433685734178397 -8.563769812501164 -26.490704258071986 1 1 0 255
-41.737460077902696 -8.440442400419570 -27.670437246400638 0 2 0 255
-41.913311899153250 -8.112165647020674 -28.361807591080407 0 3 0 255
-41.833180538436132 -7.362231223916254 -28.076633091844059 0 3 0 255
-41.855553685206303 -6.781639735015091 -28.182020063649134 0 2 0 255
-41.903617656376284 -6.244438091731411 -28.385007902924116 0 2 0 255
-42.387169133290946 -6.444896247571052 -30.247770384855926 0 3 0 255
-42.281745148672783 -5.652346691381382 -29.864809647248194 0 3 0 255
-41.763721326477352 -3.530068388577320 -27.927347844277875 2 8 0 255
-42.119605705770091 -3.526700459897526 -29.301622446271921 1 7 0 255
-42.424372119669897 -3.441285469892392 -30.480529913145972 1 4 0 255
-42.549917304042360 -3.047302987903493 -30.976006216083647 1 3 0 255
-42.726801648509756 -2.746258666101511 -31.666640951093058 0 2 0 255
-42.288875892503057 -1.356213199533897 -30.014547410836087 0 5 0 255
-37.190606337854042 -17.772575267456688 -12.303328665964301 192 144 125 255
-37.675874989005123 -17.788028774103594 -14.167195469109373 191 146 124 255
-37.954763608317293 -17.525544242939219 -15.249936598674708 200 153 132 255
-38.362822151570299 -17.450397763269478 -16.820662215378491 198 151 131 255
-38.745177559401291 -17.347278533013025 -18.293636625203249 193 146 126 255
-38.869449640630890 -16.883892076078283 -18.790382051146651 188 141 121 255
-38.942149791399984 -16.348930511718962 -19.091856900159343 182 135 115 255
-39.066560438951868 -15.890253404387693 -19.588492945559551 176 129 109 255
-39.139393143134498 -15.358908173296342 -19.889872142594783 168 121 101 255
-39.160637229112801 -14.753265623197549 -19.996015717814288 158 115 92 255
-39.104453175049663 -14.033512059995715 -19.809352955576287 155 113 89 255
-39.125811245794985 -13.427932859875057 -19.915445069576180 151 111 86 255
-39.173063818149643 -12.861507461603196 -20.119090055964250 143 101 77 255
-39.220382874329040 -12.296045791957823 -20.322695659179942 133 90 66 255
-39.474461484567072 -12.045678382582935 -21.306882166622842 171 122 104 255
-39.547769345869405 -11.523830793198016 -21.607953514056192 180 128 113 255
-39.543630232616458 -10.884043407161215 -21.616265620981181 129 75 63 255
-39.462029640570350 -10.123870542582523 -21.331849673956100 105 53 44 255
-39.509701183718349 -9.563674478023685 -21.535244896250077 99 50 44 255
-39.634981212202902 -9.126270511466885 -22.031278303675492 72 28 22 255
-39.812038861281749 -8.773199509432075 -22.722361629535783 44 14 7 255
-40.066733048432638 -8.547248073697872 -23.706026893110874 31 14 6 255
-40.269828899991879 -8.243671537553070 -24.494494503002784 11 3 0 255
-40.757387169960005 -8.403036844526056 -26.355885874268807 2 1 0 255
-41.451899541759964 -8.908361884953209 -28.997459436346162 0 2 0 255
-41.603620088987199 -8.540885339657493 -29.590491226072089 0 4 0 255
-41.109031735913142 -7.113396573902449 -27.745051830943709 0 3 0 255
-41.028182031645400 -6.360078127775239 -27.460231814257099 0 3 0 255
-41.154270608720360 -5.949437373091627 -27.955634215314035 0 2 0 255
-41.099429316819403 -5.237916696756542 -27.768289559184751 0 2 0 255
-41.742921629823300 -5.702555583834226 -30.214034278214228 0 2 0 255
-41.145145537040889 -4.074182461868858 -27.978656841011684 2 5 0 255
-41.995778025889820 -4.905719774766382 -31.204289150508515 6 9 0 255
-42.122346928731190 -4.511001267262714 -31.699316460754318 5 8 0 255
-41.602350047931886 -3.001233826760824 -29.756543403234133 5 8 0 255
-41.780816066661359 -2.694551088257683 -30.446529927983477 4 6 0 255
-42.295676746391365 -2.979595015769092 -32.403971895857666 1 3 0 255
-41.905226589714104 -1.682105219746489 -30.948763249406682 0 3 0 255
-36.659997387900319 -17.883925725015246 -12.867260515288308 152 105 87 255
-37.097863164679381 -17.828708332185883 -14.533988799261323 185 138 118 255
-37.353417086261409 -17.530505937243674 -15.518001021128839 200 152 131 255
-37.687249183709469 -17.346515422333596 -16.794439566494958 194 145 128 255
-38.151509092282708 -17.352282700974541 -18.558277303603575 191 142 125 255
-38.250947665247168 -16.852111803489720 -18.956972857489006 188 139 121 255
-38.324382737892314 -16.316929572615464 -19.258122266806538 183 134 117 255
-38.371809328574614 -15.745919020456512 -19.461736010366053 177 129 111 255
-38.471442442898940 -15.251184216016071 -19.860289881281574 169 121 103 255
-38.545069094039675 -14.720609849490785 -20.161307299968627 156 111 90 255
-38.488375992752502 -14.000651580639499 -19.974873569076181 150 108 85 255
-38.536046973308011 -13.433314731517598 -20.178341217721538 143 101 78 255
-38.531620503768792 -12.789502802047139 -20.186822122558965 140 98 75 255
-38.657665618563776 -12.340542310750322 -20.682631218507652 124 79 57 255
-38.809872649551238 -11.933430304942078 -21.275846721645109 117 69 49 255
-38.962161511761956 -11.529438000331126 -21.868994207361169 118 67 50 255
-38.879740362899618 -10.770300334907887 -21.584933648078447 125 73 60 255
-38.823461192689706 -10.049470287174429 -21.398324174615652 127 79 68 255
-38.741147602033600 -9.287056197060650 -21.114248776229658 94 51 43 255
-38.867634696189434 -8.847815621576345 -21.609762568476839 66 28 20 255
-39.046394587382373 -8.492903611710602 -22.300105545723909 41 19 11 255
-39.225244937380729 -8.141617003241407 -22.990371547514229 27 14 5 255
-39.586872827942969 -8.083985817028292 -24.362633830792475 6 0 0 255
-40.026913279914432 -8.158883945527094 -26.027077377268057 1 1 0 255
-40.754189362301240 -8.704564235970054 -28.763128982994431 0 2 0 255
-40.463617481896051 -7.617573012237031 -27.699236750410790 0 2 0 255
-39.389961321138664 -5.248800839822053 -23.712627800124892 0 3 0 255
-39.673750316076415 -5.082700092136875 -24.792209863208399 0 3 0 255
-40.636427863833099 -6.042010696890728 -28.404570087217138 0 2 0 255
-40.659383708702279 -5.461133132804846 -28.509700150486225 0 2 0 255
-41.178503627611661 -5.709109890677354 -30.465617763242506 2 2 0 255
-41.514977403966469 -5.660570115543607 -31.739509428476140 6 6 0 255
-41.956012512318217 -5.795468145594157 -33.402903051110627 9 11 0 255
-42.527737226483232 -6.161493686568960 -35.553160997861710 6 8 0 255
-42.028892813269351 -4.706661001419718 -33.709895575857530 3 3 0 255
-41.530085552594471 -3.241196449986916 -31.866721050774231 3 2 0 255
-41.266371790680168 -2.172268070903755 -30.900165232175397 6 3 0 255
-40.976603634019902 -1.052072664187079 -29.836250265156963 5 4 0 255
-35.841496187073645 -17.605039767879092 -12.359062947665080 166 120 103 255
-36.494017137971724 -17.833636280485379 -14.803167984517557 190 144 124 255
-36.752048975823797 -17.535464201323279 -15.786075103585659 196 146 127 255
-37.115413333635274 -17.387784622692706 -17.158473335313118 189 140 123 255
-37.373628640819135 -17.101387192506266 -18.141179640967124 187 138 121 255
-37.500355654875179 -16.636195426308859 -18.636848765030294 185 136 119 255
-37.574517005708749 -16.099439122844117 -18.937690268060095 181 132 115 255
-37.648740350723486 -15.564225389212837 -19.238488539016345 175 126 109 255
-37.749347971481519 -15.068186898289156 -19.636621096407680 168 119 102 255
-37.823700226900122 -14.536312023908494 -19.937328144217929 155 110 89 255
-37.792816905273320 -13.853244882076794 -19.848507929587072 147 105 83 255
-37.840965491143422 -13.284882588243221 -20.051772999234089 141 99 77 255
-37.783861827310176 -12.562609195315076 -19.865545720666148 132 90 68 255
-37.911122935354093 -12.112077040743856 -20.360828543073836 131 86 65 255
-38.064793055239981 -11.703391844405402 -20.953407618775202 127 80 60 255
-38.297547107061419 -11.416426914708580 -21.837977874914060 133 84 67 255
-38.346040655467128 -10.855572843929437 -22.041013251188417 128 80 66 255
-38.394602632341204 -10.295660028714337 -22.244008604404030 99 52 42 255
-38.311536273756836 -9.534950755236494 -21.960251601446259 69 28 20 255
-38.386571160842927 -9.016162437979574 -22.260522020689024 54 18 11 255
-38.461681178064090 -8.498837419872885 -22.560744152329562 38 18 9 255
-38.668590077114487 -8.188767958957641 -23.347577315470943 17 6 0 255
-38.796553695634664 -7.758568404548413 -23.842341406788478 6 1 0 255
-39.188078890609589 -7.747923204082497 -25.310292720857603 1 1 0 255
-39.790514288796331 -8.081022689683550 -27.556684758738896 0 2 0 255
-39.075550513221131 -6.314136771341268 -24.936980831618683 0 2 0 255
-38.119966645575410 -3.505929138514659 -21.449639441560635 0 3 0 255
-39.776975710536298 -5.574745059289384 -27.588053242640910 0 3 0 255
-40.590827614497108 -6.290942427907623 -30.612262503144535 2 1 0 255
-40.904039896416030 -6.195278282251238 -31.787507913800965 4 2 0 255
-41.164641951309427 -6.018150489628439 -32.768045627809528 11 4 0 255
-42.005277992654293 -6.817504146447803 -35.888966354989122 8 4 0 255
-42.028858345017937 -6.256962506297114 -35.993612431750563 5 2 0 255
-41.077089956006581 -4.043020669281432 -32.498563339236654 7 0 0 255
-40.678963318069080 -2.753483966886819 -31.046696919968355 9 0 0 255
-40.755459913320344 -2.269794640038626 -31.345960863132973 10 0 0 255
-40.911146591517095 -1.923986878609000 -31.937005308153402 9 2 0 255
-35.125214114113703 -17.468077185982452 -12.241831232921470 194 152 134 255
-35.916702591972850 -17.874306414765002 -15.169650523478481 196 150 131 255
-36.177215830266647 -17.576433968690495 -16.151448264178811 192 142 124 255
-36.464374778350134 -17.320195184162941 -17.230438880626735 188 139 124 255
-36.671940834483848 -16.960179531589873 -18.017483877045493 187 138 123 255
-36.826459675554275 -16.530773170483272 -18.609893983718592 185 136 121 255
-36.901354626007560 -15.993253317979040 -18.910416123778390 180 131 116 255
-36.923175987861903 -15.382545984723492 -19.016353508812784 171 122 107 255
-36.998190150224922 -14.847566827101289 -19.316796817318647 163 114 99 255
-37.073267391803213 -14.314119981441650 -19.617196513662293 156 107 90 255
-37.148408694169234 -13.782199687639334 -19.917552218423083 149 102 83 255
-37.303340160465538 -13.367143738371126 -20.509633306380323 141 95 74 255
-37.272310497456203 -12.684196761409311 -20.420877124516210 132 90 65 255
-37.347648026807022 -12.156550044312354 -20.721102144898964 131 89 64 255
-37.369892405547105 -11.551885844989513 -20.826789843875758 130 88 67 255
-37.631440017112681 -11.303413054099522 -21.807627094722790 126 81 62 255
-37.733577565086080 -10.821412092598180 -22.204935638915032 125 80 61 255
-37.809203545436446 -10.301364537183943 -22.504955242827975 103 62 44 255
-37.725375564128512 -9.540732227588563 -22.221537036800981 70 36 23 255
-37.774546621124728 -8.981392735305803 -22.424255032499389 53 24 14 255
-37.823788265031681 -8.422975471996168 -22.626932235093676 34 14 1 255
-38.006064728747475 -8.071259789912375 -23.315675016869847 16 6 0 255
-38.374589776073016 -8.013165298031296 -24.684866837199905 5 2 0 255
-39.168759805205646 -8.629684281567236 -27.609365034532715 2 3 0 255
-39.218364526867745 -8.087102060821238 -27.811720303586696 0 4 0 255
-38.895659118091714 -6.954009826380656 -26.653127131489242 0 3 0 255
-37.615372868082446 -4.283671870078294 -21.995236680190686 0 3 0 255
-39.444143688649618 -5.968667222415675 -28.717911954697485 5 3 0 255
-40.159251310155284 -6.513988315401946 -31.349898719660388 8 0 0 255
-40.422204039858286 -6.332530017546404 -32.329432139388985 14 0 0 255
-40.179717512874923 -5.322666056892828 -31.462308880169644 34 16 8 255
-40.309805341530506 -4.925704471849215 -31.955789924529341 41 24 17 255
-40.679473081404979 -4.930978688009745 -33.323831767823862 26 12 8 255
-40.357362199126136 -3.781647109915497 -32.165137661156592 65 48 34 255
-40.514325328209651 -3.434850161051472 -32.755622989795796 114 95 81 255
-40.857678475947353 -3.407699604752906 -34.026231247317867 111 96 77 255
-40.376087142121548 -1.976564945985587 -32.284527755854128 121 108 89 255
-34.540927461665390 -17.508486191971869 -12.611424973894685 194 156 137 255
-35.259450315989383 -17.807749664231281 -15.244376061933167 192 147 128 255
-35.522440107660287 -17.509364831633420 -16.225074792855708 194 142 124 255
-35.705093559572049 -17.107485353374244 -16.914156522615343 193 142 125 255
-35.914630221592958 -16.745881664928334 -17.700338961631445 190 139 122 255
-36.017000117301379 -16.241247201689006 -18.097772680184846 186 135 118 255
-36.092619970031933 -15.701610714451149 -18.397993011366196 180 129 112 255
-36.168300081688443 -15.163518805430385 -18.698170863849896 171 120 103 255
-36.244041419489150 -14.626965858606781 -18.998305863158890 163 112 95 255
-36.319844950792032 -14.091946179584795 -19.298397635545911 153 105 85 255
-36.395711643127868 -13.558453995446087 -19.598445807980369 142 96 74 255
-36.552111648770314 -13.141820341659454 -20.189888084006270 135 90 67 255
-36.574463318417081 -12.534744914299353 -20.295552318077739 135 91 66 255
-36.623700365025478 -11.967083501827375 -20.498325005693658 140 97 72 255
-36.646172148809704 -11.361126488124810 -20.603924381661216 140 97 76 255
-36.910178504396903 -11.111340740724700 -21.583678654921925 126 83 63 255
-37.040117795886189 -10.667841070288645 -22.077696309551214 108 65 46 255
-37.143299968433446 -10.186839915487639 -22.474528994984922 89 50 33 255
-37.031870856568766 -9.385128879114887 -22.094338285267526 66 32 19 255
-37.081513901836217 -8.824769975696469 -22.296856145381440 54 26 15 255
-37.158065487383389 -8.306217820940191 -22.596447946943130 36 18 3 255
-37.529938760722843 -8.241826257196649 -23.964210584860638 19 9 0 255
-38.062976544702032 -8.433410471403150 -25.914492807584338 6 1 0 255
-38.515612204351534 -8.510574492815962 -27.573297789680282 2 3 0 255
-38.565685204341676 -7.967247751337396 -27.775451798797889 0 2 0 255
-37.998349881145558 -6.453286887292862 -25.744333438388281 1 4 0 255
-38.263324451019116 -6.245584769172467 -26.723230666012597 10 10 0 255
-38.394148783924500 -5.829187226206528 -27.216579783818389 4 1 0 255
-39.169493920200637 -6.448616781894700 -30.039947908149173 8 0 0 255
-39.569053177402935 -6.477008321000156 -31.503922615075282 127 108 93 255
-39.539058445566269 -5.815740870674674 -31.414485875951357 192 164 147 255
-39.482278845126174 -5.109819872015009 -31.227948829535649 187 155 137 255
-39.613567192198516 -4.711567828649152 -31.720907657636587 176 146 126 255
-39.852377276050923 -4.493446739721819 -32.602081949872030 172 144 123 255
-40.064427544298383 -4.235277860635009 -33.386098212036529 166 137 118 255
-40.249714689151290 -3.936238107271677 -34.072966238258118 155 128 109 255
-40.273926310432316 -3.369336650131103 -34.177395141218426 154 129 112 255
-40.137042332416527 -2.529656995041165 -33.699443565309878 123 102 83 255
-39.650995196199474 -1.091824039024985 -31.959794427728212 105 86 65 255
-33.957110432898787 -17.548894116575539 -12.980809340779217 193 152 132 255
-34.492976468629692 -17.598246574907861 -14.931268175765496 192 147 128 255
-34.623169634021195 -17.118220291532737 -15.425541831853792 196 144 126 255
-34.861648161753891 -16.785961022467575 -16.308017602939913 194 143 126 255
-35.127265350141940 -16.495057568193090 -17.287469272503472 191 140 123 255
-35.284731028986471 -16.062213963326315 -17.878600252804631 183 132 115 255
-35.306960336369201 -15.447089649116464 -17.984400397115337 174 123 106 255
-35.329241089465043 -14.832429167525675 -18.090172915802867 165 114 97 255
-35.405705006963885 -14.293490168546285 -18.390009864909558 155 104 86 255
-35.536364823595008 -13.831889766436404 -18.883889221576510 146 98 76 255
-35.721233024808996 -13.449245449750265 -19.571789070304192 141 95 72 255
-35.906179662455330 -13.070288363123169 -20.259616678901097 140 94 70 255
-35.955840598280204 -12.501443003934128 -20.462212339278267 143 98 74 255
-36.059712428467236 -12.011536606411397 -20.858827545791911 150 106 80 255
-36.163653861000682 -11.523676462576219 -21.255391037090959 144 102 79 255
-36.321822702649868 -11.116908995853507 -21.845944942617876 131 88 67 255
-36.290508312893877 -10.434679675626271 -21.757308454455654 111 70 50 255
-36.286330518309853 -9.791837469360161 -21.765668684334628 86 49 31 255
-36.228044544291691 -9.068171387405485 -21.579982623682611 63 31 18 255
-36.251068583103290 -8.465097909863871 -21.685306627509107 58 29 18 255
-36.328331998560458 -7.944168250093824 -21.984605085346857 39 19 5 255
-36.649467423395770 -7.795067643827849 -23.156858016346348 20 8 0 255
-37.295791122320182 -8.149383009027346 -25.492961572462065 9 2 0 255
-37.725520437781782 -8.182982006107906 -27.052925977637557 7 3 0 255
-37.505119091260440 -7.217891159001198 -26.284997206188791 9 7 0 255
-37.880852508681301 -7.177490699296143 -27.650796281536799 8 9 0 255
-37.877342683785443 -6.549363639448984 -27.658709959020399 13 7 0 255
-38.361668095749877 -6.691083031095218 -29.412227213772439 14 1 0 255
-38.873215242230629 -6.885421447476361 -31.262569484986471 163 144 126 255
-38.951270276588197 -6.396676388374019 -31.561189687962695 194 167 148 255
-39.029404629152658 -5.909333981938531 -31.859760349040130 184 150 131 255
-38.917892625614428 -5.116308043304201 -31.479518812489260 185 146 128 255
-39.240125291304565 -5.027109167845097 -32.650677073900056 182 145 126 255
-39.454037966626551 -4.766539607312311 -33.433887233682043 180 144 122 255
-39.776477089056982 -4.688808162838484 -34.604837537788484 172 136 117 255
-39.855041781311435 -4.212728560977268 -34.903102490037554 162 127 108 255
-40.069241506336724 -3.964160583330454 -35.686063360633227 155 122 104 255
-39.931091413424291 -3.128131811582506 -35.208639389627336 140 110 90 255
-39.765896961302545 -2.243305892688241 -34.634272688485538 118 91 69 255
-39.383862124856684 -0.986509559538661 -33.284394568143000 108 87 62 255
-33.319168357652288 -17.518368758563113 -13.156054968204870 193 155 132 255
-33.723500952985546 -17.388771089504360 -14.619498325489900 192 148 129 255
-33.882226251759988 -16.943167058414105 -15.210196671464956 192 143 126 255
-34.068322316295252 -16.537030391550374 -15.897786517748585 186 137 120 255
-34.254490681151708 -16.134618953915776 -16.585306475652942 182 133 116 255
-34.413424675701492 -15.699109302931234 -17.175809744152701 172 123 106 255
-34.381262612682804 -15.007152885120064 -17.087649513759033 161 112 95 255
-34.485700189595903 -14.501375166688220 -17.484172897574297 151 102 85 255
-34.617514660486847 -14.035308536597597 -17.977582585946777 143 95 76 255
-34.885973908902969 -13.761359040710587 -18.955595740855443 140 92 70 255
-35.045252664785210 -13.340043745535567 -19.545801825570265 138 92 69 255
-35.149966831658986 -12.844993140605325 -19.942093465454633 144 98 75 255
-35.282068865577628 -12.390713277428148 -20.435255807025044 154 108 85 255
-35.441565213637858 -11.978010244443510 -21.025277828255184 157 111 88 255
-35.519163407773078 -11.450677899755064 -21.324491737836382 149 104 83 255
-35.542174365047600 -10.845797593772517 -21.429839836685630 132 87 67 255
-35.510588281861217 -10.161738204664758 -21.341342982379047 103 63 44 255
-35.533715896123880 -9.557130063797885 -21.446636317980051 79 42 26 255
-35.502241667773504 -8.872245666102756 -21.358097931187189 68 34 21 255
-35.498156950559974 -8.227274607807445 -21.366438179248917 63 34 21 255
-35.603473697983162 -7.745658334932187 -21.762325366782505 54 32 16 255
-35.790876188690788 -7.389493452754351 -22.448827643713486 27 13 1 255
-36.033041519491633 -7.119793377561152 -23.329027310378905 10 2 0 255
-36.412000359867889 -7.063256385772078 -24.693551408314164 15 8 0 255
-36.927776919504325 -7.223947423679249 -26.542348056996360 14 10 0 255
-37.525708025566672 -7.521463960074712 -28.681614154860597 10 8 0 255
-37.385463188607091 -6.683051562703938 -28.205148232716766 12 0 0 255
-38.010966374538896 -7.039504218074256 -30.441019293043865 33 9 4 255
-38.253736643460549 -6.805543074799033 -31.320588012364368 197 164 146 255
-38.578649086234265 -6.706218848061283 -32.490653818368912 190 153 133 255
-38.602808228989431 -6.133663403654438 -32.595163266953278 190 150 129 255
-38.845856427993027 -5.912341843258105 -33.474480314546639 190 148 126 255
-39.198413758131245 -5.872226317903710 -34.741115866152654 192 150 128 255
-39.332240578802228 -5.483659005112457 -35.232845009498050 186 144 120 255
-39.438797564914580 -5.052875525051618 -35.627665435189584 176 136 114 255
-39.490724511431857 -4.534096940029471 -35.828744728605756 170 130 108 255
-39.816315598288988 -4.468408522104468 -36.998167982271326 164 127 108 255
-39.950494585478090 -4.090482830213347 -37.489632549463494 151 116 96 255
-39.838515982463406 -3.303040106576731 -37.109542617194791 132 101 79 255
-39.452988714437922 -2.052657047043326 -35.761156799819958 120 93 69 255
-39.176962778844228 -0.979595201292398 -34.800132229414487 111 95 66 255
-32.184890293637551 -16.849486932280925 -11.588158102678079 184 153 127 255
-32.840834180018206 -17.036384486215098 -13.921664606972797 178 141 119 255
-33.083679311262159 -16.696127368958557 -14.802274335487766 172 129 111 255
-33.271500736647482 -16.288131315711823 -15.489113711268544 166 119 99 255
-33.294073213732645 -15.664585983043082 -15.594845966441937 158 111 91 255
-33.537137050282340 -15.336047287225654 -16.475239739656246 149 102 82 255
-33.559822474665026 -14.715612934148538 -16.580890192241526 141 94 74 255
-33.582557772089487 -14.095644231716904 -16.686513702014423 134 87 67 255
-33.660466746531455 -13.551390110350098 -16.985760084953966 134 87 67 255
-33.986505395491008 -13.349752413896340 -18.156357897921396 137 91 68 255
-34.174813117849695 -12.963671732170255 -18.842758945052339 144 96 74 255
-34.418331803360203 -12.658157463663926 -19.722717201147191 158 110 88 255
-34.551659194490114 -12.202570724510167 -20.215346417849219 165 117 95 255
-34.740198885305318 -11.827539457144098 -20.901532358202957 165 117 95 255
-34.735808049325328 -11.181424705563742 -20.910020651353534 147 101 78 255
-34.786620186156085 -10.614229345286532 -21.112086363299994 127 83 62 255
-34.727189086077601 -9.888817421349231 -20.926928511255795 100 59 41 255
-34.778119458905692 -9.322437623003054 -21.128933263555666 75 38 22 255
-34.773954342902840 -8.676329048625675 -21.137320855432080 74 40 27 255
-34.797429170779921 -8.070674300815483 -21.242469961988036 73 40 28 255
-34.820966898408216 -7.465403208355923 -21.347587146449456 60 34 18 255
-35.037663306186388 -7.148538920302144 -22.130125158792282 38 20 5 255
-35.199274612812928 -6.753003724048128 -22.719030686887464 18 8 0 255
-35.554085635551246 -6.652370856050283 -23.985273093152415 14 8 0 255
-35.881411986771710 -6.516644525581015 -25.154630575557235 14 11 0 255
-36.457162869736123 -6.767329502333226 -27.194765366832200 6 2 0 255
-36.839893298418509 -6.731689845249960 -28.557396655701723 56 39 26 255
-37.305515227022084 -6.831774320993176 -30.210179949917489 127 93 79 255
-37.550486985668471 -6.596505601056720 -31.088780335910968 170 128 111 255
-37.933539051216229 -6.582503607437090 -32.451049517932489 185 140 120 255
-38.178705345246911 -6.357933282663652 -33.329455034875309 188 143 120 255
-38.451565905167499 -6.181887605242281 -34.304516270786422 193 148 126 255
-38.862531242303348 -6.231716808802545 -35.763188815517935 192 147 124 255
-38.942373036051251 -5.756579108114238 -36.060874842820539 186 143 120 255
-39.132710735611241 -5.461537600179710 -36.745450631447767 179 137 113 255
-39.267927929146154 -5.080143284994776 -37.236487366171872 175 133 109 255
-39.651690761167586 -5.108222383355852 -38.598014313119279 168 127 107 255
-39.676659843364455 -4.552196179562827 -38.701995575129814 158 122 100 255
-39.563661599134832 -3.767580316309477 -38.322331684556843 139 107 84 255
-39.202239716288950 -2.566101160959946 -37.072197880495452 129 99 75 255
-39.034145805311105 -1.681428131407515 -36.499122378130664 117 95 68 255
-31.730817840720931 -16.398180515630983 -12.452134269553710 169 134 107 255
-32.365026722954852 -16.557131124088897 -14.686120086929151 142 104 83 255
-32.304386308391557 -15.821624126069281 -14.501603452258024 126 94 68 255
-32.049169688677296 -14.829172243148548 -13.639980001680613 131 93 68 255
-32.127601505563064 -14.273561171669570 -13.939108062072222 128 82 59 255
-32.345117122151819 -13.904925483074067 -14.721804104098936 125 79 56 255
-32.534902494541825 -13.503186144524378 -15.407704600531133 129 85 62 255
-32.669142947275418 -13.029901462540636 -15.900105604346095 132 88 65 255
-32.886884321876749 -12.672921769893165 -16.682583177539243 134 90 68 255
-33.049078295514704 -12.243844970202673 -17.271567941376645 146 102 81 255
-33.406050822126033 -12.086972624048840 -18.537415066755671 160 113 93 255
-33.651854314136500 -11.782201360000016 -19.416347115894837 169 117 98 255
-33.925561415204299 -11.521168358127483 -20.391889925292020 166 116 96 255
-33.893328719246981 -10.833698379376770 -20.303715840385195 151 104 81 255
-34.000258335916953 -10.343160175793400 -20.698974097289835 124 80 59 255
-33.968134350077889 -9.655708615511955 -20.610751357048059 98 55 37 255
-34.075192782004962 -9.167883048840181 -21.005924762773958 80 40 24 255
-34.043181777879880 -8.480422888817927 -20.917651735762973 80 41 27 255
-34.122543191202965 -7.954681086576841 -21.216063425262575 76 40 26 255
-34.201973214737521 -7.430407890455385 -21.514429680473569 67 39 22 255
-34.364971875425638 -7.031030649331456 -22.102755480498473 45 26 9 255
-34.472381505434754 -6.551903743662066 -22.497684380332004 27 15 1 255
-34.830392512116333 -6.449951259277185 -23.762513389297226 15 8 0 255
-35.272021430644671 -6.480741487301160 -25.317200662468537 9 7 0 255
-36.019998449330160 -6.984550239107492 -27.934951961905455 7 3 0 255
-36.294825420132184 -6.780298335304678 -28.909421554279987 107 88 74 255
-36.653274903453692 -6.709590964272891 -30.173739255214912 165 126 115 255
-36.733388037028007 -6.215290373881345 -30.471497992752290 179 131 117 255
-36.952803590658945 -5.938982325619421 -31.252413732412066 171 123 103 255
-37.395084735531078 -6.015501250367350 -32.806348002854406 169 121 99 255
-37.865327189380224 -6.144348433625552 -34.456780484209276 176 129 107 255
-38.586332448694698 -6.679392793003998 -36.976747752894823 190 143 121 255
-38.639051638510026 -6.162642593073272 -37.177453317156704 187 142 118 255
-38.858959990877452 -5.914787510576275 -37.957861750543401 184 139 116 255
-38.995398728528414 -5.536183377322160 -38.448325649461253 181 136 114 255
-39.131921675009764 -5.160035898794931 -38.938727172630394 172 128 109 255
-39.184961218385745 -4.649856312078214 -39.139223492500179 165 125 104 255
-39.182364691469886 -4.048949577556627 -39.146454840087301 149 114 92 255
-39.012692528415542 -3.171511575928889 -38.574009884421116 137 103 80 255
-38.787364039493653 -2.197869309935996 -37.808364347546046 124 96 72 255
-38.367071584234452 -0.893442648394597 -36.366531214036485 116 92 66 255
-28.554099414116465 -11.764303493366185 -3.951391710719946 184 156 129 255
-29.670852805147533 -12.532190503917917 -7.825472547626703 173 138 113 255
-29.806008766540486 -12.033216436005588 -8.317725021068441 160 117 96 255
-30.390085626711141 -12.130193360495994 -10.355701221799933 155 110 89 255
-31.002346869914106 -12.275802365586827 -12.490113533445282 147 102 80 255
-31.193878856332859 -11.868881468287256 -13.175287662369442 133 88 66 255
-31.413544472632836 -11.503553573110622 -13.956991678377364 119 77 55 255
-31.801656874414675 -11.371444225760229 -15.318198444594145 142 100 78 255
-32.554693710246767 -11.746457965075180 -17.934995585229331 158 111 91 255
-32.746579454913530 -11.361877012674597 -18.619786187448142 176 124 105 255
-33.163077503804857 -11.292779018911716 -20.077193991002247 169 117 98 255
-33.186718263176658 -10.682237402871024 -20.182318509880190 146 99 77 255
-33.350767906944867 -10.269699638916393 -20.770308741763159 119 75 52 255
-33.318384897772603 -9.581768865737445 -20.682206332541568 98 55 36 255
-33.454497734077336 -9.133511786578637 -21.173519554362827 86 43 26 255
-33.394151210464770 -8.405516288438875 -20.988795963823549 84 44 29 255
-33.502320190052046 -7.919889190237058 -21.383452003039821 80 44 28 255
-33.498242298490936 -7.272789056313030 -21.391810727478997 73 43 27 255
-33.690790475563887 -6.913520965979359 -22.076050129674712 54 31 17 255
-33.827255664967993 -6.475051156221099 -22.567107327516254 27 12 0 255
-34.385063652560973 -6.664383163765919 -24.506368345076908 15 8 0 255
-35.027255287067376 -6.990248363053425 -26.735107906194173 8 6 0 255
-35.276355162871113 -6.737224718371081 -27.612047200133247 5 3 0 255
-35.609812899275425 -6.616385622391704 -28.778520488568887 21 10 6 255
-35.887189226219007 -6.416318814502830 -29.751811131714305 182 151 133 255
-35.968014377939610 -5.920181333744367 -30.049270977336022 178 133 114 255
-36.048913303151977 -5.425456046818738 -30.346683656771773 169 123 99 255
-36.354647623802322 -5.280817633189599 -31.416264311517693 153 108 85 255
-37.138120691622035 -5.887499024820073 -34.126643527431781 134 87 69 255
-37.753151752278555 -6.244397338157825 -36.257685288764350 181 134 115 255
-38.003020350500705 -6.035805947698506 -37.133832743179852 188 143 123 255
-38.365383641413487 -6.010556602899683 -38.395945978269339 186 139 120 255
-38.559238839137549 -5.722453297924815 -39.078883337699978 184 137 119 255
-38.556460053860498 -5.121369175247565 -39.086197739409897 178 133 114 255
-38.469439350383453 -4.383537414561431 -38.803972574336996 169 127 107 255
-38.494905894749309 -3.826840559715293 -38.907738817952435 158 121 99 255
-38.520448272519282 -3.270396594738628 -39.011468694626188 145 110 88 255
-38.630391028348811 -2.853125548990946 -39.404642974098721 133 103 79 255
-38.290675561847962 -1.692405562857019 -38.253913103413566 121 95 70 255
-38.119671384987839 -0.805943083207111 -37.682153250419958 107 87 60 255
-27.950876113102012 -12.499298689971624 -4.322407956149050 146 111 86 255
-28.143684699475543 -12.059777942464919 -5.007342407160507 137 102 78 255
-28.308266309374147 -11.587443808345995 -5.595699850315441 136 97 74 255
-28.472915196046472 -11.118289935062862 -6.183995153145759 134 89 68 255
-28.948949466014184 -11.060192940584528 -7.833734851790666 123 81 59 255
-29.453399707560308 -11.048562884144971 -9.579829290158017 121 79 57 255
-29.759827806164068 -10.783239108932705 -10.650320447021727 119 76 55 255
-30.066345264213510 -10.523777839964652 -11.720712507037462 112 70 48 255
-30.910830995875173 -10.995246703877200 -14.624243189612685 169 127 105 255
-31.783790743129018 -11.521277986427791 -17.624020907468292 178 130 110 255
-32.090652559160674 -11.289923439668840 -18.693975344222935 181 129 110 255
-32.425919744980007 -11.103385799852703 -19.860305925280386 167 115 97 255
-32.563063035504271 -10.648520761304241 -20.351226501828847 140 91 69 255
-32.756912928910396 -10.275270506660405 -21.035026849445160 113 68 45 255
-32.780916778878662 -9.666971273474374 -21.139966816933139 99 55 36 255
-32.748332366331724 -8.978967638070344 -21.051954941276762 92 48 31 255
-32.772446412480747 -8.370935252380690 -21.156843079860749 91 49 33 255
-32.881596282914302 -7.885089918452223 -21.551063987818679 88 51 35 255
-33.019143377317022 -7.442125819462930 -22.041684236764354 34 5 0 255
-33.156764365407867 -7.001709798936105 -22.532245784974066 50 27 13 255
-33.322790846071598 -6.605246301601753 -23.119192159505047 27 12 1 255
-33.885551037776509 -6.795408059687318 -25.056236815353202 14 7 0 255
-34.505103945436460 -7.080142459654624 -27.185991876536292 6 4 0 255
-34.728087340825823 -6.785481884383245 -27.965502367133411 5 3 0 255
-34.951156771535750 -6.494968224166811 -28.744932583313670 7 1 0 255
-35.259329115700297 -6.336898063349693 -29.813561989594291 104 79 61 255
-35.425895893400366 -5.969397664266623 -30.399974724234767 176 130 114 255
-35.564202268062488 -5.561629737527795 -30.889900697254433 155 103 82 255
-35.844303966567793 -5.374267521052076 -31.861847802615586 139 91 69 255
-36.181189021424927 -5.279819389464478 -33.026526250229551 127 80 60 255
-36.943364903021816 -5.853554650570914 -35.637240104313946 143 98 78 255
-37.393859900802973 -5.953353368583208 -37.187276870087715 190 145 126 255
-37.787767534768761 -5.972269221909954 -38.544373303340763 186 141 122 255
-37.869928985105119 -5.504178565518160 -38.840953867416744 186 139 121 255
-37.952166824638681 -5.037456822983742 -39.137486536528684 183 138 119 255
-38.006129298459072 -4.526608449428224 -39.337578121140268 176 132 113 255
-38.031813610115556 -3.970807716631867 -39.441238214120744 166 125 105 255
-38.199347008708656 -3.645429009186955 -40.026794228835001 152 116 94 255
-38.196830386713771 -3.045187057218968 -40.033983230958569 138 107 84 255
-38.080958747843326 -2.258318502865464 -39.655623232665448 128 99 75 255
-38.050228467476337 -1.609504755314362 -39.566388567159919 118 95 67 255
-27.027306096184930 -15.589634525835336 -3.498520037026907 165 147 115 255
-27.102018435708857 -14.302891340755252 -3.806696374021669 158 125 100 255
-27.610306548341086 -14.245723595818674 -5.551539943008208 148 111 87 255
-28.004549626143458 -14.055335489343747 -6.910602357086418 143 105 82 255
-28.084932274031274 -13.476500474828924 -7.209095361886369 140 100 80 255
-28.079736144179179 -12.790435071097249 -7.218346502384776 132 90 68 255
-28.160217644239083 -12.213926767501690 -7.516771916006888 128 83 62 255
-28.354943592420994 -11.786209789153233 -8.200732191126320 118 72 52 255
-28.521190647231975 -11.325131466477202 -8.788233315792894 108 66 44 255
-28.716056805339278 -10.904572140132814 -9.472058731328445 101 60 38 255
-28.882441525807053 -10.450099780829689 -10.059431706986828 109 67 45 255
-29.248783878261577 -10.264010480511573 -11.321396540177375 103 59 38 255
-30.272044277229654 -10.962529419799850 -14.799887562137087 178 134 112 255
-31.181251887530138 -11.526703809634498 -17.892612249026456 180 130 110 255
-31.433719346756277 -11.217976903289795 -18.768613103225960 180 127 109 255
-31.629142359322586 -10.836070185011778 -19.451799559858955 157 104 86 255
-31.824640265525929 -10.457837975584212 -20.134915484521059 136 85 64 255
-31.991646892341095 -10.043762406925453 -20.721602868101229 111 63 42 255
-32.015883061836206 -9.433894098081822 -20.826455113735534 102 57 36 255
-31.954463437529085 -8.704273316211967 -20.642226400245477 98 53 34 255
-32.007378119413062 -8.134727214194655 -20.843378437838282 95 52 35 255
-32.060353666469808 -7.566117420043653 -21.044493874529593 90 52 36 255
-32.256268975133224 -7.202768320818450 -21.727273266261051 78 48 32 255
-32.509418514353243 -6.925326194402089 -22.602653799232883 25 3 0 255
-32.848391832612606 -6.776819770618971 -23.766947574391565 27 13 2 255
-33.187462360487615 -6.634645415558694 -24.931134006543772 11 4 0 255
-33.812452493021880 -6.918304838939591 -27.058475708137877 5 3 0 255
-34.323236847197322 -7.044824723478371 -28.800349686659530 6 4 0 255
-34.405356755324092 -6.543519564471538 -29.097284488372338 6 5 0 255
-34.544720213791365 -6.129171808583848 -29.586805658804792 65 49 34 255
-34.712748718846797 -5.760367335882023 -30.172579852962230 168 125 109 255
-34.966627287245316 -5.524530481149725 -31.047214817660659 142 89 73 255
-35.163412690671379 -5.206201827828693 -31.729151227146218 129 82 62 255
-35.446060814830261 -5.023002763149123 -32.699920911657188 120 75 54 255
-36.043338702825707 -5.330363110491504 -34.729884889867861 106 64 42 255
-36.755122729626528 -5.826486385369037 -37.144863039776340 191 149 127 255
-37.152473899206058 -5.844620448302720 -38.500432050426923 188 144 123 255
-37.406937258405208 -5.645420326101927 -39.374435976080576 189 143 123 255
-37.661491145372366 -5.450858702560183 -40.248352655644396 188 143 124 255
-37.773131709565803 -5.033505200219523 -40.640770788757010 182 137 118 255
-37.799044920687216 -4.480779943349575 -40.744297739914202 173 129 110 255
-37.853633719766407 -3.974342340631367 -40.944065491119403 161 120 100 255
-37.936902598076188 -3.515002581122431 -41.240063850917153 147 112 90 255
-37.934433740129499 -2.917265817387900 -41.247206235901643 138 106 83 255
-37.846218116191793 -2.178665227425839 -40.965521605459145 126 100 73 255
-37.557816573718597 -1.108239226045910 -40.009988144540017 110 89 62 255
-26.456473277541988 -17.055090098627801 -3.957205491524746 186 162 133 255
-27.112832312227056 -17.150175989877383 -6.181961020717836 186 152 129 255
-27.222517550325591 -16.599428862628585 -6.576599226439583 180 141 121 255
-27.274690993994639 -15.980992335630646 -6.778575910513695 171 132 111 255
-27.154207180573110 -15.152502337629187 -6.402692971605262 164 121 102 255
-27.523096202235962 -14.924548849824376 -7.663945496916369 154 111 92 255
-27.748138122709975 -14.524957700915934 -8.443598765934382 152 107 88 255
-27.944461073921957 -14.093651453778179 -9.126883284582107 143 98 77 255
-27.795351053369444 -13.230897001411321 -8.654616004285231 133 88 69 255
-27.847816285495171 -12.621134461833790 -8.856374920054350 127 79 61 255
-28.015513094196251 -12.159615667974762 -9.443234113825639 114 67 49 255
-28.125680042066563 -11.627122415954133 -9.837473044725556 101 56 37 255
-28.207105683852703 -11.059373630707100 -10.135388969248737 99 54 35 255
-28.317388271892582 -10.530785658461667 -10.529536868531608 107 61 42 255
-28.715766878229715 -10.383145779150013 -11.886323350231152 118 71 51 255
-29.776771825852393 -11.120604767546737 -15.457085978334959 186 139 119 255
-30.607504654649162 -11.570557883499703 -18.257472094679400 179 128 109 255
-30.862207256860074 -11.262133336678502 -19.132473338571316 180 123 106 255
-30.944123463604313 -10.724659476412484 -19.429864537305320 158 102 85 255
-31.141350792785587 -10.345653675532247 -20.112217205658681 134 82 61 255
-31.281022882383411 -9.891297659498775 -20.602005154421562 112 65 43 255
-31.334312826149784 -9.320181183304243 -20.803005751431755 107 60 40 255
-31.214749925210640 -8.509707866696601 -20.426530113524336 106 59 41 255
-31.268145880989792 -7.938861785409671 -20.627480711315769 94 50 32 255
-31.292779675067933 -7.328359920969646 -20.732162076901830 92 53 36 255
-31.461589107839586 -6.922565517244479 -21.317961964861212 88 54 40 255
-31.688124504281149 -6.602131664286574 -22.096149274360357 51 24 11 255
-32.001223590915885 -6.410084203713879 -23.162925483614799 20 3 0 255
-32.400901709949665 -6.348857338151220 -24.518259148479046 12 3 0 255
-32.743022157048884 -6.211146094839307 -25.681040641787689 5 0 0 255
-33.604213794535752 -6.839705939354303 -28.575535080980899 8 3 0 255
-33.600553991790832 -6.209630212839457 -28.583535323300509 5 6 0 255
-33.712293616398611 -5.750402935819054 -28.976332529017554 19 11 8 255
-33.997125169605354 -5.551341875816661 -29.946289041540439 155 119 105 255
-34.282047938238065 -5.357497415743353 -30.916152158214743 128 81 65 255
-34.451704013647046 -4.994556208498878 -31.501141425707516 124 81 62 255
-34.650281253581937 -4.678495410724921 -32.182256009932274 121 82 60 255
-35.137366107838233 -4.807211139011343 -33.825180517387849 82 44 22 255
-35.941844488343463 -5.433250817782451 -36.525998703043086 158 120 97 255
-36.486857857879471 -5.672293659780493 -38.360967973320271 186 146 124 255
-36.830061893702194 -5.606864221861983 -39.522535752273342 189 147 125 255
-37.202210914489200 -5.592917229229130 -40.780171712348590 188 145 126 255
-37.574459665162692 -5.585783852715309 -42.037694338494248 186 140 122 255
-37.629454837546845 -5.082158908540492 -42.237252476345418 180 133 115 255
-37.684522897411540 -4.579339434589542 -42.436769975506877 167 124 105 255
-37.537696011838193 -3.753215142090980 -41.963114503911385 156 118 97 255
-37.564050680846691 -3.203497617591154 -42.066414227297429 145 110 88 255
-37.446204262645907 -2.419781019624281 -41.688902839831570 131 105 78 255
-37.270709607136730 -1.539316157650589 -41.119084477349787 121 97 71 255
-26.263885206191375 -18.954514205506854 -5.666281775178817 154 138 102 255
-26.258358929067398 -18.263096218391794 -5.675734215421727 194 162 134 255
-26.310909109019377 -17.639877094132373 -5.877591269102254 193 155 132 255
-26.856927678753749 -17.602055570162079 -7.714910771766199 187 148 126 255
-27.054731127576133 -17.158774762503072 -8.397656233080369 183 140 121 255
-27.223567623614443 -16.684342715483211 -8.984137810013891 175 130 111 255
-27.073116205894735 -15.826118833902513 -8.512422808303825 168 121 103 255
-27.242048518886747 -15.355142201771287 -9.098826738952056 159 112 92 255
-27.411041438809860 -14.887371147953615 -9.685171247175305 154 106 84 255
-27.434906991485434 -14.242835694101970 -9.790539133264076 147 97 76 255
-27.371694879718831 -13.490004178153754 -9.607344215514956 137 87 66 255
-27.366596849501008 -12.809105819841037 -9.616499391664689 125 74 54 255
-27.535801270301306 -12.348970191576882 -10.202672425633665 113 62 43 255
-27.734115985997036 -11.929086832975912 -10.884953445186483 104 54 35 255
-27.816308756991234 -11.363540688327276 -11.182505076560432 105 55 37 255
-27.956655138226907 -10.874768852547973 -11.672340245727611 114 64 46 255
-28.358529337787758 -10.729580409972598 -13.027543414714188 134 85 65 255
-29.312519974797922 -11.316820498656469 -16.209562002918489 189 141 121 255
-30.034237362496540 -11.614409301631383 -18.622117982228644 187 132 115 255
-30.291176326293268 -11.306285888126709 -19.496119084885066 182 125 108 255
-30.402898618999529 -10.808094083630834 -19.889317852307869 159 101 84 255
-30.456560308043251 -10.233481383954157 -20.090188042170041 134 81 61 255
-30.539339980176862 -9.699340888046493 -20.387160566795302 116 65 45 255
-30.622179208523008 -9.166699836089165 -20.684091382227535 108 60 40 255
-30.617879247276804 -8.515405091167182 -20.692591515047951 107 60 42 255
-30.671766479669486 -7.944611730367015 -20.893322540836238 103 58 39 255
-30.638502219124575 -7.252985131192304 -20.805650399311702 98 56 38 255
-30.721574159573635 -6.724110065378184 -21.102439393693771 93 53 40 255
-30.804709971076193 -6.196701118305327 -21.399185091915257 70 38 27 255
-30.975135893541193 -5.794961401896515 -21.984223273812830 27 3 0 255
-31.174714069170705 -5.437974973715271 -22.665305239837437 16 0 0 255
-31.839626334195543 -5.755732406703629 -24.883996597457838 12 1 0 255
-32.359269766136379 -5.874694299573562 -26.621997086339292 13 6 0 255
-32.588211936627744 -5.578348000170863 -27.398867853647118 9 8 0 255
-32.759071169201306 -5.200624209714192 -27.983470100096469 7 1 0 255
-33.220855112236308 -5.256260431507357 -29.528919982946718 143 119 103 255
-33.508230231131691 -5.060556046136782 -30.497708501226839 130 92 74 255
-33.592081990730264 -4.565042819960667 -30.793812602800472 134 96 77 255
-33.792360660151871 -4.246314969439780 -31.474195549980749 119 83 64 255
-34.050903028835819 -4.019391778613411 -32.346661031644828 63 30 9 255
-34.862281355651845 -4.640528565083514 -35.044452383756578 72 38 19 255
-35.819267366416597 -5.499960679688343 -38.222384281263629 189 153 133 255
-36.398175680980714 -5.792954944936071 -40.151189802975779 185 149 129 255
-37.006297131864748 -6.141786127880721 -42.175899935792188 187 147 127 255
-37.323564858036747 -6.047000117160280 -43.239834457224731 187 143 124 255
