ply
format ascii 1.0
element vertex 658
property float x
property float y
property float z
property uchar red
property uchar green
property uchar blue
property uchar alpha
end_header
31.987815031964374 -7.464456672492133 0.609524772176727 141 118 90 255
31.858474804896161 -5.977453351648990 0.637827190748226 137 120 88 255
31.796072384159743 -4.566320199927532 0.653844068520343 132 122 87 255
33.009676123209260 -4.757217877316805 0.435145833546613 127 119 82 255
33.267172548979374 -3.745382147086616 0.392326096220224 120 117 79 255
33.525869308906238 -2.731927554132426 0.349295858822913 109 110 71 255
33.848948183168687 -1.797789810289828 0.294427732094682 100 107 65 255
-24.097028316719502 -6.075759825112357 11.703586617415937 165 172 122 255
-22.653346091614992 -6.121760054526675 11.440741027641046 209 174 147 255
-0.346020969861002 -23.038518789657417 7.296810724295881 213 181 156 255
2.165664553233853 -24.301474210682557 6.833480504811348 214 184 158 255
3.545060345696953 -24.434166767293107 6.581868071187053 215 183 158 255
4.850456210584298 -24.500575696578551 6.344050916996736 214 181 156 255
6.781091640026688 -25.218499269132565 5.989181458668874 215 183 158 255
8.496042774227448 -25.729056291914020 5.674598540965569 219 185 160 255
10.274973922771665 -26.319408552824029 5.347968711444452 221 187 162 255
11.145910839514016 -25.975250757489277 5.191259946665376 219 185 160 255
12.222834857112872 -25.851535973810769 4.995956827551311 211 177 152 255
12.606383926984648 -25.002113304597174 4.930471787452809 203 169 144 255
13.955209216293667 -25.176028428143582 4.684189128569052 198 161 138 255
15.781312024292021 -25.868841563096964 4.348445158627307 194 156 133 255
17.189678063053435 -26.128538341451303 4.090890958729361 191 152 131 255
18.251631224577380 -26.025010608981887 3.898196654540648 188 146 126 255
18.969585321383960 -25.555003059337253 3.769939581072911 182 139 120 255
19.822686579930604 -25.234894139611299 3.616333857684758 174 129 113 255
20.266418624267942 -24.470384250347763 3.539452750449975 155 113 96 255
20.981507415101078 -24.004239372933370 3.411690727878245 127 85 69 255
21.086932172707350 -22.865573142154517 3.398248014316778 113 70 55 255
21.194187822926580 -21.724437240462436 3.384482521004962 103 61 47 255
21.505176927687160 -20.806783849609644 3.332518148084823 95 58 43 255
21.548470368967742 -19.585827048496043 3.330789238226188 88 55 39 255
21.259015621304172 -17.983217293016537 3.391527390023562 76 49 30 255
20.973316951792015 -16.375541547076864 3.451605729591513 66 39 20 255
21.557935634536051 -15.753186739014041 3.348356986699443 65 36 18 255
22.474625462826907 -15.513397145276372 3.182756184383756 66 34 18 255
23.123940967040937 -14.969870843967612 3.067334867161875 71 35 20 255
23.904871499476258 -14.581006899384647 2.927184412866715 71 33 15 255
23.496121069588924 -12.807117831910290 3.010481923418681 93 56 38 255
23.882041296894414 -11.954487877609665 2.944540119727044 114 79 60 255
24.005723266133145 -10.791194594115638 2.927878285310662 118 87 66 255
23.738020458738958 -9.159246151708118 2.984791559892521 128 102 80 255
26.605050369803735 -9.942952028340500 2.459124160020266 129 114 86 255
26.860708660988450 -8.933833112948491 2.417666679337273 123 111 83 255
25.045161406831028 -4.074744081129097 2.772449888054325 91 91 57 255
26.343342494595134 -4.316948641962369 2.534990785194942 84 86 51 255
26.671380415495520 -3.376296830410411 2.480014381719997 66 74 38 255
-24.331371296131977 -4.299237130761924 12.773550415149074 207 179 149 255
-21.752722030423570 -5.470099256114082 12.290688039485644 214 172 153 255
0.445962056997587 -23.677504255469813 8.079281633039308 212 180 155 255
2.743933178090003 -24.728839371678959 7.648907728761301 210 180 154 255
3.700880412440910 -24.434376899692211 7.474590971971992 213 181 156 255
5.215717278418708 -24.715670754750732 7.193637937845885 212 179 154 255
6.725946489180274 -25.003177790242148 6.913488316173407 215 183 158 255
8.440570992434488 -25.513084360954565 6.594191134280358 222 188 163 255
10.149622113411311 -26.030506585948217 6.275866810930196 221 187 162 255
11.506373931814693 -26.192959497765969 6.024818119973588 217 183 158 255
12.651611526135042 -26.142612104710338 5.814157081107091 211 177 152 255
13.310691312610373 -25.585784986046008 5.696446285394565 203 169 144 255
14.313341867177030 -25.395697288785868 5.512982414024385 196 161 136 255
15.931954031701792 -25.869066638994326 5.211597868036037 193 155 132 255
17.134076588897813 -25.908017697519341 4.989846736383960 192 154 133 255
18.264504365607252 -25.877639844783658 4.781764862871512 188 147 127 255
18.846189730938164 -25.259167727216919 4.678709474694529 179 136 117 255
19.359398125781837 -24.567027033588545 4.588759571604655 166 123 106 255
19.804611811155098 -23.800567378651920 4.511830707147361 134 91 77 255
20.724203207612476 -23.556473278065113 4.344009956318082 85 41 28 255
20.830861186966189 -22.416508624708740 4.331946465958936 69 26 14 255
20.602275583812172 -20.898572694198748 4.384170593511627 84 43 32 255
20.309872638938998 -19.300684028318159 4.448683815697279 75 38 27 255
20.625068505132276 -18.377531134440432 4.396742984003517 69 35 25 255
21.074995244170537 -17.604711684802595 4.318972691520742 61 33 21 255
20.723876766420602 -15.919988624911554 4.394876081761282 56 29 15 255
20.376834315855717 -14.229767875462045 4.470062714357084 54 28 13 255
20.233220699945377 -12.763250481697924 4.506272940018185 55 28 13 255
21.285951850240480 -12.671631422682140 4.312882918622790 62 34 20 255
21.145671985461576 -11.200617009479629 4.348504719742323 75 43 25 255
20.678653734246808 -9.340160814618798 4.446923717367639 87 59 38 255
19.755683853427882 -6.932487432754755 4.632999734582711 88 67 43 255
18.051884028498421 -3.585646892091120 4.969205719713358 49 41 14 255
-24.869844042056116 -3.598445826617649 13.898895925055378 207 184 152 255
-21.865446813471976 -5.189070228691094 13.325287909078178 212 174 153 255
-19.579609362402550 -6.089218917617757 12.891451550917303 213 171 154 255
0.039813217137322 -23.109953568871276 9.090263602912387 213 181 156 255
2.478418874036748 -24.301936126129362 8.625485292516743 210 180 154 255
3.716455567076878 -24.291812794878325 8.394646314665017 211 179 154 255
5.091059535513011 -24.429418989703663 8.137099478715434 214 180 155 255
6.601263857192549 -24.716058792987241 7.853014426084719 217 185 160 255
7.758757897110172 -24.648600262125626 7.637662222460712 221 186 164 255
9.677310443839190 -25.380255447179934 7.273696367355768 222 187 164 255
11.104234729332745 -25.613252055627470 7.005578837770408 219 185 161 255
12.388600601998121 -25.706597140686824 6.765210613535466 211 176 153 255
12.979563632441881 -25.075538801438313 6.660206096826620 204 170 146 255
14.327077043669760 -25.249674275776243 6.407378916306804 199 164 140 255
16.082556891509796 -25.869341265572842 6.074743242358167 194 158 134 255
17.147210713704965 -25.761129631855795 5.877019793119068 192 154 133 255
18.072527575956002 -25.508921929610324 5.706481380502616 188 147 127 255
18.586785840302156 -24.815351327552690 5.616286246934116 176 135 115 255
19.168957421140846 -24.196144699875703 5.512801111010965 156 113 96 255
19.615009189085782 -23.428603171032307 5.435937084009062 125 81 67 255
20.332042100166007 -22.959426449558691 5.306041559371117 103 59 46 255
20.912955092717539 -22.341915016621215 5.202767368770701 76 34 22 255
20.819768833436285 -20.973966024583177 5.231472390623999 63 23 14 255
20.393340072972990 -19.225663294451294 5.325497717695292 64 28 18 255
20.038357594862134 -17.546959793004305 5.405613837018365 51 19 9 255
20.155654652299859 -16.393008406849077 5.393267616116688 41 13 2 255
20.208054302693199 -15.160624105283063 5.393676143740116 32 8 0 255
19.863213290426529 -13.468241034428956 5.472004981899367 28 6 0 255
19.389638184910240 -11.617562195918424 5.575660067769263 26 4 0 255
19.450730136324836 -10.373452922526781 5.574536075474754 24 4 0 255
19.183552351859305 -8.742283306897093 5.637860537646930 40 16 3 255
18.656434108666502 -6.797857122089454 5.752273983442208 49 27 7 255
17.082148195314034 -3.610394404966712 6.072349399736886 39 24 3 255
15.714834248761662 -0.641666474936585 6.351995935190750 11 14 0 255
-25.549465470332223 -2.757492644205911 15.057826919018162 186 182 138 255
-21.906970923901611 -4.978411411952209 14.347944891778916 211 178 152 255
-0.436000999849568 -22.471474286385416 10.119533215160267 215 182 158 255
2.072994124842126 -23.732694126109095 9.633214206311926 211 181 155 255
4.082466736348579 -24.506345573293032 9.246067162110215 212 180 155 255
5.875386870569969 -25.074371580263602 8.901852829120564 216 184 159 255
7.104531858094049 -25.075590757705868 8.669732355146380 221 189 164 255
8.121637754327963 -24.865097423752445 8.479753209241984 224 189 167 255
9.552867757657253 -25.091450495167152 8.207221955445490 222 187 165 255
11.118316578361544 -25.468573735383586 7.907840684604047 218 183 161 255
12.540656582353080 -25.706914441050969 7.636859262947624 212 177 155 255
13.614066092363799 -25.586375958303620 7.435333665494333 205 170 148 255
14.959876917215666 -25.762033282793539 7.179418148056065 202 166 143 255
16.164512580441510 -25.796300263439861 6.951563668716609 196 160 136 255
17.023599260717447 -25.467127508005888 6.792572081717580 192 154 133 255
17.880979574840438 -25.140255161817521 6.633875681959815 186 146 126 255
18.600403818877112 -24.667650961440359 6.502675810086068 174 133 113 255
18.843016634947332 -23.676848463353537 6.466665136457671 157 114 97 255
19.290227725248940 -22.907791776486448 6.389809456502697 139 96 80 255
20.008232251054892 -22.437099674261191 6.258846999058342 114 72 57 255
20.995101247730076 -22.267373810530870 6.074116498197242 92 50 38 255
21.306410952216282 -21.349812520217370 6.024389828286807 74 37 26 255
20.745500722197960 -19.451963497778820 6.149114763311985 65 31 21 255
19.988633277582665 -17.320712642868529 6.313160482025239 51 21 11 255
19.571966320173516 -15.560113307535602 6.409274229280079 42 16 7 255
19.559768247300667 -14.249382940687497 6.424532536809330 35 13 1 255
19.683075860908161 -13.087687640381574 6.412717199234550 26 7 0 255
19.144634864733433 -11.159530290202866 6.533481653707938 24 7 0 255
19.008412851867377 -9.684276477333981 6.573786013678962 33 17 3 255
18.479081108956649 -7.743831996886087 6.692945595060571 59 41 22 255
17.823031635849617 -5.642498632544175 6.837630237483822 60 43 23 255
15.858341419392900 -1.988204548742090 7.244868956671930 49 41 18 255
-22.302334921965553 -4.416187420383551 15.443948849550232 206 176 147 255
-19.663727860157621 -5.666649119563203 14.925163459543477 216 172 155 255
2.019139644710037 -23.519462145777908 10.574046717550267 218 183 159 255
4.798209641598760 -25.077973666254792 10.024815860515439 216 184 159 255
6.449284572090335 -25.504486624984253 9.704291050564841 220 189 166 255
7.676980281210035 -25.507013219930400 9.469594138697524 223 191 170 255
8.484197481786879 -25.081641257334979 9.320216127223496 223 191 168 255
10.191783895905019 -25.597766015072324 8.987834170208252 220 188 165 255
11.547774633652267 -25.758922800775338 8.726760770005825 213 181 158 255
12.899803983566585 -25.925421123274532 8.466377282091024 211 178 153 255
13.765694255518298 -25.586744606669242 8.304758370816579 206 172 147 255
15.179650756647391 -25.835552288108630 8.031574757581076 200 165 140 255
16.383643347656772 -25.870038870949031 7.801000254219787 197 161 137 255
17.379120959798939 -25.688250176243230 7.612780593662073 190 154 130 255
17.758098637198373 -24.845438686783154 7.550047224152479 183 145 122 255
18.682246473702349 -24.594017566890557 7.376258382981014 175 137 114 255
19.196863117534178 -23.899933301180198 7.285867767191554 158 120 97 255
19.982407536315520 -23.503779015075025 7.140238420891222 144 101 84 255
20.428589276708891 -22.736158097422788 7.063771044173407 119 80 61 255
21.009864234983638 -22.118001661505446 6.959747462175081 101 66 47 255
21.254348206427039 -21.124910101660248 6.924434368360359 83 50 33 255
21.432905668261867 -20.054899820437925 6.902608745842493 73 42 24 255
20.474770656654954 -17.698787109027052 7.112933544077350 54 25 9 255
20.325112272048955 -16.242275200764283 7.158308434360777 47 23 11 255
19.712143920885183 -14.249798328056983 7.298439883887625 39 17 4 255
19.503362607277097 -12.707190648982618 7.356103785642006 38 20 5 255
18.966459677307370 -10.777955177576416 7.480955701759541 50 32 15 255
18.566893531447420 -8.995158394497707 7.577858191057516 65 49 27 255
17.973751359093967 -6.975937915514464 7.714493081173771 68 53 30 255
17.122646758800784 -4.641298695015166 7.904081185866829 65 55 31 255
15.621489414032141 -1.525055240244512 8.226961096050196 44 43 20 255
-22.626218089315444 -3.924334441793519 16.529616856181299 205 178 148 255
-19.776032485085295 -5.384896130035315 15.959001649073826 217 171 154 255
5.513163814527189 -25.649645739310699 10.799242767186939 219 185 160 255
7.092383113702937 -26.006273715777837 10.489034550526895 221 189 166 255
8.039904163549295 -25.722947170591112 10.309473797849009 223 191 170 255
9.193836129854958 -25.658540962357165 10.087084641998750 222 190 167 255
10.552729044098555 -25.815010770631432 9.822121976611975 218 186 163 255
12.322606752394250 -26.411800601610082 9.471832435656047 211 179 156 255
13.396623740031430 -26.289402388678923 9.265649773011624 211 177 152 255
14.330296676533607 -26.024746069306104 9.088489533874757 208 174 149 255
15.536640090676713 -26.055415598431665 8.854674963851522 199 163 139 255
16.397098419965488 -25.723731941299803 8.692551881899270 196 158 135 255
17.324203227124258 -25.467930454440506 8.516528390103758 189 152 129 255
17.430975406084514 -24.329276775280164 8.510852259933486 184 146 123 255
18.355954357214415 -24.076340089518965 8.335191553118619 179 138 116 255
19.211034960994766 -23.751904761922134 8.173991941689387 160 119 97 255
20.267538316104009 -23.653118061371174 7.970842487195327 145 103 82 255
20.983627144423082 -23.184599924406882 7.838424128820961 126 87 65 255
21.496489158057074 -22.492864207511673 7.748263017383657 106 70 47 255
21.135296408268232 -20.824961061882533 7.840073076076123 94 60 38 255
21.247650219663797 -19.678771237485591 7.833381684849790 85 53 32 255
21.428739341096389 -18.605646555541028 7.812424144731864 63 32 13 255
21.144117130677728 -17.000238616823196 7.888582004644007 50 21 7 255
20.730080146213254 -15.237831981664499 7.991843332257915 42 15 2 255
20.121166297578441 -13.240945707504693 8.135894640210800 39 13 0 255
19.716402792098791 -11.466029445231044 8.237517879859467 40 18 1 255
18.919412981222592 -9.225489793388846 8.421159857595917 47 26 5 255
17.469311977959904 -6.208103355831497 8.741396736087317 58 44 20 255
15.765606538616652 -2.869672960729361 9.114926079770107 57 51 26 255
-22.595871268083840 -3.784141485727162 17.544585381721312 207 186 154 255
-19.746879474453408 -5.244271048853989 16.965247676470206 213 172 152 255
-18.245911597341490 -5.374065171423752 16.669530158654844 211 166 149 255
-16.327803824417089 -5.935496782412457 16.285738714963180 192 147 128 255
4.968833531321138 -24.935986129230628 11.834782212911357 217 180 157 255
7.037233815092890 -25.791833874676229 11.417173657813009 221 186 164 255
8.124131086896909 -25.651549023229563 11.206478460567148 220 188 167 255
9.486087133355767 -25.803115017357868 10.937599355452775 220 188 165 255
10.705537417808529 -25.815465025789251 10.698675787862761 215 182 159 255
11.714337745730091 -25.614799041987226 10.504142984208897 209 175 150 255
12.858686828811699 -25.562729182939762 10.280863245625781 206 172 147 255
14.000041043857550 -25.514697180378505 10.058103233641887 203 169 144 255
15.756051787236572 -26.129031571730820 9.705183029229794 200 163 137 255
16.889968792181037 -26.091027767305803 9.483717669586525 197 160 134 255
17.611055795007019 -25.615569832524670 9.349552973693655 191 153 127 255
17.513337708399490 -24.255959274044500 9.388790539159650 188 148 123 255
18.642135535267073 -24.224855989364528 9.168207189043123 184 144 119 255
19.496646365184063 -23.900857844143559 9.005658684423878 176 136 111 255
20.823090660194936 -24.100305283666899 8.742952849688059 158 116 92 255
21.133048465429567 -23.185094081803868 8.695767365067951 137 98 73 255
21.443872676339481 -22.268713081827400 8.648424268259532 121 84 60 255
21.486840482562314 -21.050763801664601 8.657985543815343 111 75 52 255
21.598979315119209 -19.905228479175889 8.652926338085209 103 67 45 255
21.378650670733805 -18.379559378583849 8.718585159542329 89 52 33 255
21.561949250143186 -17.303754610502011 8.698551194286182 75 37 24 255
21.280987690471932 -15.694152123546928 8.777314479657100 55 19 5 255
20.605514615329525 -13.622387928930067 8.940157815157953 41 8 0 255
20.001938304849261 -11.619361345251519 9.087901757348554 51 23 5 255
19.337662707519826 -9.532492010404439 9.248766707577836 54 29 7 255
17.097554661713389 -5.593992970343265 9.745574920674123 42 27 2 255
14.739350756379736 -1.483354563238777 10.268047836054357 34 27 1 255
-22.070647190012664 -4.136250976177337 18.454500948671701 198 170 141 255
-19.858608754165687 -4.962614210941638 18.002799270066490 212 169 150 255
-18.498327598475498 -4.950029493663465 17.733614925888595 213 167 151 255
-17.492654384307968 -4.587489424425314 17.540422586064743 196 149 131 255
-15.508587089575940 -5.224383875171100 17.136965070561807 168 123 103 255
6.006409208078537 -24.574663287331845 12.556721679093251 215 179 157 255
7.652034183485824 -25.005443139116238 12.223667143240256 215 183 161 255
9.084249374178171 -25.227119311743195 11.936319214931530 214 180 155 255
9.543029436157752 -24.442668258794129 11.858346340747907 210 176 151 255
10.830803211889730 -24.527864090608460 11.601840436758195 207 173 148 255
12.321646390740796 -24.836107010926639 11.301430700915823 205 169 143 255
14.014110501004154 -25.369350788916364 10.957372238169420 201 165 139 255
15.495261320984838 -25.690663448832623 10.658652962655324 199 161 135 255
16.561287857262869 -25.577996432072439 10.449299603490665 197 157 132 255
17.556383269581602 -25.395350154755761 10.255141722121728 194 153 128 255
17.731948449669773 -24.330289201523271 10.237837099624059 192 151 126 255
18.316649418697693 -23.707282181030791 10.132206746317529 189 147 122 255
19.036484056228886 -23.233304711492735 9.997349456795952 184 142 117 255
20.160951429516444 -23.207455097314380 9.774959449899718 176 131 107 255
20.540419665049370 -22.364312929171717 9.713587410283431 157 113 89 255
21.122316014524131 -21.745083358256778 9.608426698657141 141 99 76 255
21.502391204775364 -20.901119943297431 9.546936579810968 132 91 69 255
21.949983870429264 -20.131737388469332 9.470839529878710 123 81 60 255
21.863299115938389 -18.757789662754476 9.510518113084906 107 65 46 255
21.712754828471873 -17.304324754712127 9.564149281264761 91 48 31 255
21.831289029030984 -16.150524311218248 9.559543765258496 59 16 0 255
21.421004273732166 -14.384796205907946 9.669753199793270 52 10 0 255
21.345967087639252 -12.995133489598970 9.707362116487587 72 34 17 255
20.745640806405731 -10.988781944067597 9.859164656931775 74 43 22 255
19.492176613973754 -8.206884455919806 10.153098630933620 56 40 14 255
15.422646827359415 -2.100356662200284 11.059544522179429 39 32 4 255
-21.899077742222971 -4.136795618097949 19.438825199878316 196 158 135 255
-19.688134071656918 -4.963163865947422 18.980879784678557 216 169 153 255
-18.539303905154526 -4.738314490884932 18.754787745518513 215 166 151 255
-17.463299495468505 -4.446103728080971 18.544497345352958 196 147 130 255
-16.109718295055814 -4.441839916988670 18.273360055031944 171 123 105 255
6.833238731286457 -24.000165768430577 13.321807311442463 208 176 155 255
8.821799522510958 -24.795295756559483 12.908915748938227 210 176 151 255
9.350756132654624 -24.081826524949406 12.815813604165633 205 171 146 255
10.500770526528697 -24.020948955287764 12.586436118827713 199 165 140 255
12.474063246162785 -24.836666969592244 12.176206050172603 202 166 140 255
13.822240413229963 -25.005262715486936 11.902948820278262 199 163 137 255
15.372059822930908 -25.398640569769725 11.585208097676983 198 160 134 255
16.233220825225345 -25.065016431831054 11.418619605351758 197 155 130 255
17.229100080345489 -24.880855259024855 11.222322239864702 195 153 128 255
17.678216987545852 -24.109475157539265 11.146212269865792 196 154 129 255
18.399120481693444 -23.633852919132124 11.010278691015941 194 150 125 255
19.051231004986732 -23.085430803342717 10.889441431967995 189 145 120 255
19.905307551392127 -22.761354421422766 10.724065214553526 186 140 112 255
20.488044611438170 -22.140914011903789 10.618420332765908 181 135 109 255
21.204857285322760 -21.670803716740807 10.483181187296658 173 127 102 255
21.920607506555257 -21.202125156069457 10.348123241844029 161 115 91 255
22.367590042987587 -20.433613720009845 10.272344225757678 148 101 79 255
22.280669575135221 -19.060538319379589 10.314489010395185 139 91 70 255
21.996726092065302 -17.456446962145549 10.400289712408146 83 34 17 255
22.181650201109818 -16.379050387141746 10.382597098286233 81 31 16 255
22.036660827045722 -14.918707794354077 10.437939970398581 85 38 22 255
22.027030475171955 -13.606964501797734 10.463463898731383 93 52 34 255
21.821980101493409 -12.062043188596874 10.532362000376516 90 55 34 255
21.291347887778954 -10.128333128897367 10.673532709355605 78 54 30 255
19.124693257980141 -6.261626997810311 11.177513551585996 63 48 22 255
15.988862676594664 -1.218346133415707 11.896986536507484 34 34 3 255
-48.566600845627477 -2.432813241963288 25.893728804804383 204 179 148 255
-25.218297901599101 -2.059275689604192 21.171637845095390 182 137 113 255
-21.304058016066335 -4.559317823484264 20.328942412643087 201 153 134 255
-18.813494268822808 -5.669154466451886 19.802256723090863 215 167 149 255
-17.526149674053073 -5.588001800646623 19.542962760488209 212 165 147 255
-16.662719652712582 -5.085485263905696 19.377902625535150 196 146 129 255
-15.660806645100251 -4.727225989329099 19.181912286220935 170 122 102 255
-14.242275135501416 -4.800166389361209 18.892949080457662 146 100 80 255
4.973911269413065 -21.917280260233468 14.659894785961569 207 175 150 255
7.866946491931714 -23.642908479332391 14.039390928943902 201 170 144 255
9.089778587920051 -23.648755285829338 13.791379629707670 203 169 142 255
10.792085095294283 -24.166545419419606 13.436063017577517 203 168 140 255
12.488819795061062 -24.691849026186958 13.081718736867849 203 166 140 255
13.768093497127381 -24.787084733443749 12.820475478558869 200 163 136 255
14.838266492288909 -24.667784901789560 12.605843804629764 200 161 133 255
15.974093535199529 -24.625452104171643 12.376376583832517 200 157 130 255
16.902429858998516 -24.366412239983021 12.193237843536359 200 157 130 255
17.624723634795430 -23.888711972960806 12.056172651768073 204 159 132 255
18.006734695133645 -23.042368407183801 11.995352100923348 200 156 127 255
18.592340018365007 -22.417984162891884 11.888874115427761 196 152 124 255
19.380092340831055 -22.017511483806686 11.736994042453247 195 147 117 255
20.301183375508970 -21.768236139731897 11.555095135014831 190 142 113 255
21.354649181381092 -21.671458443289168 11.343347608769598 183 136 107 255
21.936163971324333 -21.052585614240058 11.237563389795021 177 129 101 255
22.584138870307555 -20.509593084802304 11.116803935965336 167 117 92 255
22.897778223716443 -19.589935577976632 11.071242379228067 141 91 69 255
23.012607899151590 -18.441861835539385 11.070481455558046 110 59 39 255
23.262062102161480 -17.443251337861483 11.039476464674692 125 74 56 255
23.247753330767921 -16.138310436948188 11.067975813291660 124 75 57 255
23.103761117593592 -14.677238826022801 11.125837247687372 109 65 45 255
22.896964256512149 -13.135353511309489 11.198018132094347 101 63 40 255
22.825111464558177 -11.742500613144671 11.239899480710775 97 64 42 255
21.312946165514006 -8.650829165554626 11.607247382782511 82 60 35 255
17.847570878214981 -3.227948219126517 12.416500477018786 59 49 22 255
-53.616293555072332 -0.555594169354833 28.052461515167842 135 132 88 255
-50.261355224889883 -2.152502855713351 27.330925398526809 163 137 106 255
-48.384078025579697 -2.433285821812376 26.940427236215186 207 172 150 255
-45.196230763504047 -3.924638468190608 26.255355092132440 208 172 149 255
-45.229910807987949 -2.480965068516241 26.293438381619097 206 171 147 255
-44.823986456317925 -1.437106381044657 26.232836482638724 204 167 139 255
-43.981369584809840 -0.796989831307201 26.074061119654573 202 170 138 255
-37.094052574817624 -1.600472092476195 24.645878180328573 182 150 118 255
-35.474546721026741 -1.732522712933303 24.311236437444435 180 145 114 255
-30.822178376619831 -0.586647280329544 23.382577780268043 196 155 129 255
-29.221710420014176 -0.744359021167156 23.051209732221970 198 155 130 255
-27.200712003228091 -1.327612846499505 22.624513693701786 196 150 127 255
-24.974176881811559 -2.130014101911684 22.150979111163203 196 148 129 255
-21.062318641066781 -4.630275886509082 21.295613507190303 213 164 149 255
-18.854694263316162 -5.458178354058106 20.825380971155489 214 168 152 255
-17.637564351170312 -5.305624311735812 20.579163030522899 212 166 147 255
-16.843745442986403 -4.731272417502908 20.428735234719291 194 145 128 255
-16.120885379580415 -4.087167495162987 20.294333727377243 167 118 101 255
-15.119856501172734 -3.729703728598565 20.096762543659118 142 95 77 255
-14.120864665583440 -3.374984886007667 19.899538146496113 104 63 41 255
6.290340123591648 -21.842024462678353 15.320070410938236 199 169 143 255
9.105659454982629 -23.504846706107259 14.707304370785877 200 166 138 255
10.945323404496889 -24.167197539957471 14.315942872455231 204 167 140 255
12.710009136873509 -24.765217674159459 13.941319068148985 206 167 142 255
13.919989871209395 -24.787745494842142 13.692712838176547 205 163 138 255
15.195094777480108 -24.887891614988632 13.429086843983825 206 162 134 255
15.920324330570537 -24.406030912025358 13.290627610487647 204 160 131 255
16.576371967121105 -23.852021238690327 13.167885496223924 203 159 130 255
17.503509957722429 -23.594201643790740 12.983225393778497 206 161 132 255
18.021836955616322 -22.895026606411335 12.891804888698054 203 158 127 255
18.810610965826584 -22.492909578814533 12.738580403636014 200 155 124 255
19.395573568575401 -21.869312635435620 12.631867331410270 202 153 123 255
20.384005273003083 -21.694273267978645 12.432841177309648 199 150 120 255
21.571551033652895 -21.747046730877230 12.188117343293150 192 143 113 255
21.951863104388366 -20.903098611407614 12.128049858148934 184 134 106 255
22.533218170090720 -20.284361465735657 12.021944924275751 171 121 94 255
22.714120460039737 -19.212994763094400 12.007606906051578 153 103 79 255
23.561647283591157 -18.897081576352861 11.840447791459567 160 109 88 255
23.943012911682104 -18.051706537644037 11.780169256216304 150 99 78 255
23.861588879268481 -16.672321726013195 11.826176497468303 137 90 68 255
23.650896115478560 -15.136373179003726 11.902025425493285 127 82 59 255
23.443636238828844 -13.595792707474970 11.977263283694988 116 78 52 255
23.502645657932391 -12.357906382380833 11.991437442739510 108 72 50 255
22.777217568592505 -10.192548441497479 12.186246814246061 93 66 43 255
20.423074761224058 -6.087499339936670 12.756408333979515 79 63 37 255
17.495891686085855 -1.266223829679973 13.459346406517291 56 51 22 255
-51.032194979138978 -1.289797028896317 28.599869354822779 199 157 134 255
-48.421291775412783 -2.233937884391139 28.037223675221860 209 166 147 255
-45.965342516249734 -3.056283768250296 27.509482626199848 206 167 148 255
-43.882109275009213 -3.554364164113053 27.066454627703997 205 167 146 255
-42.969405978915063 -2.984914143202445 26.890655206579027 211 166 145 255
-42.275840035893452 -2.214844280944192 26.764887310222413 208 164 141 255
-41.944809967233368 -1.106778498955862 26.722044092327728 205 162 137 255
-38.755542233418339 -1.270798690413983 26.057561195560460 199 154 131 255
-36.124439361479858 -2.353056021823647 25.487378445075436 201 156 133 255
-34.866282403247340 -2.144614196444536 25.231535838063422 205 158 136 255
-33.181415727990156 -2.352998796881081 24.877611561873373 207 160 140 255
-32.287507887390063 -1.808868506512852 24.704980275444875 206 164 142 255
-30.682034561655485 -1.958935542820029 24.368824040741188 206 165 143 255
-28.938908893219036 -2.254125720523291 24.000770651380023 208 166 144 255
-27.697850241216997 -2.068728084867530 23.747857007043073 206 163 142 255
-25.964117023008839 -2.376580098758097 23.381426509942621 209 163 144 255
-24.094345912171434 -2.831733168725805 22.983384357825564 209 163 145 255
-21.243645344042932 -4.279350721847379 22.359103124605859 213 166 150 255
-18.965983003744640 -5.176710798257318 21.866281756635182 217 171 155 255
-17.467984504174922 -5.306321596829719 21.552767824166224 211 167 148 255
-16.674323895004818 -4.731979334975506 21.401476165571850 190 144 126 255
-16.161105221050747 -3.874309643518188 21.314837580336409 163 116 98 255
-16.135441584245314 -2.516478157197980 21.340785000743487 140 94 75 255
-15.620655994086661 -1.656688894642116 21.253844040931774 107 71 47 255
7.602855067948099 -21.770867878504305 15.975774171883685 194 166 136 255
10.547505693167579 -23.587934501610732 15.323380422525112 206 170 140 255
12.587483863396415 -24.475071067958709 14.879950623962010 208 168 142 255
14.277507887471387 -25.007242978449312 14.517238843984366 208 166 141 255
15.209630417115875 -24.742311789207122 14.330002983759307 208 166 137 255
16.071491541792795 -24.406750927981648 14.158950917232580 206 163 133 255
16.727429979850456 -23.852747712673050 14.035612073276980 205 161 131 255
17.450538189327688 -23.373540258011531 13.896616189502346 204 160 128 255
17.766081051163326 -22.451676921635169 13.852301408397288 201 156 125 255
18.352848541813984 -21.825569244251085 13.744937127624731 200 155 124 255
19.276339958592047 -21.572268507972836 13.559170591167366 200 153 125 255
19.995999594214908 -21.097705260093278 13.420749716065792 196 149 119 255
21.385670435853569 -21.373393786282719 13.126139984134795 192 145 115 255
21.833811033017639 -20.603466612623720 13.050796926111225 191 144 115 255
22.616105259608503 -20.209813853897316 12.897506622156484 181 134 107 255
22.997263508446252 -19.364832803653542 12.837764368442400 176 129 103 255
23.844220731949747 -19.049356365440218 12.669255457952659 171 121 97 255
24.357952863268935 -18.356349890220713 12.578516413070602 166 116 93 255
24.408580516386991 -17.130201156249996 12.596055567524182 147 101 77 255
24.197424305294447 -15.595558309815686 12.674962748341336 137 93 68 255
23.923878229539497 -13.979668431076817 12.768668071172932 130 89 63 255
24.113723241039395 -12.896531643290359 12.754033452459630 120 84 61 255
23.650054169246715 -11.040886129940191 12.892661095278442 104 74 50 255
22.603023726437556 -8.483505864321927 13.168376251490564 88 68 42 255
19.608149719835268 -3.591471471445345 13.901644565906174 71 59 31 255
-48.531446291306338 -1.968006504113191 29.152565992240305 204 157 141 255
-43.555936930737857 -3.689036463073819 28.067804136209496 208 167 147 255
-42.425657077984170 -3.321852976662001 27.840242380359932 208 164 145 255
-41.515343609697027 -2.755357860128925 27.663689038053043 211 166 145 255
-41.040679879319043 -1.784467024446144 27.588418759571063 213 171 147 255
-38.254504680607567 -2.986449160351128 26.974954696260006 207 168 143 255
-36.703056783138265 -3.043172717751474 26.648562912081815 207 166 144 255
-35.874838693462493 -2.422058264754071 26.490487918065284 209 167 145 255
-34.832481816700522 -2.008107229456868 26.282392556158996 212 167 146 255
-33.792154315190089 -1.596889423385278 26.074636715624152 212 170 148 255
-31.825531593771814 -2.085605076612808 25.650475258232952 208 170 149 255
-30.577620130804917 -1.890388302174074 25.393836629887282 208 170 149 255
-28.621841154020785 -2.393722709867689 24.971550787729271 211 168 149 255
-26.814142204558266 -2.766118676410088 24.583520540801807 210 167 148 255
-25.012026851091321 -3.146042424874508 24.196457738561058 211 168 149 255
-23.286097807068245 -3.463390310958857 23.826893435407207 212 168 149 255
-21.354105285592482 -3.998794705483590 23.408734137115886 216 170 152 255
-19.006660212215024 -4.965829998724132 22.892814928689781 215 168 150 255
-17.719161838678872 -4.882527720773453 22.624999402827385 211 164 146 255
-16.714819559990417 -4.519812357342914 22.423423051544319 187 139 119 255
-16.480274680046847 -3.376736258955873 22.402464378245639 169 121 101 255
-16.383491232850020 -2.088803844701545 22.413945510915362 144 97 77 255
9.668584552091602 -22.501256655091993 16.448606162865453 205 178 142 255
12.190614408160684 -23.894124666548322 15.885452854519336 207 168 139 255
13.812606626789375 -24.351634278605388 15.534048160358147 208 166 141 255
15.224310036043590 -24.596780931968965 15.231957331187147 209 168 139 255
16.154429221189616 -24.334155888513465 15.043342053914394 208 167 135 255
16.878444326196217 -23.853523073854859 14.903302551083634 205 164 132 255
17.329938713960189 -23.079132076418773 14.827630946975610 205 161 132 255
17.917063751122924 -22.452466360678500 14.719872336527764 205 161 132 255
18.436225946078622 -21.752133837222345 14.628169451957227 203 158 129 255
19.292199913007039 -21.424173088791719 14.456663808381755 200 153 125 255
19.675918458967203 -20.575856904778675 14.396988125524317 199 152 123 255
20.797848436549941 -20.550503878071453 14.162247767703938 196 149 119 255
21.515387780929586 -20.078592554469083 14.023290474505274 192 145 117 255
22.498822454673302 -19.909372925559637 13.821118439942424 191 144 118 255
23.013859059579886 -19.214594668906670 13.730096100172652 185 138 112 255
23.860888868606594 -18.898688780920935 13.560124348290209 182 135 109 255
24.374927262387473 -18.205253986240450 13.469264807137876 170 123 97 255
24.426188212781256 -16.978678607263220 13.488562504792171 161 114 88 255
24.413662210451548 -15.672803893547609 13.523180977899685 149 105 78 255
24.337830340146581 -14.286980925780284 13.573035459378886 139 99 71 255
24.396021069936666 -13.051053340578562 13.591090892637418 129 94 68 255
24.390905435271975 -11.735178303062128 13.624382999299470 114 85 59 255
23.800603713289320 -9.720599132054360 13.797574146176828 103 81 52 255
22.173501293051430 -6.459118017231390 14.218854461939699 86 71 42 255
19.712215050992853 -2.173444453740785 14.840253651698163 64 57 27 255
-45.487308697861010 -1.745070734061812 29.601149588124365 214 173 153 255
-43.044896632294410 -2.582474661352023 29.061790060449063 211 170 150 255
-42.350492732775592 -1.811126498570729 28.935227175701307 207 165 143 255
-41.294836951436423 -1.378863197396129 28.723153614692954 210 173 147 255
-38.581288690131885 -2.511621792211088 28.118484656479460 209 175 148 255
-37.173356296563441 -2.430544981530375 27.822460799113323 207 173 148 255
-36.200149910736229 -1.944206986238044 27.629221527407701 203 172 144 255
-35.587077574131399 -1.117267359815855 27.521256772816109 206 170 146 255
-33.472087446469402 -1.735190657914757 27.056914550170113 206 168 145 255
-31.649423036189376 -2.086322045369570 26.661531863335789 205 169 146 255
-30.401952625712170 -1.891117235567606 26.402421291808338 205 168 146 255
-28.660203075480581 -2.186109706533614 26.025627272052184 207 166 146 255
-26.711078450444063 -2.697198895122199 25.599173443533239 207 168 145 255
-25.121768948987608 -2.867256820008720 25.257940367838749 205 168 145 255
-23.466519000321398 -3.113640120079253 24.900704492134345 205 168 144 255
-21.605023417452003 -3.577643962215973 24.494009386670740 208 169 146 255
-19.047100288893716 -4.754996641044727 23.920912770190256 207 167 144 255
-17.969821467495024 -4.458783157624282 23.700409640830159 202 160 138 255
-16.335613672893373 -4.733535622649754 23.346820591894598 192 147 126 255
-16.031587332137718 -3.662315365892880 23.310577131893815 175 134 110 255
-16.213493684400930 -2.089631618906537 23.390511647946774 138 101 75 255
11.245472943471327 -22.731533370793358 17.026881206533425 205 172 137 255
13.006197971397881 -23.331431844599194 16.637804360161262 208 166 139 255
14.419529973828162 -23.573544359387995 16.331764139695949 209 168 139 255
15.487883590265909 -23.454613732156986 16.108334405373007 209 168 138 255
16.621543652506830 -23.412865496068974 15.869021596414534 208 167 137 255
17.209669015680902 -22.784775012667438 15.760756687585101 208 164 135 255
18.135658787694751 -22.527319490527816 15.571117326483886 208 164 136 255
18.722140322786515 -21.901442020795002 15.463123289573183 206 162 136 255
19.779549267208921 -21.797264200975860 15.241577836262003 207 160 132 255
20.028192685783210 -20.800709811962747 15.214925219948732 206 159 131 255
20.881148651430124 -20.476485210451244 15.042487327957389 203 156 128 255
21.732399543715701 -20.154558850474984 14.870342541392461 197 150 122 255
22.915409183275102 -20.211504479753387 14.617904818131507 195 148 122 255
23.762448525753712 -19.895255958220986 14.446489064514829 190 142 118 255
24.076812552070891 -18.975318565352097 14.403850895062007 183 136 110 255
24.392042510294829 -18.054211403236678 14.361052528159284 180 133 107 255
24.642087921897343 -17.055753354069054 14.334097955870909 170 124 98 255
24.827430256414431 -15.979294974879878 14.322902323071368 160 116 89 255
25.080009986567404 -14.977415217300660 14.295486990154977 151 110 82 255
24.874792668268867 -13.436119226246916 14.379285564724753 137 104 76 255
24.738416614861165 -11.967238325692676 14.446581291343655 125 95 67 255
24.605151941190485 -10.494158905420704 14.513321434725519 114 87 58 255
23.693941255024157 -8.087127618900979 14.769507075123514 104 82 53 255
21.880699324836115 -4.582968614635831 15.245727403064883 81 66 36 255
-56.068704969265696 -0.568297554380194 32.979897667240216 136 121 77 255
-54.176033893705494 -0.823981479674160 32.567728359601155 146 115 82 255
-43.546600649680840 -0.529487731725737 30.301290050567765 198 164 136 255
-35.839023899885319 -0.706528275225139 28.646184478522819 188 178 136 255
-34.009978579026040 -1.047967202416828 28.244930033095720 190 172 135 255
-31.649418256346280 -0.507236280580400 27.754596752131015 198 173 140 255
-30.118189415929635 -0.589534418324661 27.424340041973103 194 163 134 255
-27.953767580580575 -1.304631041356458 26.940692626160200 198 164 136 255
-26.573917667046203 -1.260689780100165 26.646362981252054 198 161 134 255
-24.563133895982560 -1.852594601642693 26.199042097689706 195 158 131 255
-22.769945100283394 -2.242370409917385 25.803979605055169 193 161 132 255
-20.771780309414453 -2.851289255890265 25.358850253226741 192 163 133 255
-19.270343257826113 -2.973749517880890 25.033742106388523 184 160 125 255
-17.284150939820421 -3.598810797485214 24.590692390515166 175 151 115 255
-16.628863165873668 -2.880078617986385 24.470381172297273 166 144 107 255
-16.669417747576148 -1.447834402807132 24.519106901223047 115 105 64 255
10.576085831027569 -21.859844404707474 18.109958153682712 192 178 134 255
12.611541447449213 -22.748857271021024 17.648850764029170 206 169 137 255
14.230296792064621 -23.208676364844081 17.289021392798418 210 169 140 255
15.230971584914727 -23.015303960405475 17.079883448835034 211 170 142 255
16.636886645943775 -23.266579564985477 16.771470190022846 212 171 143 255
17.631896101398837 -23.080844689488629 16.563311857527317 212 170 145 255
18.489335811094691 -22.750249122408263 16.388671273819760 213 169 144 255
19.210170815430843 -22.273491092758775 16.247378136932205 208 164 139 255
19.997231704668081 -21.872612076588297 16.089763606770340 207 161 135 255
20.581524866500132 -21.249604691698721 15.981797659761789 205 160 131 255
21.098431182573108 -20.552280105665432 15.890339431704078 202 157 128 255
22.016078753766237 -20.305673413071418 15.700404363315776 199 154 126 255
22.998346681426739 -20.137111986585182 15.494433456531617 197 151 127 255
23.978268480488026 -19.971713735074957 15.288869637822337 192 146 122 255
24.425246415493888 -19.203495099291501 15.214344896847180 190 142 119 255
24.740119734752199 -18.283043869836888 15.172374210701946 184 136 113 255
24.791844018395153 -17.056698961304278 15.195331700760626 177 130 106 255
24.911561558582235 -15.903849518317543 15.201658141783597 169 123 99 255
25.295839472476558 -15.054986712265901 15.142793143477121 160 117 92 255
25.156483001747972 -13.590744912739126 15.213320944782687 149 113 85 255
25.085600476203581 -12.199350324592615 15.267133572060956 139 105 77 255
24.952307021414697 -10.726926614584272 15.336576849937408 127 94 66 255
24.757083431700380 -9.172825234552931 15.421565972413291 114 84 56 255
23.527193133264717 -6.370966490649124 15.763116389453501 100 78 50 255
21.464491083782491 -2.544707857355263 16.311731166847970 78 65 35 255
12.080853215978749 -22.020477241634637 18.698085477164696 202 169 135 255
13.700452754881667 -22.478130409871824 18.333614643263310 209 168 143 255
14.634346390968489 -22.209231962819047 18.139163885613947 211 169 147 255
16.312946703052404 -22.752444469138283 17.759358729480603 214 172 150 255
17.511910814649355 -22.786587352987709 17.498501542191143 215 173 151 255
18.504870382909019 -22.603158042720565 17.288694876007995 215 169 146 255
19.091065046231677 -21.977512347230260 17.180072690965773 209 167 142 255
20.080291481327379 -21.799114388965819 16.970905660870194 205 163 138 255
21.000088517276453 -21.549217865131112 16.778883987550394 206 163 138 255
21.516336092918749 -20.852767414220040 16.687478769682009 205 161 136 255
22.232765357262622 -20.381739814900300 16.546033277779621 203 159 134 255
23.014732289764936 -19.987456636371462 16.388112528709421 202 156 132 255
23.861755525201318 -19.670567365788031 16.213802167854119 197 151 127 255
24.309406956793765 -18.901488575938430 16.139370018949521 192 146 122 255
24.691164755243221 -18.056141761038020 16.081459430952684 186 140 116 255
24.941553461914793 -17.057696607031005 16.056526035947407 177 133 108 255
25.258925996487790 -16.134045321426214 16.014863115895793 171 129 104 255
25.511528637520485 -15.132610240209999 15.989523774250529 164 123 97 255
25.437939464535475 -13.745422392434193 16.046244340553045 155 119 93 255
25.432456962356127 -12.431513839756320 16.086037503638899 147 111 85 255
25.429444768197811 -11.114271336881302 16.125387380162174 134 103 75 255
25.233918418792285 -9.561258479098115 16.213404552341721 122 95 66 255
24.976989507829330 -7.925919381520316 16.317150398795938 112 88 58 255
23.365653434009829 -4.649379755864288 16.762805243046003 90 71 40 255
21.764798975194765 -1.358698411162379 17.206598291480837 74 64 37 255
13.784939051354911 -22.405946093208740 19.228665332868822 202 170 137 255
14.922693444179458 -22.356925615630814 18.980979225682013 209 169 144 255
16.667999045705812 -22.974155694460222 18.579455128928139 212 172 148 255
17.662964092738662 -22.787566255995216 18.367305061591928 216 174 152 255
18.385513049506130 -22.308090284403022 18.223934007665740 216 169 149 255
18.972287372737355 -21.681585099889048 18.114870268592334 211 166 143 255
19.827422885733654 -21.353431648924868 17.937723091346506 207 165 141 255
20.814922131443637 -21.176904007401959 17.726850990354180 206 162 139 255
21.398830685807837 -20.554257770314138 17.618263361854950 204 159 136 255
21.982319971662093 -19.932174936906733 17.509740276103813 203 158 135 255
22.565390140405555 -19.310655392684566 17.401282098837818 202 156 133 255
23.546393552087807 -19.142882512189658 17.191522833252087 197 151 128 255
23.995199922551308 -18.372294101051494 17.117098159249522 193 147 124 255
24.642443099558534 -17.829292958422315 16.992113175152134 188 142 119 255
25.157126530356834 -17.134926240575510 16.900869449599220 179 135 111 255
25.605963499658060 -16.364291217037106 16.826416034662451 175 133 108 255
25.727077343392182 -15.210285431538608 16.835676474422165 170 128 103 255
25.653732778532458 -13.823321671412259 16.894777089012010 160 121 98 255
25.778986035053322 -12.663728394036127 16.903290780188044 151 114 90 255
25.775851437001961 -11.347141604693206 16.944807974956255 141 108 82 255
25.645290957751882 -9.872263565375988 17.019158456757630 128 98 71 255
25.517842075293913 -8.393186441440008 17.092952126903363 117 91 63 255
24.682600633034156 -6.052889852272756 17.348586291014307 104 82 53 255
23.209321384420406 -2.922367677039631 17.768570360774085 88 72 46 255
11.485506481083917 -19.773732363239731 20.735871146654269 176 171 125 255
14.871046044622744 -22.137855145193612 19.908907903224353 201 168 139 255
16.887142638478423 -23.048754662075254 19.432728046032217 210 168 143 255
17.543448714285034 -22.493409052840093 19.305622118724393 214 169 147 255
18.468893736197288 -22.235112409560372 19.109186210954313 213 168 147 255
19.190383731691867 -21.756858458938893 18.965099122469773 211 168 147 255
20.112256878474170 -21.503375337622259 18.769273062020972 208 166 144 255
20.898127855308076 -21.103296686291969 18.608348842843881 207 163 142 255
21.348479600110238 -20.330680702659777 18.533900874969838 204 159 138 255
21.932387846506117 -19.707954884060484 18.424963420978386 203 158 137 255
22.781900839071739 -19.387046647988967 18.247325058858443 202 155 135 255
23.696055793006508 -19.143964647274061 18.052816542313046 197 150 130 255
24.144893075692778 -18.373383106814003 17.978598838056634 194 148 125 255
24.593954453276268 -17.602497279291384 17.904332844710247 191 145 122 255
25.174967796002079 -16.983666824754579 17.795864028467996 183 138 115 255
25.821267266931045 -16.441793938564246 17.670412554343208 178 136 112 255
26.139114345385082 -15.517850382975865 17.630187296726980 170 128 104 255
26.065533008305152 -14.131760243874396 17.691753720599095 166 125 103 255
25.994743270932702 -12.741902337400234 17.752818333127529 156 116 94 255
25.991806794637313 -11.425538925348519 17.796446414215318 149 114 90 255
26.315848777494551 -10.493231802049195 17.755096961521481 138 106 81 255
26.058087078994561 -8.860502882586388 17.865492566710351 123 96 69 255
25.545754089373332 -6.911067220091013 18.042616567505192 115 89 62 255
24.265405677714341 -4.017317050670329 18.420699018838086 99 79 52 255
22.801153928682339 -0.876558666225037 18.847580357611690 77 68 38 255
13.597329223604845 -20.598321987163672 21.157290399611504 176 169 124 255
16.157718188152757 -22.093297704193077 20.533041501394536 199 163 132 255
17.356676994901619 -22.125506586163937 20.263695275907374 211 166 142 255
18.484898580380161 -22.088170734820068 20.012554766802204 210 168 144 255
19.408340701582460 -21.832179684538858 19.814739564205404 211 169 147 255
20.396858025242580 -21.653366509463069 19.599698062420494 209 166 147 255
20.914439417556082 -20.955076022292104 19.507878964952951 208 163 144 255
21.565484095023123 -20.406674690833029 19.381032461963592 203 158 139 255
22.415648201428951 -20.084559464178000 19.201841642047803 202 157 138 255
23.397027300245668 -19.915366882511023 18.988023246078505 200 153 135 255
24.110866157401460 -19.447216640722644 18.844336694531307 198 151 131 255
24.492953853108645 -18.601762143621954 18.787843239196093 195 150 127 255
24.809609272321865 -17.679606714816117 18.748618435081617 190 145 122 255
25.192948387340891 -16.832459876264693 18.691885483610484 186 141 118 255
25.839460228551502 -16.290159122677352 18.565778117962701 179 134 111 255
26.223249259327190 -15.442401704535371 18.508949695263972 175 130 107 255
26.280904837084563 -14.209761272360652 18.538319204083635 172 129 107 255
26.471061881147989 -13.128308626497670 18.532836312238324 163 122 100 255
26.467682054146906 -11.813034146821735 18.578689593263270 153 117 93 255
26.661338080325550 -10.726857974386178 18.572573275757584 143 109 84 255
26.468335280353216 -9.172479951209681 18.669062683434952 131 102 76 255
25.956092829666318 -7.223918367812729 18.850527794516900 119 92 65 255
25.320136566262676 -5.112310236990936 19.065273367432688 105 83 54 255
24.176142858913749 -2.366304374533001 19.415496000771377 89 76 45 255
