ply
format ascii 1.0
element vertex 654
property float x
property float y
property float z
property uchar red
property uchar green
property uchar blue
property uchar alpha
end_header
-0.788431137273477 -28.301027697275458 11.055139315541318 214 178 156 255
1.595319076717345 -29.397719686684468 10.586859123478057 214 180 158 255
2.837526325723218 -29.380684925820049 10.349661177973552 216 184 161 255
4.429693818560253 -29.720820982706584 10.041429126502237 216 184 161 255
5.311993369168533 -29.360026836147995 9.876990208421525 215 183 158 255
7.458577136589355 -30.279080677297941 9.456069996455597 218 186 161 255
8.545081311747026 -30.140371068074217 9.250014574365352 222 190 165 255
9.698924477407132 -30.076672699109565 9.030213038511810 222 190 165 255
10.640226768653235 -29.802128543183159 8.853471741656300 216 184 159 255
11.649190013330809 -29.602161465578376 8.662928140100973 211 179 154 255
13.142491236868466 -29.909795802256781 8.373924772316663 208 172 150 255
14.492456311039660 -30.079080829347504 8.113914943398335 197 161 139 255
15.008005893722100 -29.383747549057830 8.023401037946165 197 159 138 255
15.730591416222609 -28.906681968981218 7.890781506260588 195 155 134 255
17.003176288502260 -29.014493313035757 7.646257744091628 190 149 129 255
18.203402342458276 -29.054061114070691 7.416349794616728 181 140 121 255
19.331752913547973 -29.024733523616590 7.200972961072004 170 129 111 255
19.773113206092887 -28.263620719790396 7.125375338956658 136 98 79 255
20.214699027386473 -27.502202633415578 7.049733280179936 94 57 41 255
19.771495297150807 -25.778272618726646 7.154348646023543 49 11 0 255
19.876035455177515 -24.642261721908085 7.147456652267472 64 27 18 255
19.304843069397265 -22.759281990922887 7.278367104963202 64 31 22 255
19.279462541621712 -21.466827228726004 7.298109743233681 56 26 17 255
18.582205508631091 -19.422202867446146 7.454977660217885 49 21 13 255
18.428828880116868 -17.970708555109468 7.501017237681822 41 18 7 255
17.875884578950775 -16.063112990477180 7.628705401374752 32 11 0 255
17.729698806398886 -14.601918229625653 7.673473836812477 37 18 5 255
17.119078553548945 -12.606275160232883 7.813196255571157 50 30 13 255
15.914131495309618 -9.919703648418192 8.074510980036024 60 43 23 255
15.116259757444453 -7.679105729895980 8.252850592507023 55 45 19 255
-32.587823635705035 -3.932266139985472 18.456018333533699 181 176 132 255
-29.400787929500211 -5.601609494821588 17.817552282111812 196 162 133 255
-27.442272065255850 -6.109776411430431 17.432066224788869 197 155 133 255
-3.094118879252164 -27.146454823511249 12.444263195749528 215 174 154 255
0.434515485446354 -29.349692457329894 11.732615587137296 216 178 157 255
2.247164363461138 -29.888813482148407 11.374893910840719 214 179 157 255
3.983146792994376 -30.365563484149646 11.032818657075516 214 182 159 255
4.866256008942031 -30.003349573456660 10.866804117531650 216 184 161 255
6.522579385815106 -30.421763077283089 10.540893397244481 215 183 158 255
7.962794558350538 -30.634332044209998 10.259499836705899 219 187 162 255
9.328601967807828 -30.781483852385122 9.993357037217962 221 189 164 255
9.710962373258837 -29.934237784037379 9.930588646489767 220 188 163 255
10.512687882317124 -29.516008719336696 9.781020721992370 217 185 160 255
11.591594945930296 -29.387020964842577 9.574004945936622 211 179 154 255
13.223669305877365 -29.838130279093491 9.252310536946872 209 173 151 255
14.018668953903699 -29.428968089089608 9.103904016717401 199 163 141 255
14.881443261711638 -29.094166243591019 8.941398045330857 197 159 138 255
15.604518729996670 -28.616236036623746 8.807801028110937 195 155 135 255
17.290232774097092 -29.160765933056496 8.474471666054839 191 150 130 255
18.558329440334745 -29.273918688167385 8.227622131413966 179 139 119 255
19.480220447184365 -29.025150652683578 8.052520496879481 158 120 101 255
19.648202438172945 -27.969714462643935 8.033910556753895 136 98 79 255
19.749504884997833 -26.838438163204160 8.029195738574259 101 64 46 255
19.512484748765729 -25.334608780930836 8.094843885657511 79 43 29 255
19.550386891354520 -24.123068289673824 8.103442783428612 67 33 21 255
19.522732680123966 -22.834172848910271 8.125739746573160 54 25 15 255
18.889612758779663 -20.869942052799075 8.274076747829852 45 16 7 255
17.992306411495662 -18.598939884796977 8.477565902167939 40 14 5 255
17.773924455160767 -17.069966260505851 8.539913308357491 25 4 0 255
18.162578380594738 -16.214208057409451 8.475935345876188 16 1 0 255
17.481276498945363 -14.149185124332575 8.634902737590807 16 1 0 255
16.204946334761701 -11.394749180976049 8.918075669030031 30 13 1 255
14.804016628617120 -8.476819812652764 9.227505281757665 51 37 14 255
11.552412771583903 -3.413343925051947 9.923268578419972 46 41 13 255
-30.328399788496881 -5.927827597365592 19.025873409188350 170 174 124 255
-29.298484212674168 -5.533005551914016 18.830236640352801 195 161 131 255
-27.483772851011167 -5.902492394690341 18.469616947239373 198 152 129 255
0.021975333779380 -28.790992503883842 12.745728353637489 218 180 159 255
2.685664916756423 -30.169633203106798 12.203888695609059 216 180 158 255
4.208022684298811 -30.436291039202700 11.901966933604740 214 181 158 255
5.302406367076259 -30.285919918419836 11.690004691016092 216 183 161 255
6.605319884985022 -30.351420754520120 11.434008642763558 217 184 160 255
8.185550461901244 -30.705726330173547 11.119430860659428 220 188 163 255
9.340387233349361 -30.639522958929518 10.894359979902411 221 189 164 255
9.723149980288781 -29.791848098654327 10.832018914886923 220 188 163 255
10.804017394669870 -29.659697850119642 10.622391109490323 218 186 161 255
12.021401435551326 -29.674838121038476 10.383845499485936 211 179 154 255
13.304902369335025 -29.766511106171606 10.131213771349366 208 172 150 255
13.753502094129288 -28.995741334981176 10.054813195519024 200 164 142 255
14.478772709365643 -28.514648152249919 9.919945849346028 202 164 143 255
15.823530523752197 -28.689405769345456 9.654068625734290 199 159 139 255
17.301906442849116 -29.015363602690314 9.359784214283785 190 149 129 255
18.226656244041550 -28.762347042369726 9.182462670709803 177 138 118 255
18.875510945786118 -28.218604452105382 9.063458070563804 158 120 99 255
18.567340779455492 -26.645714111283525 9.147065177203515 140 104 82 255
18.739951312067774 -25.584336136484154 9.128958357498753 117 82 62 255
18.438182453555868 -24.002809026545719 9.211427684703864 101 66 47 255
18.886234401689137 -23.232764865765546 9.135065599810254 77 44 27 255
18.657881922396200 -21.717924127828155 9.202161299958597 66 38 25 255
18.365465428570758 -20.123778729894042 9.282968778830671 50 23 12 255
17.403394182531287 -17.775732840394596 9.506046934698610 42 18 8 255
17.254461303276940 -16.319480252666267 9.556708285707487 38 16 4 255
17.376721439708717 -15.160293223279268 9.549868267251320 37 17 3 255
16.698496775616860 -13.092243406276083 9.713208898437280 50 33 17 255
15.692459505071525 -10.637781277434414 9.946448537707347 63 47 27 255
14.028325694011812 -7.413828950950176 10.319925725471826 66 55 30 255
10.914377666046590 -2.499699505703745 11.002283126026711 56 54 24 255
-29.984210099953771 -4.705267703215952 20.012029475732980 193 160 129 255
-28.525787957276634 -4.725978649043327 19.722937885437069 195 149 127 255
-26.500764286022957 -5.307651972302438 19.312366969314645 192 145 127 255
-0.815841013353264 -27.813014112979118 13.854402974446465 219 181 160 255
2.415382902156750 -29.749447745445309 13.182560612455660 213 178 156 255
4.644795514985276 -30.718026786534210 12.725079848967916 215 180 158 255
5.949687970209141 -30.780150905847307 12.465641209021271 218 183 161 255
7.250942466860835 -30.847179681029189 12.206832790718579 222 190 165 255
8.548558911684665 -30.919113294856430 11.948654859734631 225 193 168 255
9.422352887655848 -30.568798791808973 11.781370502028615 225 193 168 255
10.154704012694822 -30.077961140870883 11.644407943056571 223 191 166 255
11.513370972357279 -30.233193316692223 11.372739083290121 219 187 162 255
12.868077414568461 -30.393765490870692 11.101758388642402 214 181 156 255
13.386189957134633 -29.694938205759740 11.010631444994495 209 173 151 255
13.765758281952600 -28.851678304598892 10.949317320831788 201 165 143 255
14.629324153546037 -28.515148059822735 10.783782260659677 199 161 140 255
15.766796433344552 -28.471769594257523 10.559157810482056 196 155 135 255
17.107501149693519 -28.651218404465766 10.290601229179387 187 146 126 255
17.552693060132242 -27.885088188068750 10.214988594323010 178 139 118 255
17.724430095584552 -26.825193799268220 10.198371203364985 160 122 99 255
17.351605562698410 -25.174605443615491 10.299338259588026 145 108 85 255
17.868145189609862 -24.477886300018497 10.208429364729476 121 87 63 255
18.044899279538669 -23.411220231151475 10.190908982624912 101 66 46 255
18.562046945057119 -22.713678017021465 10.099880235623367 85 53 32 255
18.402936569178735 -21.271774818015501 10.155052218624327 73 42 29 255
18.314397641487403 -19.900333043112170 10.195079016098646 62 30 18 255
18.094063505402289 -18.375355927481053 10.263732917595810 44 16 4 255
18.145700290653934 -17.146141673069451 10.273640070106396 38 10 0 255
18.065540180356862 -15.763394426032789 10.312174940373950 35 9 0 255
16.985983218190398 -13.243887268167327 10.567375604487552 36 13 0 255
15.780730685186683 -10.562617468653855 10.850129922837930 50 28 7 255
13.719338548884707 -6.882661368514050 11.318899106974264 58 43 20 255
10.476410953721654 -1.814664156832350 12.044544431483267 43 41 11 255
-29.952876126886053 -4.567734830066854 21.044282072657992 190 159 125 255
-28.709017604200824 -4.380316979159488 20.798557162347912 193 148 124 255
-27.111787290666200 -4.544199597141244 20.475648486850552 191 145 126 255
-25.376945803122453 -4.853641825182478 20.122516004085348 187 144 125 255
1.083773756871977 -28.277739153991860 14.396250348017347 217 181 159 255
3.951094036802857 -29.874651050636288 13.792831157716101 217 182 160 255
5.891599899829231 -30.569026532817645 13.391461613080970 220 185 163 255
7.122501497276573 -30.564651427702586 13.144927212105657 224 192 167 255
8.490377650010373 -30.706695265288374 12.868283881964189 226 194 169 255
9.294422367940655 -30.284542756382649 12.714829636730798 225 193 168 255
10.585844319054644 -30.364117412228239 12.454618165757509 222 190 165 255
11.873628071943529 -30.448597182963283 12.195037552426882 215 183 158 255
12.810271841471405 -30.178761274103181 12.012226469228779 212 180 155 255
13.328853041590577 -29.479288628526717 11.920959199232257 209 173 151 255
14.331587546239660 -29.285891842080673 11.723502950050865 199 163 141 255
15.193938271049831 -28.950670289809750 11.556737032214208 196 158 137 255
15.710302813498345 -28.254181710013881 11.465834486632872 191 150 130 255
15.814400608095696 -27.120239023734882 11.465456378256377 185 144 124 255
16.263004777199853 -26.349555672260067 11.389459209427692 179 138 117 255
17.053700491289305 -25.945388914148594 11.238268362842021 163 125 102 255
17.843011806549981 -25.543087779732701 11.087313810242492 150 113 89 255
18.903144940022656 -25.437845788751389 10.876705359725605 130 94 70 255
18.874355537644874 -24.151960054241016 10.905668739600841 111 77 53 255
19.051231004986732 -23.085430803342717 10.889441431967995 100 65 43 255
18.553924497044022 -21.272373301568223 11.021817892177154 95 60 43 255
18.735425850018260 -20.199601387261964 11.004762561431512 86 50 36 255
18.649444466032691 -18.825263266940738 11.046759284561126 71 37 25 255
19.102952316312326 -18.047951377802065 10.969836312964695 55 22 9 255
19.088197344581374 -16.743126439856553 10.996289109657454 41 10 0 255
18.074426346696356 -14.301977133425197 11.243492193689448 48 17 1 255
16.801522045010472 -11.547999487506445 11.548276778608674 52 25 6 255
13.610293547627293 -6.579449921066754 12.277540963065285 48 30 8 255
10.171806775684104 -1.282054115424842 13.062293983756213 34 29 1 255
-30.064494268840974 -4.292213427143281 22.109304079576233 192 160 124 255
-28.891817787808179 -4.034699940966505 21.876829587609031 192 147 122 255
-27.508136133359358 -3.989148099581485 21.597385979042073 192 146 123 255
-26.696629233516887 -3.391159629319816 21.444813263418055 189 146 124 255
2.834988154033709 -28.609389780186007 14.961177850355739 220 185 163 255
5.692913864219520 -30.216866536706249 14.350197949070335 220 185 163 255
7.134916270068544 -30.423681051985966 14.053865202158633 219 187 164 255
8.432439160179456 -30.494321442181047 13.789495702780570 224 192 168 255
9.026953944583141 -29.857948143101964 13.681573057978738 222 190 166 255
10.528139899587046 -30.150451822968137 13.371519886917064 216 184 161 255
11.537418004010107 -29.947778491087206 13.170942069297205 211 178 154 255
12.266532891748966 -29.460895588894630 13.032754324527879 207 172 150 255
12.440247785360981 -28.398950868427818 13.018489330194740 206 166 144 255
14.205500536426143 -28.997364457857316 12.648831581309985 200 161 139 255
15.413097941784542 -29.023758474257335 12.403494308213588 196 156 134 255
15.998095826936066 -28.400206558221271 12.297180102035398 191 150 128 255
16.102137626758548 -27.266705709968363 12.298413970836066 185 144 123 255
16.550451730712638 -26.496463022212140 12.222683989885070 180 138 116 255
17.750582338896265 -26.532920806643205 11.978627604464172 176 135 112 255
18.879232421949325 -26.500266943623416 11.750416962496807 164 125 100 255
20.004889855205761 -26.471647996148079 11.522725880065728 144 106 81 255
20.109896312803983 -25.336836723028114 11.523749407848968 127 88 64 255
20.284418210484802 -24.273784192171433 11.509257942105229 118 80 57 255
19.650181792102899 -22.315306902277229 11.676368814777916 114 74 57 255
19.627567089565389 -21.021579467475277 11.706374836396542 106 66 49 255
19.674626055350387 -19.799397469750659 11.720838525519163 86 46 30 255
20.126077162768922 -19.024908031410831 11.644488667756391 65 26 10 255
20.577750571216427 -18.250117296906410 11.568093335257110 53 15 0 255
19.962142293252441 -16.266505202064849 11.731887282744822 64 27 10 255
18.885986015615742 -13.745416605454977 11.999634375998326 72 41 22 255
16.290286058752571 -9.466854531321843 12.610068735747170 63 41 17 255
-29.818259752002461 -4.361813756380855 23.095763913421699 192 158 121 255
-28.146743424467843 -4.589161594996369 22.748370547153051 191 147 119 255
-27.049608609415202 -4.267556272515378 22.530453674888534 192 144 122 255
-26.807058754104048 -3.113098396645455 22.505529732974246 188 141 121 255
-25.925271644012810 -2.585569179540016 22.336135496861409 181 136 115 255
4.790919686359871 -29.159358144329502 15.470947377005892 215 180 158 255
6.866629531311190 -29.999727036654576 15.027474256593663 221 185 163 255
8.094537485371717 -29.998094912363115 14.775803238426512 221 185 163 255
9.528800106248497 -30.214507683569821 14.477152995960360 220 184 162 255
10.889050852355439 -30.365285864551140 14.195068326712452 214 179 157 255
11.480095174844990 -29.733512735493946 14.087402816758761 209 174 152 255
11.723690494277093 -28.743078781849420 14.058627187515192 203 168 146 255
12.245463043718871 -28.039275078781372 13.966682347758415 200 159 137 255
13.941578233715546 -28.564328080943170 13.607696370618505 198 157 135 255
15.287505295364753 -28.734415173575314 13.328083780337579 195 154 132 255
16.216897647888061 -28.473564931688486 13.143071015334918 188 146 124 255
16.526848672165670 -27.559078848522262 13.099018147830094 189 147 125 255
17.385194135658622 -27.228593025691055 12.930041442845940 184 142 119 255
18.105274494188677 -26.753678050591247 12.792490150937034 181 139 115 255
19.233005577729557 -26.721679727733687 12.561886919053038 174 132 108 255
20.357744227234718 -26.693715979562711 12.331802990770036 165 123 99 255
20.665925318664165 -25.781607447795096 12.288018893665097 149 107 83 255
20.704428674907604 -24.571399580041003 12.305887162399550 147 105 81 255
20.340231780610026 -22.911593559668461 12.415917738881085 140 95 76 255
20.518634987042560 -21.843604164687548 12.402047947670390 129 83 64 255
20.967163610607713 -21.073106764982498 12.326431700421011 115 68 50 255
21.482908675286581 -20.377405977858132 12.235429243745763 70 24 6 255
21.597558238202396 -19.229942561751500 12.236306846530304 65 21 4 255
21.180658817951439 -17.475752242691129 12.359121033284190 85 43 26 255
20.236063837622936 -15.109637067331107 12.603191963851415 90 54 35 255
18.369518575494908 -11.670608223879213 13.059199248175524 81 56 33 255
15.058238065764385 -6.540118201059585 13.847539121898940 68 51 25 255
11.237233079185728 -0.773461549363958 14.753964108369622 46 41 12 255
-30.715463916332851 -3.327208620124452 24.344099168521133 186 156 118 255
-28.044115753804135 -4.520564523203518 23.762939039988133 191 145 118 255
-26.876031968877783 -4.268202934937449 23.526711881246875 191 143 120 255
-26.420348896795019 -3.322763378256241 23.454125116556902 190 142 120 255
-25.893306090128704 -2.446466380882612 23.365136486873169 185 137 116 255
-24.871491460512743 -2.060590245868866 23.162262050162163 175 131 109 255
5.756876978135949 -28.726739220486422 16.198389588912882 207 174 150 255
7.267220641896614 -29.005095901439830 15.878874426689542 211 179 154 255
9.122175080543713 -29.645619765461674 15.479561011744984 211 178 154 255
10.831547994722257 -30.151709476464987 15.113513781332948 210 174 151 255
11.144929022629668 -29.232787744984620 15.069691787268525 206 169 146 255
11.528543311296573 -28.384528882970017 15.009670116643235 201 164 141 255
11.981906594681135 -27.607586161636448 14.933534362826741 199 159 134 255
13.816251946292539 -28.275896348047070 14.537797185684717 196 156 131 255
14.955615522516723 -28.227633977282636 14.302636611617920 194 154 129 255
16.160701236701044 -28.256119781379880 14.052072974103538 192 150 126 255
16.951143182894270 -27.851497640161369 13.897438046252276 192 150 126 255
17.876989146752749 -27.595033028283467 13.711309538858600 191 148 124 255
18.391410349324360 -26.901118435938344 13.620542450047374 185 143 119 255
19.109950989891985 -26.428074379675252 13.482361674434401 184 141 117 255
20.099074285418368 -26.251651857319501 13.281244241975180 180 138 113 255
20.747097131974158 -25.708322150668522 13.159284505844141 176 133 109 255
20.786073403764703 -24.497905214769872 13.178945014582290 168 126 102 255
20.624916440310272 -23.061236598761951 13.245298092100441 162 114 94 255
21.072289182629618 -22.292348678168480 13.170105721162628 154 104 84 255
21.922529676596042 -21.972449641922935 13.001044964814398 113 62 43 255
22.302438223822946 -21.129157579025417 12.941537368411709 87 37 19 255
22.348960825136089 -19.908552269032867 12.959827191161388 111 64 45 255
21.731378888962951 -17.929724002568207 13.133248179413435 120 73 55 255
20.919763613517375 -15.716415881371120 13.352285944366571 100 61 42 255
19.716645337953707 -13.038785058010831 13.663170906667752 97 64 43 255
18.058767812267035 -9.816754517436834 14.080859895338222 89 66 40 255
15.223681666170307 -5.205400488528198 14.774580100402346 72 57 30 255
-31.111434886062511 -2.775757878255888 25.483747838683335 171 150 107 255
-28.440173094574959 -3.967379283491198 24.894507270284173 189 143 112 255
-26.986844209436185 -3.991090007497007 24.589385502122418 189 142 118 255
-26.388589573206843 -3.184129302735471 24.483995828360143 191 140 119 255
-25.931959885233141 -2.237523265886466 24.411725029608668 186 138 116 255
-25.404180217153510 -1.360279134683253 24.322811227069600 176 132 109 255
-24.312645818468070 -1.045300634027171 24.101825033624074 156 119 95 255
5.881513678587794 -27.444355073169788 17.120770235135815 201 171 145 255
8.227683716802261 -28.578439777025380 16.600950916476577 203 172 147 255
10.008297150458446 -29.152682955352162 16.213493560787704 207 171 147 255
10.463006623712715 -28.373980052447564 16.137364000494735 207 166 144 255
11.333823081204855 -28.026026135191557 15.963362845262729 202 164 141 255
12.548694240920611 -28.040672892951790 15.708276819402258 200 160 135 255
14.036213126780808 -28.348901575500065 15.388778910480461 197 155 131 255
14.830828786268654 -27.938387372909261 15.232261460846807 194 152 128 255
15.830067737829296 -27.747873632933477 15.027408618602358 196 152 128 255
16.758449258310094 -27.487597344488591 14.839120846220503 198 153 130 255
17.821497387136588 -27.376346523717245 14.618915156724938 196 152 127 255
18.336385478043127 -26.681788285004416 14.528005112702239 195 151 126 255
18.919202147539011 -26.060938727557982 14.421026382985801 193 149 124 255
19.908786625130006 -25.883436733567976 14.217827182793386 189 145 120 255
20.760615250446392 -25.561071992788669 14.047071600543951 184 140 115 255
21.137938986862991 -24.721386164219894 13.988542837395805 181 137 112 255
21.246280101053287 -23.583169611903969 13.993758029321590 177 129 106 255
21.625337767221481 -22.741140835296477 13.934905783029862 157 107 84 255
22.072001091759745 -21.973256740074731 13.860043602721611 149 98 76 255
22.251287860956694 -20.904675562924581 13.848642442671661 155 107 85 255
22.165125559274600 -19.532797223956010 13.900361981333852 140 93 71 255
22.281492463651603 -18.383745038124886 13.904119684892187 132 85 65 255
21.735506009945368 -16.474740357153962 14.065466642924108 123 78 57 255
20.929528023520390 -14.255076520503764 14.288970490590067 114 78 54 255
19.997677730484270 -11.874519864695998 14.542820794412464 104 73 48 255
18.479359628616038 -8.796987865058355 14.936795618489427 87 64 37 255
15.589589159274965 -4.097266030520871 15.658271155048361 70 53 26 255
-30.721706526185528 -2.983518207305053 26.441288683097888 165 151 105 255
-27.909904417491646 -4.314266575244517 25.810454404502046 194 147 116 255
-26.315884010416880 -4.477977989820431 25.468425708361131 192 144 119 255
-25.860535349914699 -3.533217728850730 25.396896020424855 189 140 118 255
-25.263203424724054 -2.727485051838926 25.291596383717859 186 138 116 255
-24.807081299672973 -1.781673670020552 25.219896208962659 178 133 110 255
-24.139229374613308 -1.046085243102766 25.097769719974984 158 121 98 255
-22.980167131797884 -0.804834027026800 24.858502684894141 128 101 74 255
6.079061859545078 -26.229871257669288 18.030197025152795 194 171 141 255
8.281665375737759 -27.225396900555495 17.537135372871298 203 168 141 255
9.365601963570725 -27.085467427828803 17.311049622232119 207 167 142 255
11.208795532479172 -27.739413647291968 16.903130198138108 207 168 142 255
12.631142027765662 -27.969379473976630 16.595557010061057 205 163 139 255
13.980262054218144 -28.132841470670854 16.305242739428685 202 160 136 255
14.981506593472318 -27.939168104030273 16.098049312952071 200 158 134 255
15.911779552961036 -27.675949341035533 15.907717400678038 200 155 132 255
16.771563890405503 -27.342533769537226 15.734162052266271 200 155 132 255
17.424741896442214 -26.791977716487452 15.610101181971089 199 154 128 255
18.281597902996594 -26.462507376509592 15.437041261116114 199 153 127 255
18.932812862822175 -25.914594560332688 15.313305936269998 197 151 125 255
19.854558113937173 -25.662867116543708 15.124426637446625 194 148 122 255
20.706619565351673 -25.339857570099014 14.952183422912036 190 144 118 255
21.219495519905337 -24.647990728198891 14.861528602548326 186 140 114 255
21.328262104615618 -23.509565712582543 14.868267138085599 179 133 107 255
21.371685198830761 -22.294003750046159 14.890875488465873 164 117 91 255
21.551288062592192 -21.225299824259963 14.880746568676877 159 112 86 255
21.732399543715701 -20.154558850474984 14.870342541392461 157 109 86 255
22.181789882063299 -19.383040927459319 14.795194712634512 154 110 85 255
22.431807108382600 -18.384625739485017 14.768266288236084 143 99 74 255
22.483896348799504 -17.157363855933141 14.789301990871380 134 89 68 255
22.074658333372724 -15.395447801931994 14.922174860800837 128 88 63 255
21.603766079905824 -13.551418369442672 15.070266970946257 116 82 55 255
20.544580035762806 -11.013446035462039 15.361295860747383 103 74 47 255
18.572783341710078 -7.392617685760911 15.874230050107798 88 66 39 255
15.367265815173141 -2.295694268799878 16.687470605963789 68 57 29 255
-29.761773544999414 -3.743438355329829 27.259472311159918 141 148 91 255
-27.593609957878471 -4.453496329466248 26.775202671909000 186 145 112 255
-26.000587809539695 -4.617654392743020 26.429414140767499 195 141 116 255
-25.616319616319402 -3.603675791613739 26.375553206250117 187 140 113 255
-25.089839099912354 -2.728288786609426 26.287326426918163 186 139 112 255
-24.633642981874914 -1.782491325020374 26.216110618107258 179 133 106 255
-23.895509750369911 -1.117236790713093 26.076620597409246 162 125 97 255
7.809270243816741 -26.583514744201210 18.571090378227332 197 172 142 255
9.241168386643295 -26.799765310116811 18.258198104113646 207 167 142 255
11.084100276908828 -27.452847811774149 17.845003403912777 208 166 142 255
12.368349023929710 -27.537830969345464 17.567392562832431 207 166 140 255
13.717857083144594 -27.699996189939100 17.273627452584613 207 165 140 255
14.719723490743945 -27.505027265851197 17.064326825960286 208 164 139 255
15.582089639605016 -27.167801429789648 16.888883117919328 202 158 133 255
16.511164659734163 -26.905802497967443 16.697030181372597 200 156 131 255
17.233451668435038 -26.427098062433089 16.555534362507430 200 154 129 255
18.090861942544279 -26.096549624065545 16.380931435540070 199 153 127 255
18.946566668678855 -25.768299442819909 16.206618965818251 196 150 124 255
19.868336905437786 -25.516144394464561 16.016012467874269 196 150 124 255
20.990910691105569 -25.488762863813747 15.776084814766627 191 145 119 255
21.503449081051826 -24.797337229507889 15.685427707712726 188 142 116 255
21.746735827081636 -23.808249992155510 15.660776108946422 184 139 110 255
21.655571425639152 -22.444235332630797 15.718260268809836 186 139 111 255
21.701136255568855 -21.226210702636479 15.742355516266727 180 133 105 255
21.815659010001411 -20.080379715294043 15.749647054102297 175 129 102 255
22.265241091757048 -19.308651600997621 15.674677322672530 160 116 89 255
22.648560987945615 -18.461089310933403 15.616017330323665 155 111 86 255
22.899775624624056 -17.461295207108634 15.589911119431079 146 102 78 255
22.821355332555811 -16.080076816458671 15.645090184884147 137 97 71 255
22.481711272112477 -14.390367441962695 15.764856552638619 129 94 66 255
21.619395261058685 -12.083980532384317 16.013844625142305 118 86 58 255
20.632354338752975 -9.615405578326119 16.294081151185871 104 79 51 255
18.342144834106563 -5.600402248690216 16.896760819284502 86 68 42 255
15.281284679270470 -0.642363727551924 17.690912053385908 62 57 27 255
-27.846406978359710 -4.038908045669075 27.878426493497365 179 146 108 255
-25.756468170727373 -4.687922571715376 27.406690859866835 189 143 114 255
-25.159886227599031 -3.883180382264015 27.301430917410890 187 143 112 255
-24.563400841723251 -3.078564062241526 27.196168860294939 186 140 112 255
-24.037475573336280 -2.203972370965971 27.108242670114002 181 135 107 255
-23.370724841789865 -1.469716179631405 26.985640480925518 168 124 97 255
8.241109515880339 -26.869983952854284 19.386669669251255 177 175 132 255
9.741071198877819 -27.158736966054022 19.053205470309464 202 171 139 255
10.613873171592502 -26.807115593039356 18.874527775707698 210 169 141 255
12.037062983729527 -27.034270636951362 18.559487713598919 205 170 140 255
13.662522380458057 -27.484030679472482 18.194032670837110 208 168 142 255
14.733216957278671 -27.360912558649432 17.965686242387605 208 168 142 255
15.184482346413773 -26.586991960785213 17.890761382403930 208 164 138 255
16.114547495265242 -26.323263866933331 17.697012466304194 206 160 134 255
16.769757967120114 -25.769685472189082 17.571365281668584 203 159 130 255
17.696411682216308 -25.510553894345492 17.378195354416228 203 156 128 255
18.756808084239935 -25.401314076024420 17.151608507973883 200 153 125 255
19.814534009410409 -25.295674236029697 16.925482841287014 198 151 123 255
20.802026498972367 -25.119620260355163 16.716643728789613 196 149 121 255
21.045741871215455 -24.130196151327993 16.692971919333750 192 145 117 255
21.357887838568502 -23.213613412686698 16.652311284132615 190 143 117 255
21.603819393035877 -22.221194924147824 16.628226920334534 189 142 116 255
22.386303032201710 -21.826218826220781 16.470232837183872 185 138 112 255
22.700084584877231 -20.907422997714775 16.429253821080529 178 131 105 255
23.147930841775917 -20.138085189894639 16.354803856509044 174 127 101 255
23.197368597246992 -18.915258210623023 16.380061121857132 164 118 93 255
23.514069277068813 -17.992518409699215 16.338539509371003 151 109 84 255
23.501047640590684 -16.688788467930920 16.379701837915981 146 106 80 255
23.226668206229505 -15.077001278320324 16.486581394786548 136 100 73 255
22.561262809990353 -13.001765568352482 16.691861757160460 127 93 65 255
22.229717089684186 -11.301935003913059 16.813710598243759 116 85 56 255
21.312962257020558 -8.905138537246557 17.082929142349322 100 81 49 255
18.509018612940878 -4.264610221563032 17.827288435039954 85 69 38 255
-29.590963472530518 -2.170488490985520 29.356942261143068 163 149 102 255
-26.646877282326159 -3.647034574390716 28.666437058983924 185 141 110 255
-25.057561852654430 -3.814388618693556 28.313412043386244 190 145 114 255
-24.531512569836366 -2.939684666590779 28.225704632805154 187 140 110 255
-24.075653991366266 -1.994570177974538 28.155544081473799 186 139 111 255
-23.267978446471602 -1.400316485899509 27.997378069947850 172 128 101 255
8.854722529385924 -26.085249738547105 20.193612644710321 188 177 136 255
10.559200800189046 -26.592486546179146 19.804568954328069 206 169 138 255
11.706388523590135 -26.530758905419361 19.555295679975210 207 168 139 255
13.607425039874045 -27.268111928411628 19.116000891872780 212 166 142 255
14.472282505345731 -26.926868392947341 18.937243645369129 212 167 144 255
15.266952598270592 -26.515211267152267 18.776038970614430 210 165 142 255
16.128560004767451 -26.178345989149278 18.597829718218684 209 163 139 255
17.124781931859786 -25.990069413344571 18.385494169243437 207 162 136 255
17.982656407470216 -25.658234177868053 18.207919983417888 206 159 133 255
18.974502104021582 -25.475855680929840 17.996334209251181 203 156 130 255
19.760966708443789 -25.075253736521290 17.836518785718923 199 152 126 255
20.883631412308290 -25.046581987602934 17.591468501135672 198 152 125 255
21.060321873514539 -23.982720309752978 17.585849421041168 195 149 122 255
21.507303415017816 -23.214606813926252 17.511805168091776 194 147 122 255
21.887474469700692 -22.371524884601229 17.454719032622080 192 146 121 255
22.870055420189829 -22.201630149426137 17.244708201100174 188 142 117 255
23.116444583061195 -21.208828699640662 17.221567919810752 183 137 112 255
23.297468781541738 -20.139108922375243 17.215130720243458 179 132 108 255
23.546393552087807 -19.142882512189658 17.191522833252087 169 124 99 255
23.862736967586613 -18.220799720351550 17.150830030341922 163 121 96 255
23.849591582013801 -16.917728000608747 17.194162949459582 154 112 88 255
23.443454250824885 -15.154239416742712 17.337904223503479 146 109 82 255
23.238962964778239 -13.614008635424142 17.430516964074648 136 101 74 255
23.234673023180562 -12.298984804563645 17.472257646902428 127 94 66 255
22.905706811370095 -10.596479703359819 17.597172241384364 115 89 60 255
21.210168519109118 -7.270513476784743 18.071958660401457 102 77 49 255
18.679026781402115 -2.925556924462910 18.761491376623930 84 69 40 255
-26.685693840300985 -3.439591945273378 29.718656685263035 181 141 105 255
-24.601731548815906 -4.093976968152504 29.236204456238788 188 142 110 255
-23.935241987265101 -3.359929644845181 29.113021033571464 191 142 112 255
-23.269172756408125 -2.626444590511539 28.989891111635124 185 139 111 255
-22.673732407785508 -1.823203325592772 28.884662031286176 174 131 104 255
-22.288530592244172 -0.808479564077800 28.832885408434599 161 124 95 255
9.952131887453930 -25.803167157339431 20.877347235868740 192 173 133 255
11.996588663943356 -26.675829499532881 20.396244399240274 202 170 139 255
13.896350413737849 -27.413622450253570 19.951577846044010 208 168 142 255
14.760634373631575 -27.072822843967629 19.771479856911782 211 169 145 255
15.486342696520694 -26.588898691689565 19.626735926348438 211 170 148 255
16.074440925194551 -25.960547503980592 19.517175485436255 212 168 145 255
17.070801088816808 -25.771627713364097 19.302817898251185 211 165 141 255
18.064812249583554 -25.585873882495491 19.088863128591704 209 163 139 255
18.717516542852707 -25.035390272675500 18.962407903910993 205 159 135 255
19.707634631014940 -24.854882741598715 18.749117499801720 201 155 131 255
20.492994454890351 -24.455501476929271 18.588317938496367 201 155 131 255
20.873115439896452 -23.612604583707878 18.531754525605550 200 154 130 255
21.119485024385938 -22.620075551381831 18.509693654308286 197 151 127 255
21.969933426270927 -22.297912312251896 18.331919950137539 196 150 126 255
22.885504825562293 -22.052926040027245 18.137189518659241 192 146 122 255
23.132385740169951 -21.059699933734521 18.115006371046462 187 141 117 255
23.313948406773847 -19.989555624432313 18.109794221105183 182 136 112 255
23.762401165628233 -19.219494903909606 18.035653666517895 174 129 105 255
24.078708246123540 -18.297636255823903 17.995733237510230 168 123 100 255
23.867686969222888 -16.766899822218818 18.092498028630963 162 120 96 255
23.528371945523787 -15.079168841665251 18.222800403015995 153 115 89 255
23.784462445979898 -14.073505739667553 18.198931153797083 143 107 81 255
23.910653756035430 -12.913014234459268 18.208885051984986 135 100 74 255
23.646378086982281 -11.289079006055658 18.320459958864767 126 96 70 255
22.603188769567197 -8.735532284417417 18.634925638507141 112 84 57 255
20.526609895077485 -4.935539828705942 19.218998755225599 100 77 51 255
18.138251846150496 -0.730982245816165 19.885340565172143 82 71 41 255
-27.219915188272921 -2.746047323190908 30.900028752297267 157 141 96 255
-24.711476508272597 -3.816269632951958 30.302386698639786 183 138 105 255
-23.691994026925158 -3.430791624364019 30.087905966498546 187 142 111 255
-22.885510653439951 -2.837744859930808 29.928195506640570 183 138 108 255
-22.501057580629265 -1.824212922766151 29.877346250839729 178 135 106 255
-22.115736970457931 -0.809505863094159 29.826322572700199 166 127 98 255
11.184614953037084 -25.667999326945818 21.522262288434568 192 172 135 255
13.910203419797455 -27.270071462215782 20.857460531386529 209 171 142 255
14.431810384263855 -26.566380407731458 20.765060687554339 212 168 145 255
14.953321797902390 -25.862814818531234 20.672662721531374 210 169 147 255
15.679419807647605 -25.378158484817931 20.526946766338789 210 169 147 255
16.880922453284683 -25.406944732864190 20.257190220018984 211 167 145 255
18.011205046354291 -25.366837334879506 20.005723643130189 213 167 143 255
18.596536063070886 -24.742133329239721 19.896277192031889 209 163 140 255
19.586953290788244 -24.560765360287235 19.680935583836494 205 159 136 255
20.372752368977700 -24.160524476805193 19.518890318531071 203 157 134 255
20.955380484922529 -23.539458343070436 19.409885209443161 202 156 133 255
21.604691852155582 -22.993400631053760 19.283368671772607 200 154 130 255
22.521027968285694 -22.746991218157831 19.086790597562938 197 151 127 255
22.834314170915945 -21.829392526068204 19.048212422218633 193 147 123 255
22.881987510929207 -20.610235655618425 19.079423249218330 187 141 117 255
22.998271483850630 -19.463487254725067 19.092782296133869 182 136 112 255
23.713073751023217 -18.994037218824928 18.948924757645621 178 132 109 255
24.096124675360102 -18.147283168343421 18.892260330115086 174 129 106 255
24.083854700554383 -16.844013186174095 18.939736347789491 166 123 100 255
23.942421388666020 -15.385048230952037 19.021456930309448 161 120 95 255
24.329354690532995 -14.533050371458046 18.964077820022212 151 112 87 255
24.520344304638343 -13.450477605510542 18.958460939828974 144 106 81 255
24.059482333947642 -11.597580083268269 19.125173237405058 135 102 77 255
23.147106431754651 -9.199002798173808 19.411664978499068 122 92 66 255
21.916613333117112 -6.404727255732382 19.782931779002801 108 82 55 255
20.240696351270003 -3.056555494160023 20.272897121908031 93 76 48 255
-24.891490045893420 -3.468940189329146 31.389118426269526 177 138 103 255
-23.308012228894029 -3.641465087938741 31.025298630924816 185 142 110 255
-22.713000537338701 -2.838781418281314 30.920054955780309 184 139 110 255
-22.328429193688635 -1.825267186591873 30.869960036435849 179 135 108 255
-22.012942925226355 -0.740040506195385 30.838045687405604 169 128 99 255
13.237561957271339 -26.403807077461295 21.945637183832922 193 174 136 255
14.172098695731250 -26.132480356746328 21.744246632934399 204 167 140 255
14.557873860279983 -25.282203187230522 21.687764885909608 207 168 145 255
15.285100932674823 -24.795820446330964 21.540960159460845 210 169 147 255
16.623445729790660 -24.969166721670319 21.232206624323993 211 169 147 255
17.822114588399558 -25.001126310782610 20.960110617223926 213 168 147 255
18.678978435077227 -24.669661157802580 20.778370923186458 211 166 145 255
19.736749667077618 -24.561879313908037 20.543136152516730 208 163 142 255
20.252837927406546 -23.865597685111425 20.451557497908730 202 157 136 255
21.037692959124001 -23.466360632921436 20.288499600449960 201 156 135 255
21.754109895428996 -22.994540487686152 20.143517220965037 199 154 131 255
22.603254702016926 -22.673474937419883 19.963083583080952 197 152 129 255
22.716623105989640 -21.531030443650849 19.978579824939608 192 147 124 255
22.964968647793370 -20.536306094039759 19.958226352595489 189 144 121 255
23.280914624685295 -19.615289721952678 19.919923055315564 186 141 118 255
23.928987560707583 -19.070749760660362 19.792956747075891 183 138 115 255
24.047588867565111 -17.921235640640106 19.807482244505209 178 133 112 255
24.233950717714890 -16.845213768023314 19.804030731763604 171 126 105 255
24.487591456700841 -15.843334085158176 19.782688189740298 166 124 102 255
24.873639828542622 -14.992641871972012 19.725954825904729 158 117 95 255
24.998434947565784 -13.834763205761362 19.739345597519950 154 113 91 255
24.406876194295506 -11.829301735029333 19.945220156144217 144 109 85 255
23.885803358183637 -9.893655887063062 20.132635491200013 129 100 74 255
23.174859847884619 -7.719431312754125 20.371564660963536 117 91 64 255
22.340295986954743 -5.382160033077923 20.644308512647797 101 80 53 255
20.671943163831088 -2.025915753726167 21.142259258744723 81 71 41 255
-25.353285372964137 -2.842989852096878 32.553419662674337 167 139 99 255
-23.628253640382127 -3.153338606631621 32.148107924365952 182 136 108 255
-23.172592256761618 -2.208946311471777 32.079977401684921 185 137 114 255
-22.506183261061040 -1.474769582265537 31.955766898978602 181 136 113 255
-22.049914478114943 -0.529547335834479 31.887482771313920 171 130 105 255
12.749149638348854 -24.466252281929997 23.038850050405372 185 171 130 255
14.299718160674985 -24.847061835795159 22.670427178609252 199 167 139 255
15.300288895360922 -24.651095340010244 22.449347991881965 208 166 145 255
16.706350311293534 -24.897158945710231 22.118976826126080 212 167 146 255
17.769070285099133 -24.782187058747667 21.880618311133212 212 169 147 255
19.032074986995127 -24.891548441614873 21.588043780694782 209 167 146 255
19.886500323672578 -24.563040056767591 21.405279694475269 211 166 145 255
20.537231030980962 -24.014792452726567 21.277308600647629 206 158 139 255
21.254391244681983 -23.541768726814894 21.131316156166356 202 157 136 255
21.970490288029254 -23.070173791991721 20.985499377209429 197 152 129 255
22.752376267755494 -22.674669901490631 20.821776326053183 196 151 128 255
22.732633011272668 -21.382478148151620 20.874933030742632 194 149 127 255
23.314102796081727 -20.762809621773158 20.765411120374743 191 145 123 255
23.496958193105570 -19.691827445939509 20.763933097206582 186 141 118 255
24.078555502991264 -19.071981935509598 20.654366981166980 183 137 115 255
24.065330357090687 -17.770986028327457 20.706322318048059 178 133 112 255
24.647537110293683 -17.150313740506874 20.596628176879243 173 128 107 255
25.229326646688776 -16.530202282587794 20.486999064101468 169 127 105 255
25.417318009482130 -15.452279567710889 20.484560081267489 163 121 99 255
25.148995910632209 -13.836037596352639 20.606623817745408 157 116 94 255
24.623456700082841 -11.907416476032466 20.799200592431021 147 112 88 255
24.102953792268352 -9.971998514875253 20.990874494596433 135 105 79 255
23.652408507593748 -8.107045618219018 21.163906032701256 123 97 70 255
23.530386532665631 -6.623115741683534 21.247535167260303 116 92 64 255
22.507053791985186 -4.047281454228653 21.578167493457713 95 77 48 255
20.911346690922386 -0.760009919971083 22.066333746773459 82 72 41 255
-25.461763810346667 -2.565417858390276 33.627442520031359 146 138 89 255
-23.525829156062571 -3.084561813095775 33.160727479518762 176 134 102 255
-22.999754398545463 -2.210072552496229 33.074104856885050 184 138 112 255
-22.263394708036572 -1.546232761265060 32.930651954702334 183 137 113 255
-21.667498236258666 -0.742319534877254 32.825094466090171 170 130 104 255
13.973828818758278 -24.339260037401743 23.674858460450565 180 165 125 255
15.383705613407926 -24.579343519616373 23.340168765024316 195 161 135 255
16.721376041534228 -24.752053710569641 23.024773598528505 206 165 142 255
17.512962867634627 -24.343213686861844 22.858243547016983 209 167 145 255
18.979216072907150 -24.672013481209717 22.507007082275258 206 169 148 255
19.901316728174351 -24.416657967856196 22.304293903310089 206 167 146 255
20.619541258521025 -23.941997917493779 22.157236118979107 208 161 143 255
21.068213950719667 -23.171852787391003 22.083985128042038 201 160 138 255
21.584073265199208 -22.475846746436787 21.992301478319817 199 154 135 255
22.433842218471000 -22.153278524290783 21.808867830671367 197 150 132 255
22.815423250383816 -21.308854342733611 21.753980845526115 193 146 128 255
23.463470211158040 -20.764072944720169 21.625809909917699 189 142 124 255
23.712861403651800 -19.768413270196476 21.607350204384751 188 139 122 255
24.294235094751400 -19.148792012639319 21.497485059596002 185 136 118 255
24.149209125246784 -17.696532873954368 21.587972808392244 179 132 112 255
24.797351623840541 -17.151612797427390 21.459742130280837 175 130 109 255
25.247723909385087 -16.379151042747992 21.386086268913687 169 126 104 255
25.894872407270952 -15.835567915359945 21.258014001918397 165 123 101 255
25.495578597715536 -14.067196540661399 21.419567060368358 157 116 94 255
25.035484372981188 -12.216064570115492 21.598395325054035 148 113 88 255
24.645141834359521 -10.435612006832201 21.758340051302227 138 107 82 255
24.648447116982084 -9.112790466449155 21.809445853602845 128 102 75 255
24.460077103229708 -7.554204250147450 21.914044824428416 120 94 67 255
23.887809146442862 -5.524828789876153 22.125734470542895 106 85 56 255
22.870132479339190 -2.942863823276582 22.461924622470519 91 76 45 255
-23.353061567346458 -3.085711517184279 34.154555381391553 174 135 99 255
-22.476288935494608 -2.561747290175049 33.972053892179979 185 136 109 255
-21.740852347892485 -1.899013560248989 33.828155343863791 185 137 113 255
-21.285410221165478 -0.955134282439815 33.761013716012350 172 130 104 255
-20.132911407172060 -0.718051443833872 33.502413344703918 143 104 72 255
14.582638458368848 -23.559596074324418 24.476485903225239 171 162 119 255
16.668662613307191 -24.533851844677088 23.950400067551605 193 161 132 255
17.257369219501783 -23.904290395158313 23.839028269128811 202 162 137 255
18.926591014500445 -24.452526585853207 23.427519028809435 204 164 141 255
19.916273561292144 -24.270323515892585 23.204320174286856 204 163 143 255
20.769135274899156 -23.943261750111077 23.018934043227773 204 161 142 255
21.351988846667268 -23.321583627954794 22.908542651257058 202 161 141 255
21.867509090548538 -22.626021459181885 22.816859749630403 200 155 136 255
22.916970335186960 -22.527879463771910 22.576225960153970 196 150 132 255
23.098041946646021 -21.459914211081752 22.577733822278049 192 145 127 255
23.679224029138794 -20.840479427607562 22.467587620581618 188 141 123 255
23.928624186343512 -19.845046751138341 22.450172036238648 188 139 122 255
24.575886490676311 -19.301178345900581 22.321503407005238 184 135 118 255
24.958603364172802 -18.455323812593548 22.266861295831283 180 133 113 255
25.473449042628658 -17.760652934995363 22.175215868149245 176 131 110 255
25.988199192541799 -17.066108721654757 22.083577689729360 170 127 105 255
26.568324630495226 -16.448085210657950 21.973556435575183 165 123 101 255
26.168384016808659 -14.681457494177607 22.139033822184878 158 117 95 255
25.837989241961253 -12.985723418265849 22.285386530943626 151 115 89 255
25.511669289634909 -11.284489437749727 22.431005899543756 142 111 83 255
25.708055765337377 -10.195835542355439 22.429680012844841 134 107 78 255
25.388601734245015 -8.485334209074438 22.574062758730790 125 98 69 255
24.815187526204880 -6.458565164194681 22.790591662085014 118 94 63 255
24.375825068507680 -4.580386163920537 22.969779241217232 101 81 50 255
22.978355703098430 -1.523974208198808 23.420557832436252 91 78 48 255
-23.320839838277209 -2.947136915791418 35.187332695046329 161 134 91 255
-21.042191112429578 -3.824771278410253 34.613883029423128 179 131 101 255
-20.519555049940379 -2.955017311653876 34.528290339200929 187 137 111 255
-20.345524505414573 -1.732277386203123 34.539788420669574 179 132 106 255
-19.821637084115821 -0.860823672387482 34.453923498385400 143 103 72 255
16.141349352294952 -23.803696754172847 25.011187201203434 172 162 119 255
17.205306546319804 -23.685496852710912 24.765791404512207 192 159 129 255
18.604152617639130 -23.938779889482447 24.425700085045428 198 158 133 255
19.661966809597999 -23.828861044441595 24.181364658930192 199 158 136 255
20.784302512898847 -23.796550172747885 23.918515102639184 202 161 141 255
21.568501289139476 -23.397131675091686 23.750907681246154 200 159 139 255
22.284449332429034 -22.925130138961663 23.602448346713999 199 153 137 255
22.999337043621210 -22.454556144613264 23.454164011242192 198 151 135 255
23.180784831816482 -21.386386026437719 23.456928829863550 195 148 132 255
23.562903147564356 -20.541459618253896 23.402920306181116 190 143 127 255
24.144246489577426 -19.921727429477471 23.292396288656427 187 138 123 255
24.923369952555561 -19.529139182379652 23.125614594056152 182 133 117 255
25.569302971513537 -18.986921371659321 22.996557223573198 179 132 112 255
25.951519538358355 -18.141851976149297 22.942485640963120 178 131 111 255
26.334282858523039 -17.296042543363910 22.888306612255555 173 128 107 255
26.652169250403745 -16.373098918999460 22.852679721432047 166 124 102 255
26.644606179235836 -15.065929929188059 22.910041771764959 160 119 97 255
26.509308755765630 -13.601770007653982 23.004158795591209 152 116 90 255
26.377124452388671 -12.133407669503612 23.097713153018461 146 113 85 255
26.571965470468285 -11.047140621128506 23.097981430072409 138 108 80 255
26.315960938380499 -9.416504583651886 23.227587378398098 130 100 72 255
25.934786229514145 -7.625418161895738 23.393493339527488 125 100 70 255
25.365100733140821 -5.594676443349471 23.613987606026136 113 90 59 255
24.415921262692422 -3.087961638358877 23.944105359050134 98 79 49 255
-24.130911824402403 -1.970011188940077 36.458525682163462 144 139 87 255
-20.800527867286917 -3.896118445383479 35.581820220971061 176 134 100 255
-19.649107943288982 -3.659464064862107 35.318918978695088 182 130 103 255
-19.685590623085716 -2.227314792817538 35.391364643610295 179 133 105 255
-19.371482422729912 -1.145144558692266 35.364931080578508 150 107 73 255
16.477217839782156 -22.733155485825307 25.887376264939192 177 158 117 255
17.810064427736222 -22.910048639541003 25.562667728440154 195 154 126 255
19.138955384476645 -23.092275269188661 25.238646795523572 201 155 132 255
20.866753194168211 -23.723896265647113 24.799861539163778 203 158 137 255
