ply
format ascii 1.0
element vertex 659
property float x
property float y
property float z
property uchar red
property uchar green
property uchar blue
property uchar alpha
end_header
26.800682998092086 -7.704950113663784 37.476286319883400 177 128 113 255
26.491151703309654 -7.391332921114511 38.219707630125072 167 118 101 255
26.220461738308686 -7.040083228140077 38.868302507586890 157 110 92 255
26.182295499446084 -6.440582589192601 38.947258975304692 147 100 81 255
26.105503426100839 -5.883529130051073 39.121210293327863 138 92 71 255
26.145033462111101 -5.199712924754238 39.010289345305068 127 85 63 255
26.223416094234068 -4.472220767294829 38.804392500756677 113 77 53 255
26.108228560633933 -3.958535345074864 39.073412461493092 104 72 47 255
26.186847150080226 -3.229491074481714 38.867528462909831 92 65 38 255
26.265587822709733 -2.498970147814305 38.661634175573482 83 62 33 255
26.266974139438261 -1.854709752000986 38.645741363549547 77 58 28 255
26.423443914538709 -1.033452292715495 38.249815445112574 69 54 27 255
46.433534392878457 -15.873906660566419 -11.772303757314944 172 132 110 255
45.776003530814137 -15.622151969238260 -10.182058776673159 174 127 109 255
45.426490002232768 -15.128519163056509 -9.349533786417339 170 128 109 255
44.923101842218628 -14.766278193643060 -8.137856540739392 167 122 106 255
44.612243520611699 -14.251413894728444 -7.399786553905642 163 117 101 255
44.186005599869205 -13.837364575862964 -6.377289479379954 161 116 100 255
44.183200433278358 -13.072151966801243 -6.397144560473464 162 119 102 255
44.065008162285181 -12.405039478300282 -6.132642458813734 164 121 104 255
43.908406868051912 -11.772457317460422 -5.773296887467950 162 121 103 255
43.482502409379791 -11.374821772553943 -4.750313847502639 157 119 100 255
43.249100835699593 -10.815337178393420 -4.201175937985454 153 117 98 255
43.015783485816769 -10.258988259735759 -3.651940679398990 146 111 92 255
43.013434310716761 -9.501288675754864 -3.671506637153016 136 103 84 255
42.626365534084172 -9.086970927334960 -2.742824553487139 123 88 69 255
42.239390989589396 -8.677934177416006 -1.813988984482762 159 123 105 255
30.653582809064531 -17.756345228063225 26.695401259735320 161 120 102 255
29.882324459050096 -17.793531267168618 28.575166223390369 169 123 108 255
29.418976541355093 -17.555774200187884 29.696356400365886 170 121 107 255
29.032671174646140 -17.252419338116141 30.627996049390362 169 119 105 255
28.877304296683661 -16.736852615810548 30.990554891793380 169 120 105 255
28.722020907070686 -16.223292149235391 31.353182526503872 165 119 104 255
28.566822151829371 -15.711731481135331 31.715879043096550 161 115 100 255
28.450182355614189 -15.165104955078917 31.983751584945367 159 113 98 255
28.179737702677357 -14.769244053795418 32.631278802552885 153 110 94 255
28.178689693949977 -14.113779314981727 32.614569185339832 151 108 92 255
28.062312002468062 -13.571736030553737 32.882614571748888 149 106 90 255
28.099910079718398 -12.878538057633591 32.771033070696063 147 104 88 255
28.022182936237584 -12.299831979774837 32.944234466390924 144 103 85 255
27.906076674997209 -11.760678867947036 33.212412181315017 143 102 84 255
27.751593419764973 -11.261886321065944 33.575586986411878 142 99 81 255
27.635675955076721 -10.725799837999574 33.843883301657257 147 102 83 255
27.404443822371988 -10.309609324877883 34.397100698884259 151 104 88 255
27.288720323908379 -9.777103885315910 34.665529683909853 150 101 86 255
27.096155289995551 -9.326064613778499 35.123952335838226 140 91 76 255
27.134510322247976 -8.635559604536937 35.012604933237384 119 67 53 255
27.096026344577837 -8.025415566480149 35.091223966601092 110 58 44 255
26.826824782919360 -7.660716629162195 35.739807893151692 181 132 117 255
26.288435611522132 -7.587498638940957 37.053476036850469 176 129 113 255
25.942499864981102 -7.314562822457361 37.892336107010749 164 117 99 255
25.635138249245898 -7.004543527496224 38.636324811858515 153 106 88 255
25.520234389676347 -6.488792095979989 38.905355187620017 145 100 80 255
25.405438356961483 -5.974350258169579 39.174442190780155 135 90 69 255
25.406165042582970 -5.333702336556314 39.158495201023499 127 83 62 255
25.522418959835747 -4.564378652062814 38.857453119488241 116 79 56 255
25.561845671901281 -3.879154160751582 38.746474052642100 105 73 48 255
25.678334325601256 -3.106366874584140 38.445396491367802 95 65 39 255
25.641052299444667 -2.505945621851097 38.524524181238434 82 58 30 255
25.834730009873695 -1.642454632525116 38.033297101411762 76 57 27 255
25.951587296247070 -0.864111510368616 37.732160891942840 68 52 26 255
46.015132207404335 -16.382908921250262 -12.773245532453416 177 159 128 255
45.553148849315775 -15.970040624129524 -11.656157924255751 178 131 111 255
44.900120046603732 -15.719135580728661 -10.064901939892309 175 129 110 255
44.476537225061705 -15.289114168730819 -9.042222780984162 170 124 108 255
43.709023683780217 -15.149788341676896 -7.166072373693453 165 122 105 255
43.209173754555835 -14.797799025408167 -5.953359614285773 167 122 103 255
42.862300886131820 -14.324023727886498 -5.119754910413178 166 122 103 255
43.012381237624879 -13.433108725423452 -5.518836633699721 164 123 103 255
43.238959556656923 -12.474497184297263 -6.107641360411378 161 123 102 255
43.121624159735049 -11.809524479733511 -5.842897103759810 158 120 101 255
42.775055979954502 -11.345681834733256 -5.008975703321767 154 117 98 255
42.428575073234825 -10.886604809926695 -4.174915304576302 150 114 95 255
42.196831014210474 -10.330863561801095 -3.625318927638546 139 106 85 255
42.041601771079016 -9.710096227324897 -3.265374711844913 129 96 76 255
41.580738185093693 -9.366163037682142 -2.146307836304857 139 102 83 255
30.456432097335082 -18.013061230804993 25.429496960219751 168 129 110 255
29.537507524851705 -18.182405033836901 27.689798167853297 165 122 105 255
29.077228510376173 -17.939429668535595 28.811531756108110 170 122 108 255
28.655250511149845 -17.667109974544829 29.838528515187875 169 120 106 255
28.347992456783217 -17.292682165093808 30.580920670284513 167 118 103 255
28.117239693805246 -16.849947163713281 31.133576079259569 165 118 102 255
28.115825610467240 -16.191213214839181 31.116703799311694 162 116 101 255
28.076281873117011 -15.569098380707487 31.194788914828592 157 111 96 255
28.075027486162639 -14.910294154787621 31.177949972474437 153 108 93 255
27.768195075095022 -14.549935486871661 31.920789409146721 147 104 88 255
27.652488404758415 -14.005729208953042 32.188927918893967 147 104 88 255
27.575075496502336 -13.425083458483897 32.362149623844175 149 106 90 255
27.650575186563614 -12.692749468366671 32.155497321089598 146 103 87 255
27.535131590152091 -12.151187432768396 32.423760139456789 142 101 83 255
27.381573463896942 -11.649720506316342 32.787071068945124 140 99 81 255
27.151697521131311 -11.228113740020945 33.340450412060449 141 97 80 255
27.036531783611636 -10.691845297287458 33.608907397228819 147 101 82 255
26.806845960532556 -10.275467445352220 34.162459994215197 152 103 86 255
26.768280759385959 -9.663236563240332 34.241008707039413 143 94 78 255
26.576993541933845 -9.211470328948621 34.699693971719057 132 83 66 255
26.576827890775093 -8.560570831663739 34.683293090466805 82 31 15 255
26.385738839240176 -8.112342738265113 35.142110869475005 179 127 112 255
26.080136949974076 -7.789139653017813 35.886154939510902 178 129 114 255
25.660022712994689 -7.593407552519835 36.915486903352758 177 130 114 255
25.316419475989761 -7.320557297433282 37.754861856766269 159 112 94 255
25.125738063731873 -6.885586112813840 38.214102539109149 147 102 83 255
24.935160956855881 -6.453025569644055 38.673426756546434 142 97 77 255
24.897510350746913 -5.853962480566793 38.752507571207929 134 89 68 255
24.898173875118189 -5.212609153234041 38.736528962522641 125 83 61 255
24.937154073398958 -4.528135948469711 38.625470631369097 116 81 56 255
24.938041203506060 -3.885805512615619 38.609516609894371 105 73 48 255
24.939042571264821 -3.243108022771693 38.593578471915265 94 67 40 255
24.978367106303850 -2.556438925332543 38.482540625225852 82 61 32 255
25.323472176287297 -1.517887445222300 37.610525443509943 76 57 29 255
25.515873980635348 -0.650571642783646 37.118921733250886 68 54 28 255
44.639609700839557 -16.875501066667937 -11.424533983372442 167 139 114 255
43.991010436285606 -16.621165889034259 -9.832390536234186 177 130 112 255
43.570271314725559 -16.189349473795062 -8.809131404078698 173 130 111 255
43.187573929595018 -15.732053254415959 -7.880568936534985 171 128 109 255
42.691080709189592 -15.375037505465230 -6.667244676681719 169 128 110 255
42.308548630157574 -14.929242949262076 -5.738356704648993 170 126 105 255
41.964055723198570 -14.456601197273145 -4.904200338945657 167 125 104 255
41.999201679633885 -13.664203310711926 -5.018814881123660 165 124 104 255
42.072365188938065 -12.838460357052355 -5.228329146978353 160 123 102 255
41.917868286393443 -12.209522006483425 -4.868429378185169 156 119 100 255
41.497776534519161 -11.815513190721489 -3.844077408576027 150 115 95 255
41.191630146177289 -11.326745032654813 -3.104315553573713 142 107 87 255
40.923519770846340 -10.808391023367435 -2.459354852718491 134 102 81 255
40.693443849785197 -10.259633732502181 -1.909216199924970 130 96 76 255
29.911515012207346 -18.587575417981967 25.016902150824649 174 132 114 255
29.112685197742465 -18.645107245804127 26.993536277857146 167 126 108 255
28.769322478899809 -18.291968849472681 27.830945552692611 167 124 107 255
28.463990330891889 -17.908140431070322 28.573524716777342 171 125 109 255
28.044904496858848 -17.635606911178485 29.601151855598658 168 120 105 255
27.853577238027626 -17.153056964524737 30.059054375444703 164 117 101 255
27.548497808412620 -16.781790748882116 30.802004922342007 161 115 99 255
27.660886463055007 -16.013054797990577 30.500127955370886 159 113 98 255
27.545689507313952 -15.463232865411257 30.768237325624540 155 109 94 255
27.582345848034848 -14.766642829263162 30.656363531173270 150 106 90 255
27.315543579467487 -14.367942082088490 31.304620020073685 146 103 86 255
27.124713429030137 -13.897654942944001 31.762940117340150 145 102 86 255
27.009853637274688 -13.354147493401484 32.031282357356730 145 102 86 255
27.008903838157821 -12.697644335822929 32.014568221364300 141 100 82 255
26.932158911967079 -12.117754577421309 32.187955768731115 137 96 78 255
26.855502938412698 -11.538732590115345 32.361384686566424 138 95 78 255
26.665117192040057 -11.077436217390243 32.820028512382066 139 95 77 255
26.474824552012691 -10.618622820208969 33.278755230094447 145 99 81 255
26.170807322924688 -10.280781823410308 34.022779623737819 144 95 78 255
26.208340783650087 -9.589104905736278 33.911222160009402 139 90 73 255
26.132150871519471 -9.016753893083632 34.084921244503192 121 71 54 255
26.056057638920308 -8.445224314020237 34.258662233005339 75 26 9 255
25.752427679269246 -8.118031852970347 35.003039474364073 183 133 116 255
25.410958094452482 -7.835773071579993 35.842646904390676 179 130 114 255
25.031649393317949 -7.599259380456658 36.777505034867971 176 129 113 255
24.766258749977496 -7.243683126567475 37.427156033526273 159 113 95 255
24.614787586964624 -6.766583640153499 37.791538348598834 149 104 85 255
24.387540507532961 -6.375251293607135 38.346256706973236 143 98 78 255
24.236276281534813 -5.902421550618470 38.710791857884573 135 90 69 255
24.198937270629344 -5.303950978843190 38.789956064050614 125 81 59 255
24.199646730961163 -4.662911916002258 38.773995454027727 114 77 54 255
24.200466609553800 -4.021518162662886 38.758050198756564 103 71 46 255
24.277280669770121 -3.293124545619975 38.551785886934283 95 65 39 255
24.543917738456983 -2.345303732349791 37.869639764143415 83 59 31 255
24.924503302576412 -1.261665111330771 36.901871951479563 76 56 29 255
24.963734779497941 -0.569401349152614 36.790672991543630 70 54 29 255
44.670696169639413 -17.021333895093548 -13.564820559116185 175 165 130 255
43.574125521612771 -17.123553298930332 -10.833165091014678 170 133 111 255
42.854644840565854 -16.933079125627231 -9.050160440854654 178 132 114 255
42.323741253740948 -16.597315336370315 -7.741447562378426 175 132 113 255
41.868314410884949 -16.206322607839539 -6.622368720825136 172 131 111 255
41.676827368661876 -15.600261026541503 -6.167606569189672 172 129 110 255
41.372331885288645 -15.092580699054622 -5.427957289107212 171 129 107 255
41.180988506096142 -14.492608817547392 -4.973010454424752 167 126 105 255
41.102789236639282 -13.797907614570761 -4.802829111154722 162 123 103 255
40.986967678159004 -13.136933197696081 -4.537651560412826 158 120 99 255
40.682773153380722 -12.642465611902068 -3.797603937956296 153 116 97 255
40.190221017657692 -12.318553234769212 -2.582581086845323 145 109 89 255
39.961568722560131 -11.766830681685349 -2.032204043249862 142 107 87 255
39.506880088148719 -11.421078671275524 -0.911825517711009 126 93 72 255
29.741960253387703 -18.819982677625092 23.654034437108010 181 144 125 255
28.609433196301566 -19.180019007617304 26.486686226622965 172 129 112 255
28.079944784820768 -18.997978966990800 27.799575005711006 171 128 111 255
27.889683993289211 -18.506973653085680 28.257499377312087 171 128 111 255
27.699500154446454 -18.018544382394907 28.715505429757428 174 127 111 255
27.396352563354910 -17.639781925546941 29.458692167956002 168 121 105 255
27.281687490663288 -17.085359516580496 29.726802794698841 162 115 99 255
26.941024133032428 -16.749855043656410 30.565248782961532 154 108 92 255
27.014911960725627 -16.017443359270857 30.358240207367402 153 107 91 255
26.825126928861792 -15.541260745657112 30.816641822578106 150 104 88 255
26.899167873062638 -14.808242577620135 30.609651657251760 148 102 86 255
26.747223467911212 -14.297908812771169 30.973094390873683 144 101 84 255
26.595363404575721 -13.789558114118890 31.336605521396763 145 102 85 255
26.443588779894441 -13.283183708614743 31.700185119644601 140 99 79 255
26.329576417098863 -12.740640317990341 31.968737879158709 136 98 77 255
26.328677006070265 -12.084286934905137 31.952038585000679 135 94 74 255
26.290188646555762 -11.466398137747959 32.030461941736888 136 93 74 255
26.101089613371173 -11.004639743512129 32.489376996952728 138 94 75 255
25.912082316401026 -10.545365363767246 32.948374669003670 142 97 78 255
25.723167742473876 -10.088568060429651 33.407455000381844 142 95 77 255
25.798065169123674 -9.355861231849588 33.200660934466441 139 92 74 255
25.760033521895465 -8.741930587777375 33.279284198838724 93 46 28 255
25.533728025262505 -8.329841382269294 33.833687681213348 141 94 76 255
25.006130037192079 -8.245423800301182 35.149446369842650 185 138 120 255
24.629325332545520 -8.004919999145457 36.084754612096162 182 135 117 255
24.327966528963785 -7.687315602787450 36.829872155399300 175 128 110 255
24.215075558313984 -7.166762004198517 37.099224271516420 163 116 98 255
24.139959061342580 -6.605862490435157 37.273447219790739 153 106 88 255
23.951922711214408 -6.171582559542927 37.733286718582406 141 96 77 255
23.688640375631863 -5.824149569944339 38.383605897698885 131 87 68 255
23.613832498496990 -5.267734826452539 38.558009439781813 121 83 64 255
23.652154535199301 -4.583767049250170 38.446819138696043 112 78 55 255
23.652910729514318 -3.941940324448836 38.430848998879270 100 72 48 255
23.729127906992431 -3.213120826747343 38.224442773125020 89 67 38 255
24.031513418607531 -2.221301659886194 37.446630293418565 81 61 34 255
24.334020067240530 -1.224715038980406 36.668724581992052 74 54 29 255
24.372913325978473 -0.532302186860036 36.557447526635428 72 55 29 255
43.377121836555077 -17.448931587372741 -12.404566015490730 170 140 114 255
42.400553774342981 -17.463267828638038 -9.955996287517451 180 135 116 255
41.686121082914227 -17.275796353704905 -8.171806496757881 181 136 117 255
41.383523898768900 -16.756435555279580 -7.432033595008591 175 134 114 255
41.080999476142281 -16.241350765108265 -6.692137194365216 172 131 111 255
40.853406215069796 -15.667253554294561 -6.142089882231801 171 128 109 255
40.363890158762715 -15.319721649555902 -4.926993466228510 168 127 105 255
40.173873112048128 -14.721696509031361 -4.471706133584519 166 125 104 255
40.021352430116380 -14.093851675805809 -4.111344459615395 160 122 101 255
39.644354033711636 -13.664425865869916 -3.180828541980304 157 119 98 255
39.379709395750339 -13.141345432060191 -2.535224831430071 149 112 93 255
38.965451879574218 -12.755011347671569 -1.509397427605336 143 106 87 255
38.888076994651755 -12.072731438183041 -1.338722580544697 131 96 76 255
28.553195962705217 -19.304702497919749 24.838764444199768 171 133 114 255
27.690546755768096 -19.426243299365140 27.007815868156825 173 131 114 255
27.202176290901164 -19.211258381433268 28.226496513260059 174 131 114 255
26.975810782746933 -18.757094613161541 28.779828994164347 175 131 114 255
26.861770706034577 -18.199770050956786 29.048004043549327 174 127 111 255
26.710388941927050 -17.679631551308916 29.411323952993001 166 119 103 255
26.671327694818686 -17.053613007514500 29.489416985104810 158 112 96 255
26.370441146519127 -16.681658775701550 30.233271913329531 151 105 89 255
26.294118991186380 -16.094824525947104 30.406577800535871 149 104 85 255
26.105635223453149 -15.619253173241816 30.865280827463124 148 103 84 255
26.179119690184976 -14.886860592796850 30.658184065381192 146 101 82 255
26.177855878462665 -14.227852035130155 30.641337914106686 142 99 80 255
26.027025663673939 -13.719034178156960 31.005063680911405 143 100 81 255
25.913690473047268 -13.174328611832649 31.273710936441745 138 100 79 255
25.763029165270510 -12.669187396266807 31.637566267968680 136 98 77 255
25.687274361285390 -12.089194033728276 31.811168859204287 135 94 74 255
25.649015290487526 -11.471391885382971 31.889644796639374 133 90 71 255
25.573433444945337 -10.892860427115224 32.063322161783560 136 92 73 255
25.460531068487754 -10.354406702938746 32.332221738021133 140 95 76 255
25.160674573728684 -10.014815866395409 33.077116750804436 139 92 74 255
25.272407420516160 -9.241897888751168 32.774990482541625 134 87 69 255
25.197188206991470 -8.667283471160133 32.948846040982033 74 27 9 255
24.972429156134368 -8.254734023109521 33.503577891886664 190 143 125 255
24.224049508061796 -8.413334061090310 35.391424557953712 189 142 124 255
23.849850546400333 -8.173995985778660 36.327334902375497 183 136 120 255
23.625381611194925 -7.775308634099488 36.882479037787988 176 129 113 255
23.588051723175980 -7.172595558088531 36.961538587220701 164 117 101 255
23.625637732519621 -6.486777185760261 36.850139966247610 150 105 88 255
23.513690898584130 -5.967880687399969 37.119741284124245 141 95 78 255
23.214802366323084 -5.661390394225194 37.865681265487268 132 87 70 255
22.990832222431735 -5.273953143302691 38.421217887482413 121 83 64 255
22.954009814372824 -4.675628191273560 38.500499314331449 111 76 54 255
23.104340382323599 -3.862306981717140 38.103423403427996 100 71 46 255
23.105142904565398 -3.219683522909776 38.087443416474912 88 65 37 255
23.405336444544574 -2.228002707288468 37.309152576006881 80 60 33 255
23.593416941432139 -1.363135614960839 36.816660519948726 75 55 30 255
42.239614083927208 -17.755338364105498 -11.622725428613990 176 135 116 255
41.455791493336861 -17.619597496266820 -9.647651543679444 183 137 121 255
40.374733213956333 -17.741805006983256 -6.912083620246278 179 135 116 255
40.371599224344394 -16.977741440086263 -6.931982094771115 176 134 115 255
40.368519214400933 -16.213633779476766 -6.951869812061716 173 132 112 255
40.105349464894445 -15.670956888248796 -6.306434572271030 172 131 109 255
39.470625842758963 -15.451108292400718 -4.710373944185164 167 129 106 255
39.021803114957251 -15.079480803594890 -3.589356518848888 163 125 103 255
38.870348147459126 -14.454664835739607 -3.228684429935754 158 120 99 255
38.496004581067851 -14.028261175571544 -2.297508946889934 152 116 94 255
38.307535235105789 -13.442226515092926 -1.841579942336523 144 107 88 255
37.970508185530278 -12.991852933220471 -1.005222581214525 137 100 81 255
37.670719151786912 -12.512719805248423 -0.263821015543328 133 97 77 255
28.748674659652849 -19.199325314123357 22.523462007289879 174 136 117 255
27.631928247056905 -19.548964886533241 25.359321309138949 173 132 114 255
26.998288006297031 -19.464750348911608 26.959030104339519 174 131 114 255
26.661959635065600 -19.110547982772346 27.797958919510847 175 129 113 255
26.325710966073601 -18.761094414674062 28.637024645841024 174 128 112 255
26.212448615589850 -18.203835004951074 28.905372292984907 167 120 104 255
26.024958193858168 -17.719456805648520 29.364072261495039 160 113 97 255
25.986142542506784 -17.093780128887190 29.442227875439613 154 108 92 255
25.761654274029681 -16.649682900606550 29.996226097104227 148 105 88 255
25.760135633866341 -15.989634011197850 29.979297774149131 146 102 83 255
25.498656316798247 -15.586875456797458 30.628622335376434 143 100 81 255
25.385848421777567 -15.039542828860945 30.897319453222423 141 98 79 255
25.347413079028286 -14.419019209924144 30.975688221222867 140 99 79 255
25.420494586992035 -13.686078965889649 30.768489111783481 140 99 79 255
25.345070387796071 -13.103315984224423 30.942094744686329 135 94 74 255
25.269728294652865 -12.521439579975109 31.115740715857640 133 92 72 255
25.157324732080198 -11.978848152804815 31.384645914052953 132 89 70 255
25.193584434696746 -11.282962079212822 31.272702629176621 131 88 69 255
25.044207312898337 -10.781054997176298 31.636921560762431 136 91 72 255
24.969206327374422 -10.202649568901080 31.810729779085705 138 91 73 255
24.782863043189579 -9.743569283108158 32.270317934068174 136 89 73 255
24.856614421503110 -9.008611907597654 32.063215362161628 127 80 64 255
24.670452978655746 -8.552563983682418 32.522919727055978 87 40 24 255
24.298669617375026 -8.300513196358722 33.459041454361909 182 135 119 255
23.518409340423602 -8.500016731771936 35.443326891285324 192 145 129 255
23.221103410585570 -8.179592693205024 36.189264447581763 183 136 120 255
22.923892934210045 -7.863240363624527 36.935325354562508 175 128 112 255
22.849635539658365 -7.302568274628797 37.109742868444158 163 117 101 255
22.812618262427804 -6.701013219976375 37.188900250141586 149 103 87 255
22.775699700509492 -6.099691185255310 37.268085189860898 140 94 78 255
22.553165644875364 -5.709672778640581 37.823872599061161 131 88 71 255
22.367874689644395 -5.280110739470885 38.284434204410502 120 83 64 255
22.331258913035597 -4.681891422905935 38.363763708788611 109 76 53 255
22.591897696625452 -3.739584155362422 37.680437661050775 98 70 45 255
22.592638268854529 -3.096251946790773 37.664426237349574 89 65 37 255
22.816353883288158 -2.191051794416197 37.076335063487335 78 58 31 255
22.854459739711885 -1.501467538815348 36.964956036023779 72 55 27 255
41.110704279431829 -18.836441995217683 -10.819517945322843 178 157 127 255
40.516910597797519 -18.546340046493256 -9.318644762768031 182 138 120 255
40.033911466647467 -18.173178032782346 -8.102760171193950 183 138 121 255
39.403384927424682 -17.930320329369209 -6.506355419725196 179 138 120 255
39.363358410555904 -17.199029785790245 -6.431121249432238 178 135 116 255
39.397186033120150 -16.405499495366513 -6.546054057814274 174 133 111 255
39.098979149142394 -15.896129865348286 -5.805064889416315 171 133 110 255
38.431870160080607 -15.710116801693047 -4.112854139890487 166 128 105 255
37.949337425835722 -15.372872856384575 -2.895963997581816 160 122 100 255
37.614470747758688 -14.912789837407118 -2.059375851701816 152 116 94 255
37.390364485433054 -14.359339559358659 -1.508042936687616 147 111 89 255
37.277010836154048 -13.710084394639097 -1.242028252887337 139 102 83 255
37.053047217331638 -13.162145311973561 -0.690525423298880 131 94 75 255
28.563169130014487 -19.444215876688048 21.157401842567168 179 141 122 255
27.528045738380854 -19.714208150260916 23.804364272174524 175 133 115 255
26.788143846173242 -19.724510089060175 25.690346109213806 179 135 118 255
26.380331145537482 -19.434016675801388 26.719999772348388 177 133 116 255
25.972599611211379 -19.149360128514047 27.749818023929805 174 128 112 255
25.675609550109144 -18.765077447337021 28.494219524370720 170 124 108 255
25.526240608937897 -18.243305120553913 28.857940815890743 160 113 97 255
25.413829490323664 -17.687871588173536 29.126521485734116 157 110 94 255
25.301490723674945 -17.133923091543338 29.395155395731024 150 106 89 255
25.262993013035882 -16.508982523921944 29.473399406136934 146 103 86 255
25.261450542416142 -15.847924549457005 29.456440475049135 143 100 81 255
25.001802390300085 -15.444145503213420 30.106141906358317 142 99 80 255
24.779117824562761 -15.006944330254342 30.660709993750828 140 98 78 255
24.667158868237053 -14.460864047837163 30.929625210867812 137 96 76 255
24.813445501680903 -13.653098295795104 30.531800033981824 137 96 76 255
24.849164308296778 -12.956557855315538 30.419721397731621 132 91 71 255
24.848081130399791 -12.297410251342612 30.402911457568734 129 88 68 255
24.662680376421761 -11.830076639249768 30.862499300035608 129 86 67 255
24.624882104328819 -11.210543016278748 30.941032998673506 131 86 67 255
24.513409910369916 -10.669225004712359 31.210174945610021 134 88 70 255
24.697052605471740 -9.815560370395289 30.716989016689666 135 88 70 255
24.548873921713735 -9.314352198873664 31.081488960392278 133 85 71 255
24.511418873372648 -8.695786407640583 31.160122439018210 105 57 43 255
23.957763338153384 -8.637983364405187 32.573240684853715 139 91 77 255
23.514836175606476 -8.467160157604852 33.700602556297270 176 128 114 255
22.887615617840780 -8.505487580251952 35.304803391633357 189 141 127 255
22.592387640773254 -8.185141175173769 36.051199675209801 183 136 120 255
22.334131105671162 -7.827744789862678 36.702373132684301 173 127 111 255
22.149723956872933 -7.391079593961067 37.162950433633881 158 112 96 255
22.112921942102176 -6.790167730175042 37.242171304977006 146 102 85 255
22.039339274501799 -6.231431176687792 37.416785799206224 134 91 74 255
21.965854650613338 -5.673466096962386 37.591441241262345 127 85 67 255
21.781836000146612 -5.243722948490884 38.052277971254568 117 80 61 255
21.856062698958070 -4.517055329169736 37.845488299628528 107 75 52 255
22.151662557334788 -3.530748607022133 37.066322788069385 97 69 45 255
22.262978882715700 -2.756239708381855 36.764064962249932 89 65 37 255
22.411282471795843 -1.936138897167211 36.366373032868864 82 61 34 255
22.227784133669743 -1.508151367864542 36.827368276463858 72 54 26 255
39.837155961617896 -19.260128555177573 -9.654959615041605 179 144 120 255
39.247626354284122 -18.973836471801917 -8.153053318875095 184 139 121 255
39.281023918057357 -18.176687114799563 -8.268171650843328 185 140 121 255
38.838191607261493 -17.779723152710886 -7.146474404544506 181 138 119 255
38.578614321550731 -17.233718081522497 -6.500333144358535 181 138 119 255
38.502276517498117 -16.534615682515778 -6.329853265703946 176 133 114 255
38.352729300738119 -15.899821686238127 -5.969012675853833 171 130 110 255
37.727024283305568 -15.681934210756012 -4.370920273401168 165 124 104 255
37.101410186442152 -15.473171676592145 -2.772578471790268 161 120 100 255
36.549148073042645 -15.208633297011559 -1.364351521786546 150 114 92 255
36.326637753628646 -14.657666960487973 -0.812605337132197 142 107 85 255
36.140826644578979 -14.076877890865404 -0.355960118035966 133 97 75 255
35.662066144705065 -13.764775237147276 0.862391321714540 156 115 95 255
27.050052549031250 -20.225359595588614 23.200050844728622 174 133 115 255
26.242111960478482 -20.297173698663300 25.277459718465394 179 134 118 255
25.873755674668317 -19.968707652855215 26.212413605415094 180 134 118 255
25.761838395051257 -19.403273390182250 26.480851399433760 179 132 116 255
25.503499180526603 -18.978871965541046 27.130322087672909 173 127 111 255
25.245234334566604 -18.558139098138327 27.779901355950983 165 118 102 255
25.023665374760853 -18.105647531848490 28.334330255221886 157 110 94 255
24.912030908910381 -17.549195352549731 28.603056038715465 153 107 91 255
24.727229054646642 -17.066154943746795 29.062380641798768 149 105 88 255
24.615739447531595 -16.513209835395315 29.331226440499677 145 103 85 255
24.687413154573505 -15.779216027361855 29.123691380351318 142 100 78 255
24.539450977292077 -15.264631438275927 29.487902615799271 140 98 76 255
24.318332122267350 -14.826140308319879 30.042782446428589 138 97 75 255
24.170525903064387 -14.316093473220704 30.407142049665453 133 92 70 255
24.279108658664725 -13.544917402328210 30.104367122340818 132 91 69 255
24.387764498750229 -12.771926627545625 29.801562636405919 130 89 69 255
24.350036009028045 -12.149634782721051 29.880042329282730 128 86 66 255
24.312387407374814 -11.527681448602976 29.958548093754388 127 84 65 255
24.311433983350710 -10.867385575899917 29.941737807097979 129 84 65 255
24.273948793779127 -10.245814230119365 30.020289096493315 132 86 68 255
24.273160812123322 -9.585341226869133 30.003510724075397 133 86 68 255
24.199231554009643 -9.003607291594307 30.177470846427923 129 81 67 255
23.978938534850741 -8.581753977226811 30.732950508780164 84 36 22 255
23.392610519027684 -8.563225477164210 32.242292506617702 169 121 107 255
22.733152451801786 -8.633745640556484 33.942634663480874 183 135 121 255
22.220238051057805 -8.551489231917657 35.261675432262848 187 139 125 255
21.963701748364130 -8.190643126290610 35.913140300640350 181 134 120 255
21.780481901635198 -7.751085513130135 36.373905875103475 168 122 107 255
21.707190999130788 -7.189782347633837 36.548519977126006 154 108 93 255
21.560770030605582 -6.712599478516438 36.914010329342972 146 103 87 255
21.341219945197096 -6.321164578601525 37.470418062225178 136 93 77 255
21.194989793848961 -5.848263381095720 37.836058006709294 129 87 71 255
21.195305717742158 -5.207283082761435 37.820012366943359 116 81 61 255
21.378783318267566 -4.352181035494283 37.326754008493083 107 75 52 255
21.708814752173780 -3.321878381524087 36.451632727180254 98 69 45 255
21.892501850113646 -2.459511195492468 35.958237765315232 89 65 37 255
22.076296677873160 -1.594038942508959 35.464788419154388 83 62 35 255
22.003906275647168 -1.032406076002388 35.639592179986039 73 55 27 255
40.393131177320313 -18.963529874087513 -13.227264503896834 177 163 125 255
38.680120366519574 -19.593741121839031 -8.774309246777648 187 145 125 255
38.385843668934015 -19.068159060006792 -8.032863746825626 184 142 124 255
38.237122810935276 -18.424650276035905 -7.672060608037555 186 141 122 255
37.906601218170707 -17.937403758494682 -6.835200251738001 182 139 120 255
37.648889884719793 -17.392791725775268 -6.188613795205470 181 138 119 255
37.318505709608800 -16.914652992562694 -5.351494250110079 174 131 112 255
37.242770889739134 -16.219876657999194 -5.180773060564093 167 126 106 255
36.767053643512625 -15.877098256734442 -3.962523881514471 159 121 100 255
36.073220392315889 -15.734343152781449 -2.172681694585037 154 115 94 255
35.452211705023259 -15.536896331765263 -0.573043040193795 146 110 88 255
35.122207279025545 -15.086832332002729 0.264865816986060 136 102 80 255
34.719551611655177 -14.707529882108588 1.293420323146165 134 98 76 255
27.296707723692251 -20.068461846699265 20.689865921000433 183 142 122 255
26.094527310468507 -20.499464997810264 23.816245916715417 180 137 120 255
25.510576671233608 -20.369062271651643 25.323297844447723 181 135 119 255
25.108506132649381 -20.075521205836822 26.354137127365931 181 135 119 255
24.997377152066051 -19.510956061009210 26.622770056001571 177 131 116 255
24.813599723920575 -19.017660888939062 27.082062030171670 168 121 103 255
24.593535965233755 -18.562102945263021 27.636744709922965 162 115 97 255
24.409900239388534 -18.074247953261107 28.096204606353979 155 110 91 255
24.299046064147575 -17.517587779860335 28.365096684044772 150 105 86 255
24.151907720436938 -16.998376003798839 28.729372680991446 145 102 83 255
24.041195268146041 -16.444954503211449 28.998377336700003 143 100 81 255
23.966907776037303 -15.856504615949831 29.172089864224802 141 98 79 255
23.929044482479014 -15.232207221975600 29.250489502390849 140 97 78 255
23.854901574517172 -14.645331342850341 29.424273385026225 137 94 75 255
23.708130956586317 -14.133997869421378 29.788828286305403 132 91 71 255
23.779541181750858 -13.399135417750458 29.581213468742874 128 87 67 255
23.887374153145529 -12.625144323464738 29.278202950508785 123 85 62 255
23.958930929457921 -11.887459930898984 29.070549400513556 122 83 60 255
23.921516265602648 -11.263687103133762 29.149060844721191 124 81 62 255
23.847832825789425 -10.678917005747948 29.322998669738837 123 80 61 255
23.846928067590810 -10.017128012854243 29.306161541800066 129 83 65 255
23.809757171977608 -9.394325751696812 29.384750972448870 129 82 66 255
23.699974778376586 -8.850802529445090 29.654208929322465 118 70 58 255
23.372194101514040 -8.547210850936963 30.496289117360135 76 28 16 255
22.644684470903755 -8.688583251283134 32.388290304177104 177 129 117 255
21.989963919202907 -8.759970141281769 34.089695652106371 182 134 122 255
21.553418118079620 -8.597443113611362 35.218668850927031 188 140 127 255
21.335044295600895 -8.196100213397514 35.775086049732352 180 133 119 255
21.298494373084907 -7.592153261300425 35.854286029877670 166 119 105 255
21.262035483495382 -6.988460698284101 35.933512416551650 153 106 91 255
21.116629247302484 -6.510002246120678 36.299193757345904 143 99 83 255
20.934969958193577 -6.075351855799283 36.760425747529581 137 94 78 255
20.753405085746664 -5.643111664218509 37.221739087939397 127 84 68 255
20.753669471550566 -5.000867568519496 37.205650345548491 118 83 63 255
20.754031576732515 -4.358287527366272 37.189574637716561 108 77 53 255
21.008922905603484 -3.414168224125405 36.504939627818999 98 71 46 255
21.300265714805178 -2.422564543820712 35.724705159445477 90 66 38 255
21.555367973996013 -1.469791494300424 35.039898949698454 83 62 35 255
21.628839357317005 -0.732049005234074 34.832664807895981 74 56 28 255
38.398854751103499 -19.978298066283102 -10.157907992491857 181 154 124 255
38.142749238513304 -19.417084287476527 -9.511385934189889 186 144 125 255
37.345074072764177 -19.313906729607439 -7.436120035809950 187 145 126 255
37.161323479032532 -18.703155711303310 -6.979775157063557 189 144 125 255
36.688779514171912 -18.341676442396434 -5.761298591827540 185 142 123 255
36.505155236175938 -17.738426632509729 -5.304737356135888 177 134 115 255
36.141069946027798 -17.294663304423437 -4.371743344169033 169 126 107 255
35.957572664871478 -16.698082658880637 -3.914986520492050 161 120 100 255
35.701933492583763 -16.167962875677787 -3.267580207420735 153 115 94 255
35.157553015378838 -15.898968609624475 -1.857732743385668 146 108 87 255
34.577157172737373 -15.670460765574319 -0.352365891897534 139 104 82 255
33.924650306994607 -15.515959712909549 1.343846948955786 124 91 68 255
27.097039848599209 -20.324006689014411 19.320960452800534 185 144 124 255
26.120083424739292 -20.541520195382205 21.876971355750953 182 139 120 255
25.251518160303945 -20.672152511229712 24.147369286308333 183 137 121 255
24.599619060293520 -20.611268904445296 25.846069391678640 183 137 121 255
24.380932084345105 -20.147980496078873 26.400860361710983 179 133 117 255
24.162313670143959 -19.687833602260156 26.955745384782858 169 124 109 255
24.196408561960183 -18.986681002916271 26.843193823935735 163 116 99 255
23.941833139320053 -18.566054620708414 27.493586778237614 155 109 90 255
23.903873156276958 -17.936583275210054 27.571835082192678 151 106 87 255
23.649439721909616 -17.521657651905912 28.222402572911903 148 103 84 255
23.503347769010489 -17.002506708720446 28.586910116851811 144 101 82 255
23.321238667845208 -16.521609187686863 29.046880515795692 141 98 79 255
23.319641322462203 -15.860765698880130 29.029914914591245 139 96 77 255
23.354199118771689 -15.162994722864369 28.917550127835852 138 95 76 255
23.424911594850968 -14.427476351002198 28.709765440410280 134 91 72 255
23.351349148780983 -13.839957320750528 28.883660750485518 129 88 68 255
23.386117054007343 -13.140590552988613 28.771302029562236 125 84 64 255
23.420957456479016 -12.440495648310701 28.658940938661772 121 83 60 255
23.383703139109628 -11.815917879357045 28.737467392947622 119 81 58 255
23.526945478732259 -10.999691119464885 28.338760298704472 119 77 58 255
23.417677843846448 -10.451768459125987 28.608220802163828 121 78 59 255
23.452824055788099 -9.749493203728946 28.495872117406179 125 79 62 255
23.199388136592887 -9.360145579649199 29.147301946337450 123 76 60 255
23.018203430144425 -8.895397746481265 29.607881570034152 106 58 46 255
22.692776101052928 -8.592145715629101 30.450487610046935 76 27 16 255
22.078782462090899 -8.613753032407757 32.057175620589987 174 126 114 255
21.500963212005985 -8.604047087079351 33.568609825486362 182 134 122 255
21.031480429420569 -8.481066128668161 34.793755460266084 189 141 129 255
20.742495256270203 -8.160670742165223 35.541522805224247 178 130 116 255
20.742249902605934 -7.515425863074597 35.525246568295728 165 117 103 255
20.706012590471218 -6.911279894947128 35.604510262914829 152 104 90 255
20.633784843805742 -6.349041077610124 35.779334544284211 144 98 83 255
20.381243260479167 -5.997250698465919 36.431905204521172 135 91 75 255
20.237038115818237 -5.522344570121092 36.797939879278886 125 85 68 255
20.345496125459746 -4.751944676391929 36.495157044416658 116 82 60 255
20.309725102543538 -4.150578968384210 36.574593138097214 106 76 52 255
20.346214561307207 -3.463364447847624 36.462918372432739 97 69 45 255
20.491049001492669 -2.645353068341947 36.064516385974400 91 67 41 255
20.780314473997052 -1.650500798693983 35.283743603753237 82 62 35 255
21.069687049943425 -0.650893509226321 34.502874817564845 74 57 31 255
37.462100298058132 -20.130430696953724 -9.847908487338202 186 152 125 255
36.885265951853725 -19.840725417693449 -8.343297331742122 186 148 129 255
36.451886308372863 -19.438510290823828 -7.219654221771634 189 147 130 255
36.126105934450436 -18.951094062015372 -6.381755917751775 190 145 126 255
35.657026353721832 -18.591806442142882 -5.162462710838554 184 141 122 255
35.259702933219856 -18.177320742780253 -4.133620623521495 174 131 112 255
34.539899418409234 -18.051010573404028 -2.246655369922223 163 120 101 255
34.214406639535682 -17.587489960955580 -1.408093079609387 157 116 96 255
34.247353302794252 -16.809746371275509 -1.522822642040580 145 107 86 255
33.993661567340538 -16.288798275534432 -0.874757655240899 138 100 79 255
33.668366946744712 -15.836458974697123 -0.035870692933429 127 91 69 255
25.347342423012179 -21.325286696422538 22.034067591187181 185 143 124 255
24.915037179637480 -21.048058450036805 23.161089209984794 183 139 120 255
24.446977872017598 -20.811026033297949 24.383680349576764 182 136 120 255
24.086485067066164 -20.478736163619047 25.320266650536496 182 135 119 255
23.690237401313993 -20.186091617647861 26.352408456749771 177 131 115 255
23.437376279290461 -19.760871204111950 27.003062748547478 165 121 105 255
23.435372976041066 -19.095197965248687 26.985886483448894 158 112 94 255
23.254298950943266 -18.605141827160921 27.445854153105586 150 104 85 255
23.288245203604248 -17.905169731437041 27.333299597817586 148 103 84 255
23.071480096467738 -17.454339871840958 27.888826257225190 146 101 82 255
22.998082249135805 -16.862791713474564 28.062656451816650 143 100 81 255
22.817282149025203 -16.380870588408740 28.522888860556606 138 95 76 255
22.779844339602803 -15.755512153574799 28.601355352663631 137 94 75 255
22.778296533160855 -15.093770638453634 28.584378063546268 137 94 75 255
22.884280650642907 -14.320744990289256 28.280985402922170 131 90 70 255
22.811227387870630 -13.732482561463570 28.454973951628006 127 86 66 255
22.845707594428006 -13.032379022591911 28.342533465404983 123 82 62 255
22.808619700771146 -12.407255836970378 28.421082790451862 119 81 58 255
22.843244562777372 -11.706232684650431 28.308650982092956 117 79 56 255
22.913762025428341 -10.966070574280025 28.100706677143421 120 77 58 255
22.805262825319474 -10.417950780875401 28.370331141712228 120 77 58 255
22.875932883869282 -9.676548988527031 28.162389213153034 121 75 57 255
22.803410513663181 -9.090676496266880 28.336554548778338 116 69 54 255
22.587701252202223 -8.663583080483221 28.892910069485708 101 53 41 255
22.121359282435165 -8.517780740868503 30.118172358097183 79 31 19 255
21.368574310099447 -8.698994863633999 32.108037595238386 176 126 115 255
21.081495527244144 -8.367509190174829 32.855945178441374 182 132 121 255
20.722872027607437 -8.121248764838555 33.795105283165157 186 136 125 255
20.400153346954227 -7.839316733097490 34.638842750904928 177 129 115 255
20.256603023857380 -7.356437748744256 35.004820920439158 164 116 102 255
20.184772786877645 -6.792677688165313 35.179694336315322 151 103 89 255
20.077216032245502 -6.271368236744479 35.450200016393211 143 97 82 255
20.041381253059740 -5.667526502871510 35.529559844633269 135 90 75 255
19.934006569221623 -5.148321398655540 35.800158453555014 124 84 67 255
20.005803891455002 -4.418046973293372 35.592744076654725 116 81 59 255
19.898616286014644 -3.900092331892026 35.863415247417095 107 75 52 255
19.827339911452881 -3.340409378624130 36.038512917131698 99 71 47 255
19.863609067921743 -2.651578015495275 35.926749075082768 91 67 41 255
19.971610547841564 -1.874697017212142 35.623702942403924 84 63 36 255
20.187164449453363 -0.964271059573548 35.033686277640527 77 60 34 255
36.421216995904004 -20.371792182312205 -9.251300045595883 190 150 127 255
36.062124933380971 -19.904196043094885 -8.317807610745035 190 147 131 255
35.525206357311404 -19.593397749829407 -6.907370880104338 191 147 131 255
35.023942739577635 -19.260127455093070 -5.592079855406837 187 142 123 255
34.665059850883623 -18.811103241463840 -4.658074517386069 181 138 119 255
34.163944587266812 -18.491818218027433 -3.342399273414742 169 126 107 255
33.734054673039523 -18.117333415506593 -2.217291874580610 157 114 95 255
33.161946744244588 -17.875817028352131 -0.710430226143387 146 105 85 255
33.265787400647937 -17.036752034282287 -1.015954378121137 140 99 79 255
32.978392791497143 -16.549910022912300 -0.272022082115768 136 95 75 255
32.548786618768489 -16.197100138161261 0.853692624646328 123 85 64 255
25.287583319645435 -21.447584865891329 20.282893259982046 185 146 125 255
24.182607477965192 -21.794436830175016 23.223688285453875 187 142 123 255
23.824628035378751 -21.453982386889734 24.160621805502188 185 138 120 255
23.431154642659635 -21.152642729146152 25.193154845747870 183 136 120 255
23.251140157371864 -20.652780523523873 25.653108885980970 178 131 115 255
23.035625985528796 -20.189860619466501 26.208606566332236 172 126 110 255
22.855740604717070 -19.695480471138666 26.668726812421539 163 118 103 255
22.818167532447546 -19.064200686198376 26.747014700541570 158 112 95 255
22.673971707890516 -18.538782810096976 27.111781492396659 153 106 88 255
22.672082290939201 -17.873748954840977 27.094646336721581 148 103 84 255
22.492456644800242 -17.387016939380715 27.555015961773734 144 99 80 255
22.419576329565743 -16.794989295089053 27.728947865338938 140 97 78 255
22.311204006719706 -16.240131241557364 27.998430811356030 137 94 75 255
22.309572117356424 -15.577258461278873 27.981406597644082 133 92 72 255
22.379119254601918 -14.840695808068645 27.773339490891431 132 91 71 255
22.448730874098672 -14.102888990636430 27.565255278702239 128 87 67 255
22.411741953132591 -13.475759508747288 27.643775918998983 122 84 63 255
22.339268847103526 -12.886576332449252 27.817868848930345 117 79 58 255
22.266868774455787 -12.298293262326283 27.992000462906731 114 76 53 255
22.265650706515999 -11.634657244095962 27.975048026594976 115 77 54 255
22.406719877627822 -10.817245727587661 27.575833440223903 119 77 58 255
22.370095289132138 -10.190782990462694 27.654450930904375 116 73 54 255
22.475758178833757 -9.408900381958176 27.350764982396100 118 71 54 255
22.510391935244826 -8.703580925057537 27.238227114467776 111 63 48 255
22.296240823257406 -8.273842468510722 27.794858647716069 96 49 36 255
21.762209650652963 -8.204882837392717 29.212010228676775 78 30 18 255
20.908306648917360 -8.504031948889633 31.489867950535114 175 126 114 255
20.552212596609380 -8.251844923161485 32.429435075727923 180 130 119 255
19.982900629153036 -8.248233845635724 33.942892584035860 185 135 124 255
19.769185061261012 -7.844669208656256 34.500277902748309 180 131 118 255
19.626657116252090 -7.361870099621228 34.866482819552090 161 113 99 255
19.484216039165389 -6.880962313692137 35.232754382003804 151 103 89 255
19.377413158216925 -6.360282347324144 35.503441604637089 143 97 82 255
19.341799695386683 -5.757076407632269 35.582866067327416 136 92 76 255
19.377376783488742 -5.069700045283966 35.470986675474990 126 86 69 255
19.377494783599431 -4.423928424902797 35.454777067987237 117 81 59 255
19.413255974089722 -3.735076729556923 35.342901053704139 108 76 53 255
19.378010286637974 -3.131375254305226 35.422393902344936 101 72 48 255
19.378410672802104 -2.484573672910443 35.406220474373129 92 68 42 255
19.272255060521033 -1.968108066390315 35.677155934110829 84 63 36 255
19.450606528179478 -1.102189144501821 35.182498798967146 76 58 32 255
36.270768596718980 -20.641878096647332 -11.018694115275366 181 158 127 255
35.773008823353805 -20.285995419037775 -9.703201380676774 193 152 130 255
35.345950819901006 -19.877642107321407 -8.578322970142210 193 146 129 255
34.671769214498497 -19.687723475161931 -6.785346712448018 192 146 128 255
33.785800486751839 -19.691351919852906 -4.419549052901630 186 141 121 255
33.323663237234257 -19.338603180011290 -3.198565387067447 170 126 106 255
32.932219017470374 -18.930663583221985 -2.168266356531603 142 98 78 255
32.646770860773927 -18.434547134058874 -1.424139362987887 146 102 83 255
32.149539894240704 -18.132496921666984 -0.107176967255043 139 98 78 255
32.076067130740896 -17.455150886552360 0.064479688016604 133 92 72 255
31.614284691860959 -17.132714703111461 1.286303445767487 120 79 59 255
25.571909403668869 -21.251830496506898 17.575175444280234 194 156 135 255
24.122021207248451 -21.912905612941316 21.472235850555279 188 145 126 255
23.378297653888396 -21.931034888994375 23.459992801219926 187 140 122 255
23.058274760012381 -21.558178294986718 24.302036893816108 185 138 120 255
22.703020060925752 -21.223895619100659 25.239724533176116 180 133 117 255
22.630228710069005 -20.622436338819966 25.413438869176218 175 128 112 255
22.486898229735147 -20.090629480931554 25.778235253565214 169 123 107 255
22.414224313884048 -19.491681428994923 25.952038539699430 157 112 97 255
22.306313283775097 -18.928582131183703 26.221415691362694 156 110 92 255
22.127872834553003 -18.437279413818104 26.681930932894687 152 105 87 255
21.984793631956606 -17.913149256457601 27.046975555471931 145 100 81 255
21.877074308569192 -17.355374195295312 27.316528706395644 143 98 79 255
21.910594251748250 -16.655273073767347 27.203877195900958 139 96 77 255
21.873589078199203 -16.026942507211700 27.282364066710556 137 94 75 255
21.871940649564976 -15.362512067135640 27.265297055724773 133 92 72 255
21.799773642775719 -14.771461698208185 27.439410328701626 131 90 70 255
21.939420268778477 -13.959111531601636 27.040010287517873 124 85 64 255
21.867387238834851 -13.368275175898759 27.214158391851527 120 82 61 255
21.795424805105043 -12.778347220762782 27.388344853024023 114 76 55 255
21.688244871876819 -12.227170264551418 27.658182457685058 109 71 48 255
21.792871041435873 -11.448703533627977 27.354354497054487 110 72 49 255
21.862278146468213 -10.706803797155786 27.146122427148470 114 72 53 255
21.896469105413175 -10.002275902648634 27.033507124421362 111 68 49 255
21.895446668340938 -9.335925055674352 27.016529437318468 112 65 48 255
22.106222297660779 -8.434114612336387 26.425679018322654 104 56 41 255
22.034778143044605 -7.844634564077694 26.599990668550419 84 40 27 255
21.539978613087783 -7.732989439146522 27.922274576398678 70 25 12 255
20.410119155759403 -8.349077291308333 30.966787031855461 174 127 114 255
