ply
format ascii 1.0
element vertex 650
property float x
property float y
property float z
property uchar red
property uchar green
property uchar blue
property uchar alpha
end_header
51.517013697072329 -13.525197247589858 -16.815914266325962 185 140 117 255
51.916007515392081 -13.801615215033252 -15.422129244421143 183 135 120 255
52.178073641004829 -13.470563538227566 -14.592004721092536 176 131 112 255
52.473345422007498 -13.295525686952033 -13.623754917496456 175 128 112 255
52.767842330638686 -13.123626440928575 -12.657618086620886 172 125 109 255
52.893842233176542 -12.181684634322494 -12.388861893981698 166 119 103 255
53.070318483297896 -11.471086623714086 -11.911119942037942 164 117 101 255
53.130150702759082 -10.216228593879720 -11.918031183454019 161 114 98 255
53.273789329145927 -9.348227949507418 -11.577495177954404 158 111 95 255
53.285219122525788 -7.853800512393263 -11.787881355137870 154 111 94 255
53.462735212448905 -7.139203671035375 -11.307480005474503 153 115 96 255
53.574479997566144 -6.110091047054993 -11.101670149287997 153 115 96 255
53.703059581346707 -5.158115834399268 -10.826223045388360 150 114 94 255
53.733968733377111 -3.730378504637997 -10.959979225692791 136 104 83 255
53.717034800747143 -2.060813418841803 -11.295691088774646 118 92 69 255
53.750104696352622 -0.624557190612677 -11.423747959960878 84 80 48 255
50.305855552053643 -13.181829821778422 -17.937172322069102 178 140 113 255
50.986002126627085 -14.670777680588373 -15.418611244389496 183 136 118 255
51.232241378942845 -14.262256084328840 -14.658475713514150 182 134 120 255
51.478029245137193 -13.855556059687160 -13.899565464173747 177 130 112 255
51.757606268104695 -13.604382142035377 -13.002489498810633 174 127 111 255
52.002387703743850 -13.201760864084633 -12.246325485159957 173 126 110 255
52.127654136942112 -12.259900245273286 -11.977180409588044 168 121 105 255
52.270197953154934 -11.394284350612963 -11.637935250279128 165 118 102 255
52.396055998922250 -10.450103948555466 -11.367240196376912 160 113 97 255
52.555931869718748 -9.660559912359702 -10.957786033216991 157 111 95 255
52.648752668105985 -8.557923850648194 -10.823302272180769 159 116 99 255
52.792331904166261 -7.688315404718537 -10.481400158549917 158 119 101 255
52.886089033405796 -6.582024075486146 -10.344476674741742 158 119 101 255
53.013653734879767 -5.631242391021487 -10.069385314421908 150 113 94 255
52.992404360533286 -3.967679678450622 -10.407376464334646 134 103 82 255
52.988996551707402 -2.378145215113420 -10.673785904748314 118 92 69 255
52.953879861679695 -0.624810220707445 -11.072813834000982 97 90 58 255
49.863209112667249 -14.704077804183783 -16.186832200911283 183 136 116 255
50.268853659538308 -14.977824767934692 -14.794973826916561 181 134 118 255
50.550795691634519 -14.722645444609867 -13.896056892859178 186 133 119 255
50.745009024418593 -14.087127776739891 -13.347538049607437 182 131 114 255
50.939100192251161 -13.452109516182304 -12.799356120559509 174 127 111 255
51.133071079641397 -12.817589122083291 -12.251511003485689 174 127 111 255
51.292428732348924 -12.029026107232767 -11.842545681167280 170 123 107 255
51.486274225455489 -11.395055987194553 -11.295077522630123 166 119 103 255
51.628591120206792 -10.528448831709596 -10.954871800318443 162 115 99 255
51.788207095835773 -9.738941425983512 -10.545286341756054 164 118 102 255
51.930902778436646 -8.870891826080538 -10.204123631257886 165 122 105 255
52.090792298024269 -8.080378716342295 -9.793876811294354 168 125 108 255
52.200036516500901 -7.053697501618103 -9.588522409172214 162 121 103 255
52.292859035210626 -5.946486447109521 -9.450257527551884 149 112 93 255
52.318996416912597 -4.520989557966175 -9.582899267330077 134 102 81 255
52.295862519129059 -2.853814162359924 -9.916732159869753 120 94 71 255
52.140449438075350 -0.545619680210962 -10.789379909710391 94 86 54 255
48.716651874936730 -14.666625862676995 -17.025661172500662 182 137 116 255
49.358274240245393 -15.921705763852401 -14.721429811444182 183 134 117 255
49.641863574501301 -15.665437674076486 -13.822636920006147 181 132 117 255
49.818556688264223 -14.953693076777682 -13.344081899165246 185 133 119 255
50.012883345211065 -14.318594380043294 -12.795979877555737 181 133 115 255
50.189492583242156 -13.607191905104344 -12.317655546554789 176 129 113 255
50.366089999690288 -12.895848147367644 -11.839372408085325 171 124 108 255
50.507707543605775 -12.030071165270840 -11.499418208013395 166 119 103 255
50.684396390661718 -11.318399592428761 -11.020920904552696 164 117 101 255
50.878454786010948 -10.684467597329871 -10.473616626683821 164 117 101 255
51.055078840724420 -9.973122209591082 -9.995348701822508 168 122 106 255
51.248967106300270 -9.339953176081622 -9.448569401012008 167 124 107 255
51.373899827054984 -8.393887381892284 -9.175740396164912 166 123 106 255
51.533476526898070 -7.603679759308420 -8.765551643699354 163 121 103 255
51.590553738896347 -6.340355658219693 -8.763751101088133 146 110 90 255
51.631355501448638 -4.994984407542233 -8.827876629088252 131 99 78 255
51.537098441657349 -3.012314413276385 -9.432164541452806 116 93 68 255
51.342973739522876 -0.545954634341228 -10.437735842632009 82 74 44 255
47.218559435135262 -13.200917783266959 -19.198787412532141 181 137 114 255
48.159118920919994 -15.653812957669771 -15.768671911328255 181 133 113 255
48.553540186083765 -15.848319069171083 -14.448200559315524 181 132 115 255
48.892640581963803 -15.819821990514555 -13.340598360866380 182 133 116 255
49.123090527454153 -15.337317378830392 -12.653357834482875 183 134 119 255
49.335309343747127 -14.779637725707317 -12.036508759821459 182 133 118 255
49.458135382368098 -13.838998994497729 -11.766856624523484 177 128 113 255
49.599054022311662 -12.974099258720145 -11.427193140149456 169 122 106 255
49.740180531176520 -12.108377027575273 -11.086978924197837 166 119 103 255
49.952188159891350 -11.551595686003083 -10.470741195849001 164 117 102 255
50.128743722678820 -10.840427778080993 -9.992577413460282 165 119 103 255
50.270177264675667 -9.973550068757845 -9.651598836769068 168 122 106 255
50.464337902550710 -9.340148963955357 -9.104797015667856 171 125 110 255
50.553693384808511 -8.237305479536985 -8.967987371467444 167 125 108 255
50.747963469360684 -7.603561680075160 -8.420970284988869 159 121 102 255
50.820748928921262 -6.418966848059029 -8.350148116019625 142 106 86 255
50.894195890829195 -5.231773753002244 -8.277589197655914 129 100 76 255
50.709850224500087 -2.853939205301060 -9.218551066288370 108 87 60 255
46.822926841651636 -14.864803741498292 -17.307021982207402 182 135 114 255
47.442132854287237 -15.959526634058562 -15.144033115515015 181 133 113 255
47.747790299802418 -15.775026262740397 -14.174417377451306 182 133 116 255
48.125595186659609 -15.898059052288829 -12.928401622837725 183 134 117 255
48.320389412558697 -15.262850535057112 -12.380499501596404 183 134 119 255
48.551305287634989 -14.781218810049012 -11.694270269758107 181 132 117 255
48.709599790103937 -13.993947418767704 -11.285711778981721 177 128 113 255
48.849975266542287 -13.129320553561058 -10.945936191766350 171 124 108 255
49.008517770735978 -12.341069379167891 -10.536721888906044 169 122 106 255
49.185065143031522 -11.629853187659677 -10.058513097945848 166 119 103 255
49.343753796701691 -10.841056626706290 -9.648938780702196 168 122 106 255
49.484749701908243 -9.974017269020067 -9.307554486729401 171 125 110 255
49.661443054418314 -9.262305684826941 -8.829026906567691 173 127 112 255
49.749700750664957 -8.159156242177971 -8.691281824582262 166 125 107 255
49.944297562090355 -7.524962602161281 -8.144095978407933 154 117 98 255
49.963013285501432 -6.103874772818301 -8.275768646834763 135 104 82 255
50.000240106954408 -4.757827822226147 -8.337113008036198 124 95 71 255
49.741391404723089 -2.062267745953989 -9.544584280527886 101 82 55 255
45.586517117654594 -14.537286510429510 -18.425684508547903 179 137 113 255
46.344023427264304 -16.150622950981386 -15.770304078472492 183 134 115 255
46.689341227334225 -16.113833720034904 -14.659712070870938 182 134 115 255
46.903970388033954 -15.550127790613828 -14.039379539697933 183 134 117 255
47.266127875367488 -15.595939416036003 -12.863670005702801 183 134 117 255
47.516673178266785 -15.188477905740712 -12.107087951755830 181 132 116 255
47.748401152173386 -14.706333412856821 -11.420939695845078 178 129 113 255
47.906556588833141 -13.918647631863536 -11.011952167219363 173 124 107 255
48.083059224430215 -13.207536526768479 -10.533802439162571 169 122 104 255
48.277746856203763 -12.573659481480689 -9.986934788342779 169 122 104 255
48.490457338147337 -12.017675687820287 -9.371793367910897 168 121 103 255
48.630586897041795 -11.152179193484073 -9.031145961811575 170 125 106 255
48.770928156362061 -10.285858349216483 -8.689948673015039 172 127 111 255
48.875525068007363 -9.262604605000149 -8.484538538877388 168 125 109 255
49.016404977333849 -8.394189451089858 -8.141944745828596 163 122 104 255
49.086023880485286 -7.210969462319042 -8.070290508479928 151 114 95 255
49.067224814338957 -5.631586839951069 -8.335523748776893 132 101 79 255
49.067391973736378 -4.126342013215890 -8.529965049539385 118 91 66 255
48.820778353905865 -1.508580487746030 -9.665485977394326 87 71 43 255
45.241149751683963 -16.345717954217974 -16.396918835689689 181 133 114 255
45.702793252428862 -16.757198391155526 -14.865993350786624 183 134 117 255
45.955770601826657 -16.343698869148113 -14.105931630851330 183 134 117 255
46.227049610416060 -16.007860044398200 -13.277577223392228 183 134 117 255
46.497759238655902 -15.674294983923801 -12.450748571827148 182 133 116 255
46.674631303007558 -14.961666943449671 -11.971574454599477 180 131 114 255
46.888683048906159 -14.402081019735988 -11.354288989636046 178 129 112 255
47.083954262527527 -13.766734673527907 -10.806569469584133 172 123 108 255
47.316080639791210 -13.285749464656533 -10.121627294221128 168 121 105 255
47.492559579117199 -12.574704170534545 -9.643517240629137 169 122 106 255
47.650646199695856 -11.786351796994921 -9.233935850285519 170 123 107 255
47.790506379221625 -10.920029990624840 -8.892438676330329 173 127 111 255
47.948848587720022 -10.130694376090730 -8.482203331614841 173 130 114 255
48.125510786351171 -9.419003856952827 -8.003673797608371 167 124 108 255
48.302169016219537 -8.707367788619422 -7.525186811200371 158 119 101 255
48.370181451274334 -7.524967026441118 -7.453211086810825 148 113 93 255
48.330534004276288 -5.867836770349044 -7.785081833489500 130 101 78 255
48.220208628699922 -3.889832312968167 -8.383237035174290 111 87 61 255
48.003976772335349 -1.430050575695418 -9.380502334708638 75 58 30 255
44.133500634059118 -16.544820349796566 -17.023877625474682 180 137 114 255
44.753312925098598 -17.551911178719649 -14.932693184675060 182 133 116 255
44.988371764182133 -17.061992139684861 -14.242188453405845 186 137 120 255
45.261187289133488 -16.724632562742528 -13.413532085740115 185 136 119 255
45.495428978090601 -16.237945274477653 -12.725191047180800 184 135 118 255
45.710373049543804 -15.676629053621639 -12.107029892471047 182 133 116 255
45.906185299670156 -15.040021472367272 -11.558604062568605 179 130 113 255
46.139542289664433 -14.556849622490972 -10.872619248516713 177 128 111 255
46.316206467795226 -13.845016664765495 -10.393973189838420 171 122 108 255
46.474126849178148 -13.056345905424735 -9.984025235158953 169 121 106 255
46.669487954480758 -12.421547156614054 -9.436814305210731 170 123 108 255
46.846108894422102 -11.709907584568441 -8.958301238911304 171 124 108 255
47.041282689827909 -11.075893843293159 -8.411622830644177 173 127 111 255
47.199320501834336 -10.286810654727560 -8.001406924018255 172 128 112 255
47.357460740497402 -9.497344858524343 -7.590938391193021 165 122 106 255
47.497305759937191 -8.629269516187151 -7.247982127249855 157 119 100 255
47.545641696951293 -7.368141099343973 -7.242562282159582 143 111 90 255
47.503290393441375 -5.710655441889429 -7.572458213665527 122 96 72 255
47.352838093240607 -3.574623187590760 -8.302770737656914 92 71 44 255
47.149813720011224 -1.193397573447896 -9.229316531344040 70 55 26 255
43.823186475499199 -18.421615795224000 -14.929548121853912 179 138 115 255
44.136705731517992 -18.231565813171471 -13.960232195713303 186 135 118 255
44.255949817653772 -17.291307537047260 -13.688667667999454 188 139 122 255
44.549135049446676 -17.029818500973363 -12.791524389319989 186 139 121 255
44.822399693759976 -16.695270168728342 -11.965471324233960 186 139 121 255
44.999173853439885 -15.983006985847226 -11.486537970416066 181 134 116 255
45.118538091946377 -15.042159308098718 -11.214560878111939 178 131 113 255
45.333582731547963 -14.482254306607928 -10.597628915626331 172 125 107 255
45.567409744371815 -13.999958615908497 -9.912660646317903 170 121 106 255
45.743996031818767 -13.288413480691929 -9.434204108210707 169 122 106 255
45.901656512880763 -12.499834418715096 -9.024170379250734 170 124 108 255
46.040556986530760 -11.633559138244664 -8.682115014627584 170 124 108 255
46.273670648738388 -11.154167121098823 -7.999103746158312 170 124 108 255
46.412713780013576 -10.287354960829305 -7.656693228870353 168 125 107 255
46.570659648013077 -9.497701974703659 -7.245949103113418 161 123 102 255
46.635522607992698 -8.316661683941987 -7.173140048569877 155 121 98 255
46.645289632524253 -6.897771863807293 -7.301066380085416 138 108 84 255
46.600454574658144 -5.239049489924696 -7.628395743500988 117 93 67 255
46.446091367686407 -3.101927794445203 -8.355376185264760 84 68 40 255
46.256860530506231 -0.798768779142620 -9.211162130819105 67 57 27 255
42.083786195556030 -16.230227802357490 -17.791463153495698 180 140 115 255
42.933341843200679 -18.051097964895291 -14.933259090863231 182 139 117 255
43.347055588161169 -18.235007520620172 -13.616021699052396 186 137 121 255
43.622326768294229 -17.897095482863051 -12.788435300209187 185 138 120 255
43.897023057007388 -17.561463700796139 -11.962376597513497 185 138 120 255
44.132193569002510 -17.076603593704277 -11.276123561085598 183 136 118 255
44.289324996407714 -16.289243473762383 -10.866768627739219 181 134 116 255
44.388442181674321 -15.272932078994756 -10.663691025973947 178 131 113 255
44.584536685222588 -14.637002822813116 -10.116001452271661 172 125 107 255
44.780502260782370 -14.001584333875059 -9.568653979521457 170 121 104 255
44.918732011475456 -13.136109276998809 -9.226843175457503 169 122 104 255
45.133757209094725 -12.578122721712077 -8.611485123539723 171 124 106 255
45.329455921028455 -11.943787157932121 -8.064867004844530 172 127 108 255
45.544071771262779 -11.387472284024398 -7.450636454472118 170 127 108 255
45.606584433613577 -10.210210583044329 -7.379490003980351 166 125 105 255
45.764392206648708 -9.420149543461690 -6.968322682195549 159 122 101 255
45.790177847267543 -8.082470639954551 -7.029471946728080 150 117 94 255
45.835653331958568 -6.819723043046679 -7.020935152155488 130 101 77 255
45.713000105005520 -4.846396232041400 -7.615293120127006 108 86 59 255
45.554672725699305 -2.708404508088790 -8.339089754764018 71 57 28 255
41.582343458179253 -17.354710184727992 -16.395101267563945 183 140 117 255
42.279753890245289 -18.579050480911377 -14.100140909950625 185 137 119 255
42.676115189740472 -18.688913731109153 -12.854774388779845 187 140 122 255
42.972125733310946 -18.427262455594160 -11.959253496053293 188 141 123 255
43.188376651184171 -17.866297533080228 -11.342195236160563 189 142 124 255
43.424095905560378 -17.382019665220639 -10.656764698408011 185 138 120 255
43.561165387487762 -16.519390187537226 -10.316585016712764 180 133 115 255
43.678825424739244 -15.579782919077502 -10.044573871907716 176 129 111 255
43.835891381945046 -14.791707192477077 -9.634586636562062 171 124 106 255
43.993046365665165 -14.003262261518955 -9.224349524698937 171 123 105 255
44.169732635327748 -13.291277915004002 -8.745592045885331 170 123 105 255
44.346402026339774 -12.579362259846334 -8.266880861327280 171 126 107 255
44.503725069435831 -11.790242196704895 -7.856190094635366 170 127 108 255
44.718973909277935 -11.233222740741667 -7.241770592457584 170 127 108 255
44.818661042806625 -10.210875879878074 -7.034057753151075 167 126 106 255
45.014612268839414 -9.576490775293308 -6.487555667913142 160 124 102 255
45.057545339259818 -8.317387258856002 -6.480450837360820 146 115 91 255
45.082179695507250 -6.976887513487839 -6.538552325654024 130 103 78 255
44.879644200724044 -4.689809948121933 -7.399361385060502 102 83 56 255
44.622446471455888 -2.157543825170706 -8.455108220122582 65 53 23 255
40.804313406433039 -17.434083028364512 -15.977014273886169 187 141 122 255
41.447396535909760 -18.433310835281446 -13.893796997691766 190 140 123 255
41.786192589585909 -18.317103793151972 -12.857368687090030 191 144 128 255
42.144143516228510 -18.279767985270496 -11.754178898809954 192 145 127 255
42.321023113020075 -17.567115771077908 -11.274989479895595 190 143 125 255
42.557730220222894 -17.081656409361983 -10.589196343095836 189 142 124 255
42.754289237989809 -16.445744637347502 -10.041810014596734 183 136 118 255
42.911029946965272 -15.658056983281568 -9.631941394015968 181 134 116 255
43.087644919756698 -14.946368877890023 -9.153384494929441 176 129 111 255
43.205040001552504 -14.004993886294471 -8.879747232404497 175 128 110 255
43.342421992349912 -13.139175403843808 -8.537125458465738 174 127 109 255
43.480004967948858 -12.272545915006958 -8.193958171107056 172 127 108 255
43.637359616443931 -11.482351414241691 -7.782398805837516 170 127 108 255
43.911895277973244 -11.156589079854314 -6.964399406789823 168 125 106 255
44.030194894373096 -10.211591915050064 -6.688330012985119 166 127 106 255
44.187621984173120 -9.421153212472632 -6.276613800883098 158 123 101 255
44.229047606349781 -8.161567105387633 -6.268172819730125 142 113 89 255
44.232640130291443 -6.742262253786464 -6.391917322047959 123 101 74 255
43.967836248812574 -4.219094979137822 -7.450457477761319 91 76 47 255
43.686356619877571 -1.607070024624477 -8.569044506514416 59 51 20 255
39.395601342637164 -16.599394233722251 -17.576388316428648 187 140 119 255
40.333137849556209 -18.632146289380501 -14.516425901585109 193 146 130 255
40.735973710756923 -18.736522043643902 -13.270548083530855 195 145 131 255
41.096865556607909 -18.695791062978429 -12.166379858152311 195 146 132 255
41.274051713258714 -17.981948477673541 -11.686396937941396 194 147 130 255
41.511940483470994 -17.494567122166188 -10.999749516531693 192 145 127 255
41.729283412587122 -16.932906079998276 -10.382794676889944 191 144 126 255
41.986650349789215 -16.524006863237958 -9.629265102400439 184 137 119 255
42.163234626269968 -15.812460445000283 -9.150806253379443 181 134 116 255
42.319770139941852 -15.024647320240632 -8.740706334007001 178 131 113 255
42.456422549129655 -14.159905303047907 -8.398520899515205 178 131 113 255
42.593273516655401 -13.294354870675193 -8.055790585233211 175 130 111 255
42.710463366625589 -12.350991881851883 -7.780382232786280 174 130 111 255
42.887384543473189 -11.638046741984709 -7.300976499961308 172 129 110 255
43.143298959277146 -11.234943483429902 -6.551335459306927 167 126 106 255
43.300276117268794 -10.445350913871124 -6.140039028513684 164 125 104 255
43.378780308568011 -9.343848013562649 -5.997591354638871 150 115 93 255
43.379469089453508 -7.927791031808567 -6.122215629919225 132 104 79 255
43.224866116311176 -5.881240341164016 -6.780049159006950 117 95 68 255
42.935763406021820 -3.277455539034918 -7.900709091381970 87 74 45 255
42.649279620744636 -0.663163238892594 -9.014310574207997 57 52 20 255
39.172549589624623 -18.686351579541082 -15.278431859854237 195 146 126 255
39.724097387829701 -19.307613627846052 -13.545207511211373 197 149 135 255
39.984594921682259 -18.890049864728638 -12.786461181745040 198 149 135 255
40.306395170724926 -18.699318962425934 -11.821730668246062 196 148 134 255
40.504177903885562 -18.060461564852403 -11.272669953188995 193 146 129 255
40.742784609325767 -17.572998532131010 -10.586401352467362 191 144 126 255
40.919752736174900 -16.859967972532331 -10.106954191393925 190 143 125 255
41.218928413010744 -16.602278714627573 -9.216676515968544 185 138 120 255
41.395515387005261 -15.890727153068383 -8.738215091972847 180 133 115 255
41.531552052425099 -15.026616648823591 -8.396168924186270 179 132 114 255
41.708201799401166 -14.314776387148868 -7.917507855340517 177 132 113 255
41.844523180917264 -13.449493480220752 -7.574669460549217 175 130 111 255
42.021242267843263 -12.737359481352541 -7.095808665371123 173 129 110 255
42.117766124008980 -11.716501220694482 -6.887359840247456 170 127 108 255
42.294670696132954 -11.003627352051552 -6.408002704780415 162 123 103 255
42.391820753310171 -9.980264407390564 -6.197872545922166 154 117 95 255
42.429754341204159 -8.721627962655816 -6.188045644028676 143 110 88 255
42.448616773660248 -7.381894322463552 -6.243192044099061 124 98 71 255
42.290403945745297 -5.334003050630940 -6.897673036697114 102 82 55 255
41.956592887063820 -2.572009208769202 -8.147492161528959 78 67 37 255
37.942818672769562 -18.523314255464868 -16.249476218294404 190 149 124 255
38.584362946367634 -19.434440555738547 -14.236341633986882 191 149 126 255
39.014075154437251 -19.610055860147440 -12.922193632308478 196 151 131 255
39.150064386459377 -18.744539871789755 -12.578956047833032 199 152 134 255
39.494529681298133 -18.627937011009124 -11.545725106532956 197 149 134 255
39.713440635801319 -18.063795419769662 -10.927694422786175 194 145 128 255
40.035700074799365 -17.877677886619665 -9.967063306257359 193 144 127 255
40.191844520180453 -17.089668015931721 -9.556557605987081 190 141 124 255
40.471732014302120 -16.756414378069394 -8.735692336821501 187 138 121 255
40.648268406341487 -16.045077570781984 -8.257377005166290 183 134 117 255
40.804279156462627 -15.257525069980716 -7.847166297907478 180 132 114 255
40.980822317188171 -14.546122387310163 -7.368800714572586 176 132 113 255
41.096169317007281 -13.604592661363995 -7.093762228601577 172 129 110 255
41.333845738567845 -13.123541696360292 -6.412216183064345 170 128 109 255
41.408918225469918 -12.026487626276094 -6.271312891256201 164 126 105 255
41.565431113299439 -11.236881797327442 -5.859716859654583 159 123 101 255
41.601001028799388 -9.981214583057749 -5.850875141597271 151 115 91 255
41.637323060881641 -8.722532626912198 -5.840008702461205 141 107 82 255
41.614208022583014 -7.226668303478903 -6.027730292748487 120 94 64 255
41.452113393251977 -5.178536599333427 -6.679599181784710 97 81 50 255
41.072370801380615 -2.259530761935707 -8.058806646639994 67 62 30 255
37.439210517506382 -19.565805151206376 -14.927858699168553 191 149 127 255
37.957898205277715 -20.033537339792275 -13.335027976060616 194 152 130 255
38.199502964915894 -19.539838143892752 -12.645467785540603 198 153 133 255
38.356256755260688 -18.748642621317458 -12.232707309408710 200 153 135 255
38.660554018292629 -18.481719289144479 -11.337979853285248 198 151 135 255
38.901124915693913 -17.992024115593722 -10.651087068712229 195 148 130 255
39.246123325261962 -17.880673915444987 -9.622529992148372 192 145 127 255
39.422994177619046 -17.168067514521169 -9.143373011039785 191 144 126 255
39.683228794161735 -16.758856758468141 -8.391368735025509 186 139 121 255
39.880618754572680 -16.123342459271100 -7.844827602399988 182 135 117 255
40.015657853975327 -15.259540122804168 -7.502416007933590 179 133 115 255
40.192259881732653 -14.547913587482839 -7.023901961416357 174 131 112 255
40.306951642490006 -13.606234043875560 -6.748332254267751 170 127 108 255
40.545398953048689 -13.124889128453646 -6.067022462769927 168 125 106 255
40.619339165359165 -12.027736380448772 -5.925333652055542 161 123 102 255
40.734739491332249 -11.083194991502126 -5.647838548742783 154 118 96 255
40.768809317089875 -9.827039901039313 -5.637660885292206 146 111 87 255
40.844342655287008 -8.723493542895028 -5.491676870729577 134 102 77 255
40.798601778825343 -7.149626124084136 -5.744719720476468 113 89 60 255
40.612325116110682 -5.023222237479558 -6.460719917557270 89 76 44 255
40.205893022527036 -2.025772277117312 -7.902357639664530 56 52 20 255
35.943373529484660 -18.520597416518513 -16.730649999425935 193 153 127 255
36.898639458653747 -20.459600757397993 -13.748080863202262 196 154 132 255
37.141444459605751 -19.963961587458584 -13.057663073856901 199 157 135 255
37.319640369783315 -19.246288883383301 -12.575141526934601 201 156 137 255
37.497799900374886 -18.528703363951195 -12.092669439011701 203 156 138 255
37.782448253904178 -18.185817300262244 -11.266800802423575 201 154 138 255
38.130265787173045 -18.070650907064675 -10.236841506405852 197 150 132 255
38.434784984902137 -17.808369471498082 -9.346089528357396 192 145 127 255
38.675195173908406 -17.322065050748023 -8.661899998183657 192 145 127 255
38.915248029855164 -16.837165631602716 -7.978649840419138 188 141 123 255
39.133913919132681 -16.277645269919816 -7.364287212849717 184 137 119 255
39.247452382573243 -15.337861490496664 -7.089567741141764 180 134 115 255
39.424060017649936 -14.626230952287045 -6.611053871497859 175 131 112 255
39.538043228623138 -13.684621412629383 -6.335101528240898 170 127 108 255
39.756395775558815 -13.126296394279848 -5.721532295846231 167 124 105 255
39.808447200962561 -11.951918309106588 -5.646265953262287 157 119 98 255
39.923246193645170 -11.007010363169400 -5.368093961798991 151 115 93 255
39.976411194080896 -9.828153665667855 -5.289817423066069 138 105 81 255
40.009623552361489 -8.568938656164562 -5.276577003467281 124 96 68 255
39.940891789365367 -6.916675766543534 -5.594389779719165 105 83 54 255
39.648129325734857 -4.398699092869890 -6.639839060563133 83 73 42 255
39.194430853342553 -1.243085070192024 -8.209082817737198 36 36 8 255
35.596309173651036 -20.076501863092943 -14.923684108924078 194 152 132 255
36.254392965407249 -20.982799333543596 -12.916840188404933 200 155 136 255
36.519302453274662 -20.562631188032100 -12.158683725681925 202 157 138 255
36.675474946579044 -19.772029861261387 -11.746053081525076 203 158 139 255
36.853317551519694 -19.055753425339930 -11.264466191103111 203 158 139 255
37.181923226138622 -18.863852727347620 -10.302999564402654 200 154 138 255
37.466752704470579 -18.524887879740646 -9.480485240715268 197 150 132 255
37.729569124782287 -18.112874082320502 -8.727768784371136 192 145 127 255
37.927781239809860 -17.476029479998886 -8.180639015230724 191 144 126 255
38.147178051034999 -16.915489491576750 -7.565887870454304 187 140 122 255
38.323789746672261 -16.203912843486592 -7.087421076756783 184 137 119 255
38.436731625044146 -15.263755442231655 -6.812021828320610 181 134 116 255
38.592295911616816 -14.475238712664520 -6.400736415276441 176 132 113 255
38.747946008144822 -13.686360617789546 -5.989205606580668 170 127 108 255
38.840532384388638 -12.666474909359522 -5.779112848154455 165 123 103 255
38.870548601052235 -11.413598015563821 -5.769125151515311 155 117 96 255
38.943193461484228 -10.312357384173083 -5.623251521756515 147 111 89 255
39.058140682316449 -9.364073132452177 -5.342380460347925 130 98 73 255
39.090073459867668 -8.103489900740897 -5.327213396506977 117 90 61 255
38.998094953318201 -6.371998885235115 -5.708948667760609 99 80 51 255
38.575965396659697 -3.383608083571517 -7.148316489220946 78 71 40 255
34.949896421661322 -20.598656640725409 -14.090233741767321 203 158 141 255
35.568900833819541 -21.357741824664032 -12.225139693137663 203 157 141 255
35.724832468663450 -20.567280036535237 -11.812474663963030 203 157 141 255
35.968395348882979 -20.074198960993414 -11.124642853052791 203 157 141 255
36.146086498494071 -19.358569745492133 -10.643496865359992 203 157 141 255
36.497986175299417 -19.242021444960756 -9.614933022992375 200 155 136 255
36.718620573879363 -18.678521521380560 -8.998504286045574 197 152 133 255
36.982345136906517 -18.266620213463057 -8.246445422835336 194 149 130 255
37.094285644139887 -17.327820464297048 -7.971546000731053 191 146 127 255
37.292770855711083 -16.690806434268893 -7.424445949616029 186 141 122 255
37.469610925810613 -15.978340972207889 -6.945386346519996 183 138 119 255
37.667876011014357 -15.342154914264995 -6.398833934120148 179 134 115 255
37.844608400790420 -14.630074386675489 -5.920025614607653 175 131 112 255
37.978630781869498 -13.764800048854113 -5.575765003598065 168 125 106 255
38.027696243571583 -12.591294129673969 -5.499363299976636 162 119 100 255
38.077396688574439 -11.415223029054971 -5.421235708808467 150 112 91 255
38.148912610920377 -10.313883578013588 -5.274578517296561 141 105 83 255
38.199833080430494 -9.132899066957890 -5.193147458427887 126 95 68 255
38.167114754855959 -7.638392858960458 -5.376021402654686 111 87 57 255
37.946339984897207 -5.437929628461120 -6.153222145437638 90 73 43 255
37.392263072148722 -1.978314644264799 -7.984234664910019 67 62 30 255
33.077177085180224 -18.384343380018777 -16.994184855024400 195 160 133 255
34.172480680125531 -20.678058800344473 -13.672552903704712 202 158 140 255
34.685071791125338 -21.066802158320570 -12.154504850060107 203 159 141 255
34.951968244207137 -20.646185584511898 -11.397212973872712 202 158 140 255
35.284771491337125 -20.450650725092601 -10.435351603699445 201 157 139 255
35.506404112046098 -19.885147501492838 -9.817887319371977 199 155 137 255
35.859892345958727 -19.769714471384191 -8.791233095797708 199 155 136 255
35.970868448537246 -18.832125272364181 -8.516734871700891 199 154 133 255
36.191684492810452 -18.269754690337095 -7.901352702232487 197 152 132 255
36.281123643296141 -17.255286125130112 -7.693781701282262 194 148 129 255
36.479967678007910 -16.617798118007414 -7.146512890978528 189 143 125 255
36.656928072796404 -15.904884183418119 -6.667157337849289 183 138 118 255
36.877241005764347 -15.344398894024550 -6.053020970873831 177 132 111 255
37.010766813246974 -14.479307568273526 -5.708602935330305 170 129 108 255
37.079744050827415 -13.383578127488846 -5.565005279368876 162 124 101 255
37.127718612794780 -12.208893258949388 -5.486950709115348 156 119 93 255
37.369571002168470 -11.725125200245486 -4.805754636977525 145 110 83 255
37.461157519843852 -10.701840988566119 -4.592230686340088 134 100 73 255
37.360903202032034 -8.979426976539656 -4.976324888449625 121 94 67 255
37.219437968669936 -7.095935025895187 -5.489380908946117 105 83 56 255
36.888320922702121 -4.504504232639817 -6.594133489822013 83 71 44 255
36.263037572083746 -0.808418679888632 -8.617005413289121 36 33 10 255
32.809340389985053 -20.155328953118499 -14.982663540484680 199 160 135 255
33.507611597379494 -21.126095832197109 -12.910228055695228 201 158 139 255
33.933612868635578 -21.219786429599480 -11.669918771117239 203 160 141 255
34.179001815206846 -20.725112247691243 -10.981905198831612 202 159 140 255
34.513486589775255 -20.529391265521042 -10.020935373453028 201 158 139 255
34.802544030401847 -20.187639418221494 -9.198745556451598 200 157 138 255
35.068760655286752 -19.773357905974763 -8.446268283310644 200 157 138 255
35.156890155565549 -18.760562427059483 -8.239266222471770 200 155 134 255
35.378305379426166 -18.197690808610815 -7.623842354448783 197 152 131 255
35.555284471020656 -17.484815484972557 -7.144530345260819 194 147 129 255
35.732232265238238 -16.772027482516535 -6.665271067585877 188 141 123 255
35.887167357462047 -15.983398186729517 -6.253501421617159 181 135 115 255
36.107967864387078 -15.422857439483920 -5.639622334340743 174 130 109 255
36.262902348751027 -14.634177235074873 -5.227810223819773 167 127 104 255
36.352464511878097 -13.615373510301140 -5.016731782758740 158 122 98 255
36.442440244605876 -12.594889242441127 -4.804521139067816 150 116 89 255
36.684797077303017 -12.111927317703646 -4.124305120562866 140 107 76 255
36.731912353442652 -10.935121510208063 -4.043962927461791 127 96 68 255
36.563663331492464 -8.981055068262037 -4.625896486021389 112 87 61 255
36.332509351142463 -6.786949648579565 -5.401900483146164 93 75 49 255
35.781053811017742 -3.415904491093329 -7.163890481611844 74 65 37 255
32.278466048199178 -21.043487217198930 -13.804253758911841 203 161 139 255
32.845016677738528 -21.573912531118310 -12.149134915236345 206 161 142 255
33.205239102247020 -21.446663530675153 -11.116898997334403 207 162 141 255
33.541884886131456 -21.248898422300272 -10.155582783945846 205 160 139 255
33.809911892581653 -20.831234105244675 -9.401434437369602 204 159 138 255
34.009814556698984 -20.191684541578780 -8.853119473976420 203 158 136 255
34.187076048960492 -19.477866504688109 -8.373203684709495 202 157 135 255
34.409181076411883 -18.914182800846760 -7.757537312393595 199 154 131 255
34.631032581910645 -18.351471191019073 -7.142516963556915 196 151 129 255
34.852631980187624 -17.789730696011361 -6.528142708236061 191 144 124 255
35.007154143495356 -17.001911323598222 -6.116785913606236 186 138 118 255
35.206196998972985 -16.365545324293407 -5.570568285742837 179 133 112 255
35.427267646697842 -15.805830145156989 -4.957539651407814 173 128 105 255
35.537534988950682 -14.865361323122954 -4.680220175604831 163 122 98 255
35.626047791403238 -13.847090355223060 -4.468929776804060 154 118 94 255
35.670969495774969 -12.673570751386819 -4.389940564730665 146 112 85 255
35.870156114508561 -12.036523769487985 -3.843249340425871 134 101 73 255
35.850284858248344 -10.627746556895261 -3.961109589505838 121 91 63 255
35.678511306984092 -8.672967362106704 -4.540262690524230 106 84 57 255
35.290634412364497 -5.934565074206262 -5.775972169794272 85 70 43 255
34.623108724848649 -2.172277606284013 -7.861725822770239 54 49 22 255
30.995869570328182 -20.820453035189189 -14.836705113776418 199 167 136 255
32.006394425582087 -22.739120923781115 -11.871679223651796 205 163 141 255
32.368747091160245 -22.610901734899130 -10.839965623542270 207 162 143 255
32.615422009506531 -22.116834682382319 -10.153253466164529 205 160 137 255
32.861726800944666 -21.624185719222908 -9.467483546964587 203 158 135 255
33.084820724876380 -21.058618341401314 -8.850874725450382 203 158 135 255
33.216507664804965 -20.195801043932647 -8.507193417342165 203 159 134 255
33.462038545582260 -19.706078769745545 -7.823361875556373 201 157 132 255
33.729882303547910 -19.292768937077881 -7.072699496171595 201 157 132 255
34.042499099133281 -19.031749810845952 -6.188025399452300 195 149 126 255
34.219015929263264 -18.320836614061847 -5.710048108895080 189 142 120 255
34.350473502154401 -17.458695361925294 -5.366783095236286 184 136 114 255
34.459660315876945 -16.519881884005201 -5.090160338040448 175 129 106 255
34.636358310921096 -15.808131982235608 -4.611603966660653 168 124 99 255
34.768329509965824 -14.943828942340673 -4.266871106491124 159 117 93 255
34.922787718949110 -14.155269959419257 -3.854863108077922 148 112 86 255
34.943890032988605 -12.905792359055170 -3.842143820646612 140 106 79 255
35.010105102954327 -11.807275100249853 -3.694524195182595 128 97 68 255
34.944060707995348 -10.243432082423340 -3.943231510958469 114 87 59 255
34.768818310163567 -8.287719559513903 -4.519456421001820 95 76 50 255
34.154878301693586 -4.772216090886843 -6.410921965132729 73 62 35 255
33.369122013593639 -0.618048137798041 -8.818568522644114 20 20 1 255
30.680071136628129 -22.364666336818345 -13.039512226787224 204 169 141 255
31.255403297153876 -22.891700448711077 -11.387049367018307 207 165 143 255
31.619626071914013 -22.763487404461955 -10.356503503219358 208 163 143 255
31.843790553260945 -22.195678908987702 -9.738707499441205 206 161 138 255
32.160233770413086 -21.925211930826805 -8.848601679493072 203 158 135 255
32.406738661493563 -21.434552440792260 -8.164600879648646 202 158 133 255
32.537749046386367 -20.572650315120228 -7.821255535039967 202 157 130 255
32.783793352311648 -20.083722599307265 -7.138400061281089 200 156 129 255
33.098219773076025 -19.821130155134256 -6.253550340904411 198 152 126 255
33.366231738498357 -19.410888511676177 -5.505529038200450 195 149 125 255
33.496933979697403 -18.550017770111879 -5.162844774139387 190 142 119 255
33.650574096826801 -17.763990101449451 -4.752420825424821 185 137 114 255
33.713504977529695 -16.674191955212649 -4.609967576028282 173 126 103 255
33.822237382446673 -15.734428977074657 -4.332277349670818 163 117 92 255
33.840919753293065 -14.488249604226070 -4.320780247225770 153 110 85 255
34.018070045257744 -13.774682856398158 -3.841003067224591 143 106 80 255
34.082804435024869 -12.677521151034711 -3.693583544216466 134 100 73 255
34.125638171911731 -11.501284620122249 -3.611050122543134 120 91 61 255
34.057261867347734 -9.936605390282807 -3.857616373704730 104 80 52 255
33.722298606186285 -7.438402193267962 -4.893176123439076 84 66 40 255
32.922382982239654 -3.300195601742303 -7.305215158746563 59 51 25 255
28.729346416085349 -20.101177673753568 -15.998186979740012 193 171 135 255
29.949024573314929 -22.590621487624617 -12.484068576359277 208 166 141 255
30.340016953869835 -22.530424968224366 -11.382521661753429 211 164 144 255
30.683012395273366 -22.327047780043358 -10.420513503233849 211 164 146 255
30.978341317541705 -21.979164952680293 -9.597154158972131 206 160 137 255
31.296453046173880 -21.707651542692560 -8.707220566023835 202 156 132 255
31.613866302791394 -21.438881301521917 -7.819120533223440 200 154 128 255
31.860792220745481 -20.949330026588711 -7.136297659927777 199 154 125 255
32.200185733408873 -20.760109694801827 -6.183753771820250 198 153 124 255
32.446159960942168 -20.274275326341979 -5.503412029683005 196 150 124 255
32.714869078894381 -19.865026129655149 -4.756644615485584 191 145 119 255
32.821795224163026 -18.929904929149757 -4.481668830004111 186 138 115 255
32.974996054586029 -18.144772702934318 -4.071712045286887 164 116 93 255
32.967730222976598 -16.828476695565797 -4.129990483657281 164 118 93 255
32.984189730013284 -15.584795226290026 -4.119176456037877 157 111 85 255
32.978560664736293 -14.261846505811889 -4.172972619156127 147 104 79 255
33.133174782786057 -13.470900963271959 -3.759088558644294 137 101 75 255
33.242439910430761 -12.526177925937986 -3.477629000565969 125 91 64 255
33.238701357370218 -11.195558550542330 -3.526259101364104 112 83 53 255
33.054960481402816 -9.244281489584324 -4.100867302537381 95 72 44 255
32.489561998225426 -5.970708910316318 -5.790896649320700 73 59 31 255
31.657782115961666 -1.751574554759713 -8.260095519395321 32 30 6 255
28.442570864013277 -21.713553088759909 -14.131514274526069 199 168 137 255
29.194988995718717 -22.743347007153943 -11.997666665166292 207 166 144 255
29.374111765994016 -22.022708296215853 -11.513269325805794 211 164 144 255
29.695514664365390 -21.743773995235244 -10.619246948728858 206 161 138 255
30.039881854158921 -21.541407581312086 -9.658927229934875 202 158 133 255
30.407050214744913 -21.416270068700385 -8.632755223269612 201 155 129 255
30.726187676521107 -21.146233709707047 -7.744680426010063 200 155 126 255
31.044627584284001 -20.878940733736044 -6.858439936710084 198 153 122 255
31.456158419639792 -20.913205830968820 -5.703880441959285 199 152 122 255
31.702812387787645 -20.427505022128884 -5.024071713063364 195 148 120 255
31.879090003653175 -19.717786410717224 -4.546933276873830 190 143 117 255
32.032050364101678 -18.932795685958808 -4.136943971340486 183 136 112 255
32.161858995884984 -18.071870753689581 -3.793659345743862 156 108 85 255
32.222335371931891 -16.982737240298945 -3.650229576499214 151 105 81 255
32.260209872860699 -15.815464154766659 -3.572023138021706 150 104 80 255
32.298711475699079 -14.645636726935209 -3.492094872916141 143 99 76 255
32.337841456291258 -13.473254304634139 -3.410445035225962 131 94 68 255
32.377601132373215 -12.298316147196090 -3.327073831877584 119 85 58 255
32.280594895896286 -10.659375036705171 -3.638321464420301 102 75 48 255
31.933584311296983 -8.166826138032434 -4.671065793584148 79 62 34 255
30.996522781605108 -3.653179769067719 -7.406829680710956 58 53 24 255
28.117438871893128 -23.179104615379345 -12.407361988862220 205 166 139 255
28.657936770537120 -23.554268801508783 -10.895437697743347 211 164 144 255
28.860548464038231 -22.909171863291760 -10.344220884458167 207 160 138 255
29.086964576816769 -22.338192213090451 -9.725203107691442 202 156 133 255
29.337021682962472 -21.841991508096328 -9.038829763017105 198 154 128 255
29.586707129959564 -21.347213256855724 -8.353401312006525 198 153 125 255
29.931200225010002 -21.150810794062266 -7.398090324356929 198 153 123 255
30.298625442506676 -21.032053046631887 -6.377352219588573 195 150 119 255
30.807244460427611 -21.364998531010286 -4.954579822863650 194 147 117 255
30.912579401149671 -20.430912359735800 -4.679470445865320 196 147 120 255
31.065357303864346 -19.645839493150334 -4.269299797990925 186 136 111 255
31.194688924739722 -18.785078999355306 -3.925854555115421 178 126 105 255
31.371137379147072 -18.074653311851364 -3.448237783585171 161 111 90 255
31.500730960309568 -17.212756576797176 -3.104016061295255 144 95 73 255
31.513730150770783 -15.970058896058532 -3.091864044440598 140 93 69 255
31.597370575829615 -14.953034944425497 -2.878575383811921 133 89 66 255
31.518691251039598 -13.399238067028648 -3.127732738786051 122 86 60 255
31.464380493472703 -11.917346816247402 -3.307611462410932 110 80 52 255
31.272312310203631 -9.969837548739861 -3.880157404592183 91 65 40 255
30.666477456468982 -6.627501637841590 -5.632073712052545 72 57 30 255
29.626801533115895 -1.801124017949974 -8.620998844421933 33 30 5 255
26.597246262701049 -22.309442270538398 -14.052388797795004 205 172 137 255
27.460180432882936 -23.623298396729950 -11.646591465361638 205 161 136 255
28.028309467422744 -24.072289059037757 -10.069004883222846 210 164 141 255
28.279359007591765 -23.575133786512822 -9.382459389809327 205 160 136 255
28.433245425985774 -22.785193818971152 -8.968954233111788 203 159 134 255
28.563055209715969 -21.921139351066387 -8.623083106770963 199 155 129 255
28.813479157079698 -21.426269511023690 -7.938038067896599 200 155 126 255
29.255794109225477 -21.526535657574954 -6.713307151628470 198 153 123 255
29.576973023943523 -21.259579502401493 -5.829047969982412 193 148 117 255
29.993147445115909 -21.293988769976522 -4.677494603380239 191 144 116 255
30.097899792594333 -20.359520167680273 -4.401706865801913 184 134 109 255
30.274384661190908 -19.649113530014148 -3.924128481842530 173 121 99 255
30.355798806129357 -18.637535399695935 -3.713957843774892 166 112 91 255
30.532432808191530 -17.926437087411841 -3.235900362862907 155 102 84 255
30.661735184522357 -17.063917509652072 -2.890982687036740 139 89 67 255
30.696846552229886 -15.896697638602745 -2.811102387362780 130 83 61 255
30.709044405688047 -14.650727304354035 -2.795746641351741 123 81 59 255
30.581068527692707 -12.943252066706776 -3.174956234161669 113 78 54 255
30.501348183071812 -11.383417070760345 -3.418474611647952 101 74 47 255
30.282550613209565 -9.357670683197540 -4.053597145722307 81 61 34 255
29.482562039326126 -5.397540603424829 -6.325060853723130 64 52 25 255
25.911178378890796 -22.680380270591968 -13.357019803509957 202 164 132 255
26.731390897675595 -23.848681618477684 -11.092078201700446 203 160 136 255
27.155977044712486 -23.859182594962306 -9.925989236327638 203 158 135 255
27.407986560032327 -23.361049762939132 -9.239232406648711 201 159 134 255
27.586315081127978 -22.643758683237849 -8.757108797119912 200 157 129 255
27.886502502711778 -22.295311067433289 -7.936303090854295 200 156 128 255
28.307727226482825 -22.319016277989476 -6.779040377435365 198 153 124 255
28.849168072776166 -22.718182680504469 -5.287545182596347 197 152 121 255
29.049897640625318 -22.082320617363422 -4.742792801304148 194 149 119 255
29.371284770452931 -21.820152575000634 -3.862621446523690 187 140 112 255
29.330377978894248 -20.437956866547552 -3.989378977895569 168 119 96 255
29.482834264767121 -19.652464672709925 -3.578661717345625 142 91 69 255
29.539376214498489 -18.565458422692473 -3.434544523942492 127 70 53 255
29.692199975114576 -17.778394826209279 -3.022756630794760 134 78 62 255
29.797324822723894 -16.839518917377404 -2.743556916172992 128 76 57 255
29.807415011218382 -15.595600401651240 -2.728587081942209 121 74 53 255
29.818240587099694 -14.348690147177649 -2.711601142911405 115 73 53 255
29.711186316725417 -12.716816360061387 -3.022444484712196 106 71 49 255
29.581748404577326 -11.003132302436114 -3.395612232771128 91 65 40 255
29.241181175172756 -8.592298498354353 -4.356043314796722 71 55 29 255
28.219779200205053 -3.937267698997402 -7.210235980959993 47 41 13 255
23.749123926061614 -20.011824279491691 -16.712679325142659 197 169 130 255
25.276688345473104 -23.196395385587067 -12.525906134153104 203 162 132 255
26.152471793895359 -24.511045905812324 -10.128753997114529 199 157 133 255
26.430327399915996 -24.084674426784090 -9.373517847645275 204 158 135 255
26.584054055862566 -23.293757275354210 -8.959105518586568 203 159 132 255
26.737844976244247 -22.502500648624959 -8.544452495594072 202 157 128 255
27.211747003408675 -22.669318445829731 -7.250504548431280 199 155 127 255
27.733417244937584 -22.989422960923378 -5.825230412854893 197 152 123 255
28.179982087268954 -23.093309334212762 -4.606134551067896 195 150 119 255
28.405210197863639 -22.532674525862603 -3.994930366523874 190 145 116 255
28.581380155192448 -21.823807966198785 -3.518429397763981 177 130 102 255
28.635787631477456 -20.740904496592066 -3.376376998896063 162 114 91 255
28.714995607511867 -19.730941562177634 -3.166170072125709 144 92 71 255
28.746135134641392 -18.568776159471554 -3.087999035881523 100 43 28 255
28.850438161237420 -17.630527667329261 -2.808807082267350 89 33 18 255
28.906784495895749 -16.539634966543048 -2.661355308103424 110 60 42 255
28.939574771562945 -15.370704390310550 -2.578617717318195 114 69 48 255
28.948974384475434 -14.123074315508717 -2.560150167464343 107 66 46 255
28.911187235532381 -12.719713279800658 -2.671349619054126 97 64 42 255
28.659195534164382 -10.623167456531348 -3.371178384391442 80 56 30 255
28.051365384454584 -7.366626431539373 -5.048907894273157 58 43 17 255
26.852185996702815 -2.169872745991142 -8.351844288166603 30 28 1 255
38.350995442001107 -1.178213474326867 23.014026392486926 151 118 89 255
39.006083622659446 -2.345218113689612 24.807203600299545 154 121 93 255
39.416876952571783 -2.594727200858529 25.928151110621116 158 120 95 255
40.002012520961472 -3.525117208370546 27.528808503121354 157 112 90 255
40.541342146830956 -4.294390873856628 29.003392577566842 157 111 87 255
40.882395095013834 -4.306600680727854 29.932254333151434 154 109 85 255
41.266166234350209 -4.492637062014751 30.978601407506716 154 108 86 255
41.562014147406828 -4.341498615135492 31.782861400502583 155 107 86 255
41.727270550010871 -3.679332329825456 32.227539820710120 147 100 80 255
41.806144043107011 -2.673828543157754 32.434268277330062 138 95 72 255
41.820850349037670 -1.408390131890883 32.464158950239238 122 89 61 255
23.004061381283790 -20.238096622195428 -16.148784092608793 197 161 129 255
24.594679636973609 -23.566957769497378 -11.832750224565387 200 156 130 255
25.426791795161563 -24.736150641642723 -9.575943721290713 202 159 135 255
25.605431182058197 -24.017950100633897 -9.093261518302484 202 156 133 255
25.833957879298794 -23.446369301988739 -8.475058927592755 202 156 130 255
26.112043526385989 -23.022732436679064 -7.722226527041727 201 154 127 255
26.737646730662135 -23.632760427239987 -6.025755502202827 196 152 123 255
27.038800536798462 -23.289868798667584 -5.210143789737259 194 148 120 255
27.339363539861210 -22.949284778746318 -4.396072494015726 191 146 116 255
27.565258929462686 -22.387922592946268 -3.784681830392316 187 141 113 255
27.766257122703450 -21.752960644887935 -3.240840588597450 175 128 102 255
27.844191505036719 -20.744525710180312 -3.031105073991711 158 112 88 255
27.897998281887141 -19.659402487522186 -2.886844126211287 138 89 69 255
28.001263290442338 -18.722660321100079 -2.608252125268592 106 52 36 255
28.104821527981883 -17.784693258698667 -2.328829793119496 79 28 12 255
