ply
format ascii 1.0
element vertex 654
property float x
property float y
property float z
property uchar red
property uchar green
property uchar blue
property uchar alpha
end_header
26.125236502731738 -4.781437617025574 34.829711861338637 146 102 83 255
25.975852254631747 -3.099357543491635 34.586691299260195 124 93 67 255
25.854163719760393 -1.496493021971787 34.404837679823203 102 87 56 255
5.006136221734437 -26.799882952985996 -15.275780707881978 212 176 150 255
5.645774780365230 -27.102990777753462 -13.765922994102624 218 182 158 255
6.796489658871124 -28.605226922264166 -11.119280917027140 216 184 159 255
7.793068495975291 -29.769934082245641 -8.817142050725664 220 184 162 255
8.395913672553988 -30.029133835552102 -7.391984242592287 224 181 162 255
8.847168045938304 -29.940624646408821 -6.304496164733024 218 177 157 255
9.117718098385311 -29.430063821296926 -5.618991741967506 211 170 150 255
9.477549358544351 -29.134681843817873 -4.735263023989290 215 174 154 255
9.747169644754791 -28.627668224298560 -4.052113069425843 214 173 153 255
10.075963770582092 -28.265472414697371 -3.237726535374946 213 172 152 255
10.552768270674477 -28.265147136383490 -2.095151820360940 216 178 157 255
10.880085082354313 -27.908708833237029 -1.284606617937129 215 179 157 255
11.414086416043745 -28.061051646981412 -0.016056111649760 216 180 158 255
11.828489731358047 -27.928526026412186 0.986857500255184 221 185 163 255
12.654989341849642 -28.818746137702874 2.902287747150638 220 184 162 255
13.155105341400898 -28.915651860293991 4.093861549848810 217 182 160 255
13.624572951701850 -28.944296204627051 5.217048183982854 218 183 161 255
14.122231553869511 -29.050925533090975 6.402111165674143 218 183 161 255
14.560072707312131 -29.015173786910196 7.454323230708411 214 179 157 255
14.850748582602705 -28.614026285532589 8.180736050365539 211 173 152 255
15.082599896816788 -28.066523015298515 8.776966587574549 206 165 145 255
15.343306795793225 -27.594352441046453 9.436852963397001 206 164 142 255
15.748950614332955 -27.496408679283121 10.416623247406932 209 167 143 255
15.979637274548622 -26.953432418089221 11.009835334500252 210 165 142 255
16.441677103850409 -27.011443354717841 12.113362216695663 212 167 144 255
16.758098245594425 -26.697874836992128 12.895240453184499 214 169 146 255
17.073933653187964 -26.386619617380262 13.675570418020726 215 169 146 255
17.360397891120357 -26.002015726669072 14.390924873756973 214 169 148 255
17.703851656088972 -25.771043751929824 15.231587201911310 215 170 151 255
18.046613167900233 -25.542821645136542 16.070406565388680 212 167 148 255
18.188331305670658 -24.783095941834802 16.466498384643586 205 159 143 255
18.301561363430636 -23.946490922684774 16.799984491066738 198 151 135 255
18.472004924414449 -23.262631411508096 17.259372024696205 190 143 127 255
18.699333703352067 -22.732837616086385 17.843773653823945 184 137 119 255
18.869610740871096 -22.049618855517906 18.302735001316506 179 132 112 255
19.068208424481625 -21.443920886706337 18.823875841925371 178 131 111 255
19.323255812551665 -20.994045428563652 19.468849179921733 174 127 107 255
19.323811100382770 -19.844818790233603 19.555337995092913 166 120 97 255
19.212270245422985 -18.380712572377831 19.396336460870970 161 115 95 255
19.158060080065496 -17.068903477291684 19.363534182800322 156 114 92 255
19.525803256957659 -16.931510040545220 20.255607151312176 153 111 89 255
19.360411780466492 -15.301167328846134 19.979766595569259 149 109 87 255
19.140390836679245 -13.507706212701180 19.584993476516161 142 107 83 255
18.782344446411287 -11.312257465236485 18.888989684281341 135 106 80 255
18.649196091320746 -9.743757492817423 18.685851193907723 126 105 73 255
18.267047665055401 -7.453897635540898 17.939008563791845 115 108 72 255
17.276704642968411 -3.398788692662208 15.864409124686972 60 69 26 255
19.354197612255248 -2.137526319936399 20.938847851696664 103 68 44 255
21.225707287587028 -6.480784081720770 25.104881305739809 140 86 70 255
22.080103113195406 -7.832123560073853 27.053377843295351 169 109 95 255
22.659249578918917 -8.376297624636891 28.401552045595764 183 124 112 255
23.155166640033201 -8.680990347734394 29.567830618718233 188 130 118 255
23.595490653930966 -8.826480391841642 30.612538523588938 196 141 128 255
23.953465222252220 -8.728967260442232 31.477715257974779 195 142 128 255
24.283649223979097 -8.551867692366898 32.282090634426197 188 136 122 255
24.559231552804576 -8.211600994272089 32.967556449545242 179 130 115 255
24.780542766032582 -7.706845832788730 33.534999553038773 172 125 109 255
24.894178236663208 -6.869566426245569 33.868791134678617 163 116 99 255
25.061674434497405 -6.198584952948210 34.319364662551919 155 109 91 255
25.095398397663885 -5.108640297646275 34.480097123039286 144 102 83 255
25.076283935119520 -3.848482872538284 34.526648499873346 129 94 70 255
24.818123622787667 -1.827143066663155 34.056228783037255 109 91 58 255
1.530550165050741 -23.182784406933820 -20.915233270453427 203 171 143 255
3.249662745895435 -25.892802561278188 -17.030724154890720 209 171 148 255
4.230851709819348 -26.952938002160408 -14.776440650375463 216 175 153 255
4.691313147174753 -26.836505824216715 -13.671592450698768 217 179 156 255
5.606773692022898 -27.775896598326653 -11.564372006665309 218 184 159 255
6.367786584315553 -28.374342851737225 -9.798637386869615 220 182 159 255
7.187231308748821 -29.122426713700918 -7.905189451162556 222 180 158 255
7.732165853548281 -29.242908773258819 -6.617096589452331 218 177 157 255
8.396451621852933 -29.652813992596691 -5.066978834643635 217 176 156 255
8.757649482588292 -29.357701689362671 -4.184322681529977 216 175 155 255
9.178277928996152 -29.208242716450968 -3.171280301946126 213 172 152 255
9.477907269214001 -28.775784522145727 -2.424549049376964 215 174 154 255
10.136582264738095 -29.207820918762565 -0.889239103345005 216 178 157 255
10.404662853647650 -28.709678800169058 -0.212466065368488 218 180 159 255
10.672364731279743 -28.212978876038477 0.463350143456552 218 182 160 255
11.058872165323322 -28.007909128591422 1.399705927521126 220 184 162 255
11.771709741974149 -28.606495252525576 3.051401995095119 219 183 161 255
12.452831836977950 -29.140159557249859 4.632613465657840 218 182 160 255
12.717207875959375 -28.656513539193782 5.299705576977800 222 187 165 255
13.188237711714493 -28.688319644950411 6.419307109241203 223 188 166 255
13.658122847906498 -28.724655480889794 7.535875536019546 218 183 161 255
14.038468348271309 -28.543904499691820 8.455957670232578 211 173 152 255
14.359181036444866 -28.218171805138638 9.245224071097851 209 168 148 255
14.679302675081004 -27.894758639731776 10.032940353659882 211 168 147 255
15.086735011779396 -27.797264985153589 11.011226598847230 210 168 146 255
15.259286205934558 -27.105378640260085 11.475939665989614 212 167 146 255
15.694511638834697 -27.088375935654312 12.514277926684798 213 168 147 255
15.924763207660590 -26.549086053886043 13.104712947349753 214 168 148 255
16.212919254348236 -26.161618786603100 13.821382777575678 213 166 146 255
16.442549596649471 -25.624751341268023 14.410201366691240 212 167 146 255
16.787807405817915 -25.392298884571289 15.250966039834594 211 166 146 255
17.016710722224403 -24.858290015708576 15.837873412288445 204 159 140 255
17.245361994046931 -24.325267809945871 16.424121798373051 198 153 134 255
17.329734160615089 -23.410643983356067 16.696174134026393 192 147 128 255
17.558159097776112 -22.878489900001597 17.281845548469676 185 140 121 255
17.671551925426712 -22.039487085284463 17.617212740447656 177 132 113 255
17.813777108806306 -21.276882028033242 18.015369716176025 170 127 105 255
17.927498959429641 -20.436537569363736 18.351641502715012 167 124 103 255
18.098476755658524 -19.750646876419694 18.812376096860618 165 122 100 255
17.984666585883019 -18.286468296474482 18.654845229744325 159 116 92 255
17.701401168492652 -16.349632251264524 18.130173421918357 153 111 89 255
17.731901272100430 -15.266911609456457 18.286938011695554 148 111 88 255
17.961110951394460 -14.731571958108191 18.874755087323848 145 112 87 255
17.879254925876836 -13.331298997784700 18.788400541325530 135 108 81 255
16.592557259991821 -7.352805491487516 16.186146465575177 113 105 70 255
15.757305636931207 -3.788907576519534 14.472279638682693 57 65 23 255
19.089426196867905 -3.676530522079702 22.420875869239353 121 82 59 255
20.533181799230078 -6.720530052740230 25.624975203593152 156 104 87 255
21.255739662857764 -7.663825229854893 27.273401383777156 177 120 108 255
21.811168712960850 -8.125186772750226 28.560908964448998 185 126 115 255
22.365066141571177 -8.592747549642866 29.844243796283024 191 134 121 255
22.835293384912845 -8.819799449076868 30.946806508330695 192 138 125 255
23.167694732585545 -8.639453361374194 31.752487278114074 189 137 123 255
23.444905306282337 -8.296433180473684 32.439217135492839 180 130 115 255
23.640039986741755 -7.706524112242619 32.949458108464881 173 125 110 255
23.835076405471341 -7.117085402347158 33.459371321543273 165 121 102 255
23.921592174355311 -6.194782720389242 33.736439151492675 156 113 94 255
23.981400657188004 -5.187634068230977 33.956380248886006 144 104 84 255
23.879686194725068 -3.676118197945357 33.830463607169264 126 95 70 255
23.698262458279771 -1.908253152662496 33.534407651612611 110 90 60 255
-0.108585809904454 -23.830921385048214 -22.446227683746912 200 176 143 255
0.701379828481976 -24.444699982817724 -20.579728871635211 205 169 143 255
1.663392807390210 -25.413474344089821 -18.381868245214861 208 169 146 255
2.406922246925390 -25.907450892880092 -16.662771734370040 209 171 148 255
2.902378923131366 -25.852331671507500 -15.486494498467522 215 174 152 255
3.611558614682934 -26.290837105009047 -13.844057834661811 215 177 154 255
4.441372996632822 -27.017344139325388 -11.939218999382177 216 178 155 255
5.054700963611310 -27.261080852981763 -10.507794953735726 216 175 153 255
5.788555313500751 -27.793259956346986 -8.814265805670829 218 176 154 255
6.672750356627375 -28.687289264179810 -6.793980443541756 218 177 157 255
7.584773163433738 -29.662584726598766 -4.714305487891153 217 176 156 255
8.008236177785165 -29.509471446256782 -3.700004323001139 217 176 156 255
8.309522053783979 -29.074342928416286 -2.952095365336902 215 174 154 255
8.580061069284554 -28.569461344835133 -2.271279163907650 217 176 156 255
9.122023863058928 -28.712758333633872 -1.000200068613566 218 178 158 255
9.542032810344836 -28.573154786893610 0.005079882077467 219 181 160 255
9.900931160101109 -28.292601060399164 0.877129938931802 218 183 161 255
10.199050732688249 -27.869770994873306 1.616840156031600 218 183 161 255
10.886420135337886 -28.394487334836100 3.201565011030823 217 182 160 255
11.422246190416018 -28.562009366462462 4.456432274668458 219 183 161 255
11.956704700143419 -28.734947561888077 5.707672154078608 224 189 168 255
12.430167881189064 -28.766489218613287 6.825979485609110 225 190 169 255
12.932245533387061 -28.876187731675259 8.005757797060340 221 186 165 255
13.195434750261697 -28.400079818191983 8.667355938936879 217 179 159 255
13.517550579258454 -28.073545917256638 9.456412364892003 213 172 153 255
13.868669403514076 -27.823620746842892 10.307978073690805 213 170 151 255
14.248627084193288 -27.650965156607981 11.221608780584887 212 169 150 255
14.480354622960732 -27.107862194990503 11.814278492583014 214 169 150 255
14.800111409151810 -26.790603568703148 12.597133589678293 213 168 149 255
14.972410137780102 -26.099808039066147 13.061101828574039 215 169 150 255
15.379225862225695 -26.012251282520140 14.031556496524018 213 166 148 255
15.580277107162900 -25.399050455818895 14.557374629528027 209 164 144 255
15.927230130262487 -25.165558116053944 15.397945060699413 205 160 140 255
16.069410150127879 -24.402451942172149 15.796544392707602 200 155 135 255
16.328064923703536 -23.944101475918728 16.446281370527203 191 148 128 255
16.354003183938914 -22.875235380071445 16.594428396664227 181 138 118 255
16.438439135731585 -21.957696809489164 16.868850723334475 176 133 113 255
16.494240438268534 -20.962006473451339 17.081810406234581 161 122 101 255
16.550452472969056 -19.964656241681496 17.295886986449347 155 116 93 255
16.491777034752658 -18.656150622250692 17.263129776664101 155 117 94 255
16.347643670000807 -17.111440781615215 17.047153194698012 152 116 92 255
16.032402104709433 -15.095103597833713 16.464211709579445 147 111 85 255
15.804982435363286 -13.305482300835450 16.070864001150312 140 106 81 255
15.840040983861016 -11.042098116236161 16.337617811116218 127 109 79 255
18.470573138728355 -4.160235510824236 23.125105278729592 139 93 73 255
19.702358431909573 -6.553558656564604 25.847917918632731 167 113 99 255
20.541015515081270 -7.821917183684207 27.730926694785637 179 126 112 255
21.155216876351105 -8.446705869561242 29.134535974365889 187 129 117 255
21.684646318874172 -8.832601585125303 30.356722201694993 189 133 120 255
22.019324482945336 -8.648783252838882 31.163858000695797 187 134 120 255
22.243095250612939 -8.137924390116552 31.734817974506797 180 131 116 255
22.329109094330860 -7.214736874230482 32.012929354545577 172 125 109 255
22.415460622824170 -6.290267791536223 32.291890277710934 164 119 101 255
22.502151660451645 -5.364513552555081 32.571702577245901 156 114 94 255
22.616528564557711 -4.520778469189111 32.910370175398953 142 106 84 255
22.621980397359209 -3.342079571607712 33.018179780827921 126 95 70 255
22.546401880963344 -1.909525494678178 32.954609581708013 113 94 64 255
-0.408554857677331 -26.258602191432942 -20.957625724281513 202 177 142 255
0.062775457041411 -26.116299680150888 -19.838147510529012 214 177 151 255
0.470735554328570 -25.840179388663472 -18.856390795949778 213 171 150 255
1.468823566675326 -26.881692160614477 -16.597217978872038 208 166 147 255
1.439401860554952 -25.644587641385158 -16.563316592610022 207 170 146 255
1.751616692527136 -25.170348856031723 -15.789869392371315 209 171 148 255
2.496452423822689 -25.675814800339623 -14.081083402523006 209 168 146 255
3.764230479040890 -27.380478015097822 -11.242947207249841 206 168 145 255
4.380729493474959 -27.624726955343704 -9.813918080694350 208 167 145 255
5.057169589273087 -28.016303869486393 -8.256204549254591 213 172 150 255
5.793220044329090 -28.556535406675266 -6.570697754785158 216 175 155 255
6.557889854217422 -29.175797313748319 -4.824445158573099 215 174 154 255
7.075567395767564 -29.234207883996135 -3.611965147669196 218 177 157 255
7.500329690341303 -29.083422305781312 -2.600396085484590 218 177 157 255
7.893664236943792 -28.864677719715587 -1.656979633039583 217 176 156 255
8.286177042885726 -28.649145382554792 -0.715707896968325 217 176 156 255
8.677868905696727 -28.436824933856599 0.223418924882054 218 180 159 255
9.159728168142721 -28.444546153957106 1.356198951303526 217 181 159 255
9.489067104077179 -28.094315565547419 2.160355011796668 215 180 158 255
9.968902543163438 -28.110004470144048 3.287806298939017 214 179 157 255
10.357098470023544 -27.911409949292391 4.217759206850303 218 182 160 255
11.165998093712830 -28.740267600564380 6.050986624943761 224 189 169 255
11.672004134285800 -28.844705043157830 7.232672014227148 225 190 170 255
12.086759705371293 -28.733309839732840 8.217897909810716 221 186 166 255
12.290988479186041 -28.108804307979824 8.751086264122733 220 182 163 255
12.614618476510088 -27.781027844850769 9.540228561851109 216 175 157 255
12.907823908346501 -27.381308726490630 10.263887885366358 212 169 152 255
13.289883352830614 -27.206921777405057 11.177643245758560 211 168 151 255
13.552240784026253 -26.736916486764045 11.834713416639119 213 167 151 255
13.873565938389703 -26.418198121842210 12.617800231017497 213 167 151 255
14.046238244854621 -25.726066838412464 13.082640495035520 213 167 151 255
14.396222416563845 -25.486245367664594 13.926558798409246 213 166 150 255
14.509486445445617 -24.644484470675764 14.264286198125291 206 161 141 255
14.652383778349730 -23.877758610457903 14.665432002100829 199 154 133 255
14.765964095249046 -23.034672915950068 15.004057986658154 193 151 129 255
15.114436877613201 -22.800796859165985 15.844000798202813 188 146 124 255
15.140102725212600 -21.728520385235072 15.995136576717044 172 132 109 255
15.137058746036544 -20.577458038666464 16.085380672157925 158 120 98 255
14.959603650029862 -18.962404992474291 15.804400018538303 150 114 91 255
14.987266956901564 -17.882072459394976 15.960953987187025 144 112 87 255
14.521370763771870 -15.484706839238015 15.067306289729856 139 107 82 255
12.883587157943310 -6.347005095865768 11.985975178481738 113 108 74 255
16.101913339702747 -0.811382244638025 20.028680315165758 123 86 62 255
17.713385352974967 -4.238298792865123 23.531317155628386 159 104 86 255
18.673506843171296 -5.817625685459717 25.657225421087105 182 122 110 255
19.546492114421781 -7.164732527084624 27.597663965898477 183 127 114 255
20.304869458746666 -8.195891565381089 29.295056861206405 186 130 117 255
20.809738857363826 -8.498633290321635 30.457382628877980 184 130 117 255
21.090439035756901 -8.149209327246922 31.147237048806062 180 128 114 255
21.259496273153076 -7.471965773498880 31.602016991914098 173 126 110 255
21.317570100346899 -6.464263937580313 31.823493855911238 165 119 103 255
21.320705354014635 -5.289153863956926 31.929776775540631 156 112 94 255
21.296870586845245 -4.028378440438757 31.979773695177045 146 109 87 255
21.218649204149727 -2.597992009919494 31.916054565678479 129 98 74 255
21.113900262257118 -1.080176506419775 31.797232442185162 114 90 62 255
-1.926217760231339 -26.012670580047001 -22.112753074802697 209 189 156 255
-1.104653946400646 -26.617861812377868 -20.246365651143662 218 182 155 255
-0.536989503219033 -26.682328796202512 -18.926095887412060 220 178 156 255
-0.159097443583335 -26.338622307562900 -18.013645327617638 214 176 155 255
0.656868457650461 -26.965859160911805 -16.162002977801848 209 170 151 255
1.001258818440746 -26.561419108542481 -15.322388985305963 207 169 148 255
1.001493386551360 -25.393730270372004 -15.220437900595329 209 171 148 255
2.062331632215432 -26.597359082807714 -12.846552578321308 208 167 145 255
3.368984186835462 -28.373825142109638 -9.948071193325177 196 155 133 255
4.267747350796981 -29.252936025612911 -7.924509703270871 173 131 109 255
4.915831804509821 -29.578475881721403 -6.438447619797870 211 169 147 255
5.407431074922897 -29.557247089090112 -5.287789755113153 214 173 151 255
5.836074542173506 -29.398707923148834 -4.272223673098523 216 175 153 255
6.171250243000046 -29.030384265485282 -3.456738646648432 218 177 155 255
6.690558683343568 -29.092597149536715 -2.248415982936024 218 177 155 255
7.208602667372446 -29.159792003527343 -1.043425842235024 216 175 153 255
7.449274862070411 -28.585677626456345 -0.430679636264529 214 176 155 255
7.689678275698668 -28.012565548131079 0.181405062358664 218 180 159 255
8.266064694888996 -28.235228276067573 1.509344161604446 214 179 157 255
8.718917096200528 -28.173862176946216 2.573399286261491 210 178 155 255
9.140272411058277 -28.043896839084567 3.569874194243425 210 177 154 255
9.439088670148209 -27.625924611441150 4.305135256922597 217 182 160 255
10.465762736748701 -28.965090395344703 6.588210919636452 223 187 165 255
11.004625285000813 -29.143036639847622 7.832572583805899 227 191 169 255
11.360697599476339 -28.884935057020243 8.687818200306282 226 188 167 255
11.444425626695477 -27.965417833722256 8.964316418364888 224 183 163 255
11.769460547134372 -27.636840147885721 9.753247646619570 215 174 154 255
12.033759605673112 -27.162106066333024 10.413020034291549 211 170 152 255
12.417756693178887 -26.986649481670270 11.326455029983521 207 166 148 255
12.651133615703372 -26.440993623178798 11.920209815787473 209 167 150 255
12.944066075006077 -26.046135121217645 12.640020529859527 206 163 146 255
13.117112823185124 -25.352668060119356 13.105732301661135 206 161 142 255
13.439107843822256 -25.036022051155811 13.886689420328622 203 158 139 255
13.433355204300341 -23.890506958005204 13.974031536586722 200 155 132 255
13.457914556453829 -22.818240007636660 14.125847355783350 191 149 124 255
13.394093595393883 -21.515870033209524 14.091216747819090 181 142 116 255
13.863505916373953 -21.582103123476145 15.183362781349672 171 134 108 255
13.859433288254166 -20.429752293154479 15.275311594912608 160 127 102 255
13.649718802158333 -18.738217791740396 14.933740956139076 145 115 88 255
13.235516988383637 -16.502874318847773 14.161756867493580 136 106 80 255
15.730400885951440 -2.022536618862034 21.272611315262594 155 109 88 255
17.211461130695042 -5.045967392875241 24.470522548852529 173 120 102 255
17.894655797184981 -5.813766357282475 26.000757899131031 186 130 115 255
18.717174437967941 -6.997042455613155 27.820264720904134 186 133 117 255
19.311528080603836 -7.536704765621607 29.162714453667974 179 129 115 255
19.763485441347044 -7.673301659732232 30.207541898851588 176 125 110 255
19.792914579767540 -6.581926125062608 30.372127395544510 170 121 104 255
19.907018223080655 -5.735541090827525 30.713155620957735 164 117 99 255
19.909403062089055 -4.557919076132180 30.821981722843134 159 116 97 255
20.024177688039103 -3.708978736574409 31.164705290151545 146 109 89 255
19.999799448527327 -2.443998582993856 31.218516179723053 127 98 74 255
19.948378474515437 -1.092716574574240 31.216612480458963 114 95 65 255
-2.656923310092054 -26.303171357810925 -21.467008157616846 217 187 159 255
-1.862444212725748 -26.840034771692473 -19.671168529458754 222 182 159 255
-1.101820209055873 -27.316741645098432 -17.948422791824868 220 178 158 255
-0.786167058252857 -26.836811756540612 -17.172408322842813 216 178 159 255
0.002714473057665 -27.395722416141837 -15.391315327130599 214 176 157 255
0.285015131457072 -26.853534215080600 -14.686969663525559 209 171 148 255
0.441046100635958 -26.034497060434944 -14.250742863366042 211 173 150 255
1.508185832616448 -27.239175697061341 -11.881643107158936 211 170 148 255
2.540812085454661 -28.386350814952095 -9.587421198202492 204 163 141 255
3.382568186440608 -29.124170549790506 -7.699358908248911 159 117 95 255
4.253198308710637 -29.941859406346850 -5.751402548122940 207 165 143 255
4.747013014759304 -29.921243576381698 -4.602628773226257 212 170 146 255
4.959421150816894 -29.267061072841159 -4.049991335213264 216 174 150 255
5.233836133900070 -28.755682809686107 -3.366213975860575 218 176 152 255
5.942267138478172 -29.244554252701249 -1.764949909268353 217 175 151 255
6.555851194853872 -29.526368732286585 -0.365164327461315 215 173 149 255
6.827743669085976 -29.024852820238294 0.312027989011739 215 174 152 255
6.944943904208955 -28.164749923410199 0.662471735045870 216 178 155 255
7.370392214671014 -28.026155149019132 1.663536044002797 215 181 156 255
7.794910737048085 -27.891214654302502 2.662157379177813 213 179 154 255
8.494773897238389 -28.413950250245051 4.240752300886953 211 177 152 255
8.947580860691374 -28.361194057825571 5.297717782622925 216 182 157 255
9.735804684907990 -29.116750741200804 7.060524298615320 223 187 165 255
10.124868262088341 -28.927945680143779 7.981844744219018 226 190 168 255
10.543593610025965 -28.815900873068671 8.965139642667594 223 185 164 255
10.657181290500603 -27.969773031704705 9.306276021031607 219 178 158 255
11.013878052443914 -27.714829324018581 10.158522769879028 211 170 150 255
11.188005914099676 -27.017362627036505 10.626868944956726 210 167 149 255
11.543630419232358 -26.766621877501336 11.476307695838415 208 165 148 255
11.747549706629314 -26.145364754038923 12.007002969374440 207 162 146 255
12.011612467008305 -25.674415355892222 12.663793431008997 203 158 139 255
12.215125464881851 -25.054709198586863 13.193459098335154 200 155 136 255
12.448527571017408 -24.510873965588871 13.785693098923588 198 153 133 255
12.351883582592393 -23.137118959235806 13.686609660317743 192 150 125 255
12.226268690652901 -21.683749964974993 13.527481462169050 180 140 114 255
11.952364769586410 -19.846192528963257 13.058788753351990 166 131 103 255
12.097500055929004 -19.068916644521977 13.467265015683552 157 123 95 255
12.153429724576256 -18.062052573425007 13.689382325905484 141 113 84 255
15.193525103526554 -2.748134829838932 22.157520884095391 168 117 98 255
16.484901674018346 -5.204930566998598 24.934685686080769 182 129 111 255
17.143819206240735 -5.891255245501895 26.403496062437313 191 135 120 255
17.715373035519946 -6.340676292258934 27.690850106950535 185 134 117 255
18.086283064026304 -6.224424770071607 28.563476005426139 179 132 116 255
18.456425325901179 -6.111301104519185 29.433993399490276 174 125 108 255
18.542460050124689 -5.179939143077604 29.718849690005555 168 119 102 255
18.515709840997744 -3.917882414575445 29.771718421915324 156 113 91 255
18.574405718383446 -2.900520498288756 30.000794634555888 147 108 85 255
18.633547011201756 -1.881441176746421 30.231013725415579 130 101 75 255
18.749365058505902 -1.026669932099026 30.577909057079665 111 94 63 255
-4.444156354609362 -25.521089802540160 -23.162292190243903 221 191 163 255
-3.386301438070944 -26.593566606485780 -20.822001263530268 223 186 167 255
-2.811309737395192 -26.651506493879680 -19.500890880635325 222 181 163 255
-2.046111951582816 -27.126851118293331 -17.779862502636234 220 179 161 255
-1.537977118042278 -27.059211688244659 -16.601116766514053 218 180 161 255
-0.967362725844225 -27.134327159870281 -15.291484207519289 218 180 161 255
-0.620491826076261 -26.729583888800960 -14.453161705059784 215 177 155 255
0.138005415418220 -27.231299486365742 -12.749768698902557 214 175 153 255
0.957765464972084 -27.880641163751903 -10.918759459143473 213 172 150 255
1.617260537795829 -28.188998505553371 -9.425586467957601 212 171 149 255
2.054233875304504 -28.012625916606055 -8.400456048423592 178 136 114 255
3.151535456215527 -29.319019029667743 -5.990322633906572 211 169 147 255
3.774074774604870 -29.578538764875248 -4.577673306979335 210 168 144 255
4.049855232736959 -29.064733103525384 -3.892738117272046 215 173 149 255
4.356577146701724 -28.623470219820433 -3.143137433649230 217 175 151 255
4.881680740916266 -28.683324371706590 -1.936467660519213 217 175 151 255
5.343095020594490 -28.605083003489170 -0.863784553938473 215 173 149 255
5.741152403183975 -28.387419054641327 0.075802314034917 215 174 152 255
6.107286986448429 -28.100987431605148 0.948212880400860 216 177 154 255
6.410618593125250 -27.672922176630379 1.689010730113267 215 180 156 255
6.930401859440224 -27.753709033205979 2.881682912096181 213 179 154 255
7.758286996659479 -28.565920243774997 4.716868709980247 211 177 152 255
8.305880035321735 -28.731739876360052 5.965827768984582 215 181 156 255
8.882930527626073 -28.976064634519929 7.275445803869786 220 184 162 255
9.150796300839573 -28.493179055559580 7.939739667250052 220 184 162 255
9.602581761283446 -28.452902248249700 8.987023396129985 215 177 156 255
9.685407438596798 -27.531734772953570 9.265446888803694 209 168 148 255
10.043970292603987 -27.275082437695914 10.117946017316257 205 164 144 255
10.249079990861247 -26.650245867175784 10.650860369279116 206 163 145 255
10.576020022100920 -26.323608420351434 11.437003166293380 206 160 144 255
10.689289552207242 -25.476875688743462 11.778837408901182 201 156 138 255
10.863510832397139 -24.779078927728165 12.247398372276137 195 150 131 255
10.916374570829987 -23.781108608710923 12.464069237511950 192 147 128 255
11.090741298543975 -23.082658418379708 12.933079971652830 188 144 123 255
10.962873062902673 -21.629192144559823 12.775433110795660 179 137 112 255
10.775740122188765 -20.019963656192147 12.495654005513444 162 127 99 255
10.168354813717826 -17.342206523752139 11.346278107018691 145 111 81 255
13.558531345661251 -1.597007082093455 20.672682907104104 160 118 94 255
14.718206492410843 -3.634970158630551 23.158611304645063 181 126 108 255
15.758756825221184 -5.363887197962470 25.398596468753027 185 133 115 255
16.277752935936363 -5.643853805957548 26.570967993041421 191 138 122 255
16.824166026897274 -6.010605795345157 27.798421699656416 185 135 118 255
17.082326774903734 -5.566402094882392 28.436770549697002 178 129 112 255
17.368785283564492 -5.205462130504372 29.132565374076222 174 125 108 255
17.426224307224871 -4.189436821685206 29.361317993010289 168 120 100 255
17.341515422448040 -2.760045987138142 29.300809108205954 153 111 87 255
17.286261094381530 -1.409297220885378 29.300847788469326 135 103 74 255
-6.245795047801010 -24.751054414843281 -24.858578838557548 212 195 163 255
-4.725815481996264 -26.763036011234334 -21.568058084157116 224 188 168 255
-4.178914761577175 -26.747467450504757 -20.312587021502878 225 187 168 255
-3.601062436572221 -26.805301722291915 -18.993167790018731 223 185 166 255
-2.895910109659596 -27.143116805492639 -17.408859382473878 220 183 164 255
-2.128354600576145 -27.625852866405637 -15.695407384092761 219 182 163 255
-1.587272246529523 -27.633112648883468 -14.455191421925718 218 181 162 255
-1.207487817708042 -27.298849210624638 -13.551724017459463 218 180 158 255
-0.445025320030638 -27.801641426842878 -11.851686282332821 217 179 156 255
0.506755738383831 -28.730990225717051 -9.758744691573810 216 175 153 255
0.787210224288913 -28.201789569422886 -9.063988179998461 216 175 153 255
1.035497662793830 -27.603846842099188 -8.436277286122930 188 146 124 255
1.791162751091520 -28.133449789834913 -6.754178253761353 203 161 139 255
2.354748100310402 -28.247356077364259 -5.472244439593396 208 166 142 255
2.980190414906261 -28.508393471354964 -4.062654583288946 213 171 147 255
3.383099324916884 -28.278235802553496 -3.115755257556970 215 173 149 255
3.848198736985992 -28.193881162850175 -2.040309316951920 214 172 148 255
3.997738751319417 -27.398478911587745 -1.619586256550235 213 171 147 255
4.524096941787718 -27.463584657401611 -0.418038015071602 213 172 150 255
5.111874049018652 -27.677587480409869 0.909978660793143 216 175 153 255
5.541738843969739 -27.536567596923248 1.910302079444364 215 178 154 255
6.001904272624529 -27.471602307793859 2.972786142097647 212 178 153 255
6.928660925358429 -28.500029650364951 4.999376358706542 211 177 152 255
7.510400977366032 -28.737933002322393 6.311387507901657 214 178 154 255
8.059597033982243 -28.908636290497441 7.555312597822109 217 181 159 255
8.204297618625233 -28.132088785146607 7.963456958502036 211 175 153 255
8.565748525866240 -27.869739261641797 8.818870489268789 203 165 144 255
8.648399659294668 -26.946643231200824 9.098996851678038 199 158 138 255
9.070628650198017 -26.835729717609553 10.079178266201126 200 159 139 255
9.245620537235013 -26.135143749856127 10.549566003115899 202 159 140 255
9.512774935648380 -25.657831997173275 11.209694196594597 200 157 138 255
9.564805676324170 -24.659716342161289 11.427003091465622 195 152 133 255
9.647862464648327 -23.734779171585387 11.708399344227104 187 145 123 255
9.517229023886642 -22.283303059711614 11.550826339761358 178 136 114 255
9.418173430487684 -20.902800293621681 11.458820645594955 168 127 105 255
8.985024662198967 -18.688073364383342 10.681572082899521 158 119 94 255
13.430659931594931 -3.448622382821441 22.386655962587639 173 121 100 255
14.393299472400685 -4.925202318444633 24.452066869827377 186 130 112 255
15.062112882068135 -5.603826723228053 25.921090817968462 187 137 118 255
15.322624813850638 -5.153066994150151 26.563397856274662 189 138 121 255
15.756658261566059 -5.192255352797645 27.556023493126986 183 134 117 255
16.131859296879355 -5.072160104292379 28.429159295784956 174 123 106 255
16.304227960193529 -4.382123111784267 28.892456966058546 166 119 99 255
16.447785601149576 -3.610050700079171 29.297612298161511 155 111 88 255
16.275134209269808 -1.932215420921636 29.065547826942350 138 103 75 255
-6.463069508807578 -26.124932423284349 -23.125694763412469 222 188 167 255
-5.683563427473672 -26.577272079659650 -21.394543500056159 227 185 170 255
-4.971154190193758 -26.901362535046871 -19.803400470434497 226 187 170 255
-4.520306035122303 -26.685526775424933 -18.754271517202511 224 188 169 255
-3.811112423472636 -27.022251380132388 -17.171574088180336 223 187 166 255
-2.974325929329297 -27.641516544133594 -15.326285736413638 221 185 163 255
-2.430510315392510 -27.648254594264017 -14.087337734858863 218 182 160 255
-1.758989203892099 -27.937089638487805 -12.585502124351393 218 180 157 255
-1.089183310548606 -28.232684135423852 -11.088188257839874 215 177 154 255
-0.228289966064779 -28.953358206723465 -9.197849207123141 213 172 150 255
0.181129841863367 -28.704266802446114 -8.239345040626546 209 168 146 255
0.397586264835411 -28.037415241956751 -7.678750813342390 200 158 136 255
0.837653734948049 -27.863813367161526 -6.657834607718826 204 162 139 255
1.212961005394874 -27.552660374517700 -5.770689356388061 209 165 140 255
1.906122151766496 -27.952547363294059 -4.230241405820863 211 167 142 255
2.502059060901743 -28.146489478911377 -2.890713342854127 213 169 144 255
2.937778282425384 -27.989957587796681 -1.881205726831467 213 169 144 255
2.928892529881352 -26.836224446066097 -1.785121799084862 213 169 144 255
3.490062567825220 -26.970758167419604 -0.518739269489174 212 170 146 255
4.144599599916148 -27.326514513697475 0.938330952658475 214 174 149 255
4.986582454668039 -28.121940736245392 2.778628436597870 212 176 150 255
5.480031128266035 -28.130654094238878 3.903383056732849 212 176 150 255
6.286475732896037 -28.869856202516729 5.668382102946623 211 175 149 255
6.902510828075236 -29.181119116350487 7.042298560280045 211 175 149 255
7.329131295561041 -29.060465413014640 8.027802078882672 213 177 155 255
7.442335544365164 -28.210888919174607 8.372027872532669 205 169 147 255
7.493330180913574 -27.213591708530146 8.589304302908062 195 157 136 255
7.451307979180541 -25.993550439650960 8.616933130439122 194 153 133 255
7.845185694233692 -25.805414200800868 9.534707680111495 196 155 135 255
8.114137027967374 -25.323924516980867 10.197172645133406 199 157 137 255
8.289797606888754 -24.620793755140880 10.669248458376927 198 155 136 255
8.187155124676764 -23.246546329278686 10.574301402067249 189 147 128 255
7.992876311716003 -21.644039685420267 10.293407909390510 179 139 117 255
7.584225312089771 -19.511198977033075 9.577106600536325 166 126 104 255
7.146876526179895 -17.294853593206767 8.803807202190995 151 113 90 255
6.374016536958095 -14.239707779048160 7.349929774535553 137 103 78 255
5.512604664440843 -10.943961285502695 5.718391097359870 113 84 57 255
11.664091423719611 -1.983369519612211 20.667813863736143 163 117 94 255
13.107188261151521 -4.735525689045630 23.681971158538516 185 128 109 255
13.869835993143411 -5.649528775329230 25.329689312109906 192 137 119 255
14.337038092598874 -5.762747607514370 26.384365891379019 187 139 119 255
14.451903681112412 -4.906220267932383 26.733305151973042 185 134 117 255
14.771485155526349 -4.618700647408446 27.491683722001909 178 129 112 255
15.119673989518901 -4.415059646140605 28.306807457353983 170 122 105 255
15.292573878079750 -3.723053898013120 28.771402451184059 159 117 95 255
15.262124213320376 -2.456664717337731 28.830152833136367 145 108 82 255
15.174453955454382 -1.022686672030886 28.775277340015947 125 100 67 255
-7.394541186473560 -26.008476693148708 -22.881940259085383 225 187 168 255
-6.446429697050974 -26.799289588747030 -20.816062088893460 227 185 169 255
-5.763017641582934 -27.055252013958295 -19.294443032111360 224 188 167 255
-5.146736276371584 -27.181242532049566 -17.911386989139487 224 189 167 255
-4.695202877360558 -26.970168057433966 -16.866620255245607 223 188 166 255
-3.886066659978212 -27.519656306042691 -15.090330104994280 221 186 164 255
-3.306866770071380 -27.594460865070772 -13.785778159618303 216 181 159 255
-2.599114391945591 -27.951706536439076 -12.219149669562569 219 177 157 255
-2.087758970523893 -27.899312175434034 -11.055009433240571 220 177 158 255
-1.448071383537879 -28.130244406329695 -9.629387710898783 212 170 148 255
-0.971574685682214 -28.017910188376618 -8.537896537592047 209 167 145 255
-0.108979028487852 -28.751334068393419 -6.659156211726810 206 161 140 255
-0.053931141978424 -27.735190867373774 -6.428819547939156 206 161 140 255
0.290873283350550 -27.352621621754594 -5.607543785731508 208 164 140 255
0.988132035824066 -27.751204089776252 -4.068564878192745 207 163 138 255
1.715611539296788 -28.228008542700053 -2.469167465569910 208 164 137 255
2.089321269323932 -27.928768562845278 -1.590877616286832 210 166 141 255
2.143017702616035 -26.917651258813578 -1.363855703998837 213 169 144 255
2.643356954854056 -26.908494340078164 -0.228611464029086 211 169 147 255
3.301641231228217 -27.263416729363200 1.226818517288820 212 170 148 255
4.117042370366562 -27.985732744199709 3.000209134265191 213 172 150 255
4.613096779409048 -27.993516490110181 4.124112274452784 214 173 151 255
5.139654936618811 -28.078410262745535 5.309177245346916 213 173 150 255
5.601756280667814 -28.022702515008064 6.362804441818497 212 172 150 255
6.346710250941371 -28.628198331863587 7.988821273567993 206 166 146 255
6.365405467019286 -27.557410528857957 8.143060031071144 200 160 140 255
6.510341952991055 -26.778348768782195 8.553136289010155 194 156 135 255
6.341568412992004 -25.262222507017469 8.328848313675252 190 152 131 255
6.769097625065655 -25.145364974003940 9.310648530939801 190 152 131 255
6.945563297756337 -24.439232646599066 9.784705236091014 194 154 134 255
6.997139145472261 -23.435874282046626 10.006631138160316 192 155 134 255
6.457128203841961 -21.014289327699629 9.035209553659115 183 148 124 255
6.137328467696420 -19.106119075149877 8.509553035653795 170 136 111 255
5.850300408393636 -17.266008711416077 8.051130200651158 154 121 94 255
5.409927070690060 -15.043310226049499 7.284963351241601 141 109 81 255
4.724224097646072 -12.208401208385453 6.026449385090501 120 92 63 255
3.393049112689781 -7.772422532187932 3.471499236115989 106 90 59 255
2.467981329164203 -4.301400904788977 1.736689866031639 105 101 68 255
1.485297147603518 -0.662433854900883 -0.111204535391551 20 29 0 255
10.178745676816931 -1.332526169659502 19.539591639979875 155 118 86 255
11.486872036331732 -3.668742180540335 22.262153659100051 176 125 101 255
12.405069453198109 -4.975234733259242 24.208059800202307 188 133 111 255
13.024333965892822 -5.485588789929636 25.559251729264048 188 138 117 255
13.375876842236366 -5.274148498038016 26.378737987097793 185 138 118 255
13.461181613734780 -4.334978845335399 26.670502785697551 179 132 112 255
13.664622628548869 -3.720069504101048 27.196247631730671 171 125 104 255
13.956144511076644 -3.350454666560495 27.896066130831997 164 120 101 255
14.041821062129486 -2.409927678985014 28.188721913839771 144 108 86 255
13.893517908841417 -0.811835892367583 28.019469073976921 119 97 68 255
-9.748339703341657 -24.168609800477554 -25.652486592440312 214 200 164 255
-8.029544469652734 -26.501302307493859 -22.031336518671651 225 189 170 255
-7.208439476007797 -27.021251409152995 -20.238067123985587 227 189 172 255
-6.455500238621596 -27.413495367321900 -18.584591192341236 225 190 168 255
-5.836283435515227 -27.540021395352113 -17.203802837353066 224 189 167 255
-5.251452444250049 -27.603859245074943 -15.893685493585735 224 189 167 255
-4.799343180042541 -27.397990808265405 -14.853580659078972 221 186 164 255
-4.348173678355352 -27.195782208675126 -13.815917191671701 215 180 158 255
-3.865220079809376 -27.066461434391840 -12.714397358791388 219 178 158 255
-3.579323839157809 -26.524550450636752 -12.012516265328173 221 178 159 255
-2.935074016051658 -26.750460492007761 -10.585579016704401 215 172 153 255
-2.227313033575115 -27.122471948680925 -9.031162891358434 212 167 146 255
-1.391369241116223 -27.782138577106167 -7.218750903048630 207 162 141 255
-0.849707808214617 -27.817768106799150 -6.002348497396184 207 162 141 255
-0.406487024519379 -27.646719010622178 -4.985503129420039 205 161 136 255
0.456160237244546 -28.399430153792480 -3.122739850521441 205 161 136 255
0.993632359814129 -28.451571917319683 -1.917383750090664 207 163 136 255
1.433164420365372 -28.295042657710837 -0.910248771166749 208 164 139 255
1.324882332735342 -26.927686487573595 -1.007386722560739 210 166 141 255
1.763489611654251 -26.774717201128851 -0.002619865865825 211 169 147 255
2.137047422824992 -26.481642135376660 0.870667838947469 212 170 148 255
3.213974569832487 -27.777618970427113 3.158205618799514 213 171 149 255
3.712690809921725 -27.784252217532298 4.281405013272717 214 173 151 255
4.369722242744842 -28.158153089847616 5.721924201189381 211 170 148 255
4.674835744947501 -27.738373078957807 6.454764747107163 209 168 146 255
5.074811445393664 -27.539442648954690 7.377671808568948 203 161 141 255
5.188424318612363 -26.684852852503354 7.725788103336896 194 153 133 255
5.270543157780409 -25.756071907550790 8.010945168791665 191 150 130 255
5.194865951431467 -24.457839592146513 7.980265007301000 189 151 130 255
5.277839157774935 -23.525547732385036 8.267793415004974 188 152 130 255
5.361102276507438 -22.592052512122734 8.556136412274356 189 152 129 255
5.287398179392753 -21.285796242484707 8.530863038023114 185 150 126 255
4.774986906777528 -18.932680701088515 7.629552042854044 174 142 116 255
4.296303105319964 -16.644733151070625 6.797271267606874 162 131 105 255
4.007612158896066 -14.797483078471828 6.345784723385918 148 119 91 255
3.907922272475673 -13.394900869353506 6.272426658284928 132 110 79 255
1.439579582198718 -5.056869438459444 1.607625721448784 102 98 65 255
8.712738355300274 -0.770423542579294 18.469857578176999 135 110 72 255
10.093057592295111 -3.253607522864968 21.313784616747995 172 126 98 255
11.079407754018405 -4.711130210434987 23.380209317642198 183 133 109 255
11.644020720372268 -5.053940996106348 24.616140489371247 191 139 117 255
12.087769412523869 -5.079757749254611 25.613780542473364 184 136 115 255
12.232504499673468 -4.300452031935833 26.024183692870793 178 131 112 255
12.258354806204281 -3.196236648309309 26.201608993151211 172 125 105 255
12.433206935605185 -2.496659239349128 26.671249832946302 159 118 96 255
12.578417381420110 -1.715569283720015 27.082832497224103 144 111 88 255
12.694152358283986 -0.852304673954791 27.436801020041258 124 104 76 255
-9.957005454079564 -25.537612434270557 -23.920924078032556 213 204 168 255
-8.394960145242919 -27.535084482622437 -20.644560630589467 223 189 169 255
-7.570037958244839 -28.057635962664904 -18.855815815612345 224 189 170 255
-7.013203229559508 -28.043963198088761 -17.608088049658051 225 190 168 255
-6.524012372375338 -27.898645778979528 -16.497221373880819 223 188 166 255
-6.300908091191531 -27.209126185685221 -15.922020275582980 221 186 164 255
-5.780301491486995 -27.139001119156973 -14.748973401194291 217 182 160 255
-5.293874846753823 -27.004441522415107 -13.645281794546662 215 179 157 255
-4.676646679774521 -27.150796345532854 -12.279649748011934 224 182 164 255
-4.324171234154250 -26.747634342741776 -11.446118870041744 224 181 162 255
-3.873745188059374 -26.555741779735342 -10.416521558167773 217 172 153 255
-3.194681038343262 -26.856579195440133 -8.929297968077009 213 168 149 255
-2.451847713746460 -27.304353907066428 -7.315446941300962 209 164 143 255
-1.841690942600493 -27.478535890909171 -5.968423550452115 208 161 141 255
-1.037242088911995 -28.081777039648131 -4.233657276595920 205 161 137 255
-0.560695732056757 -27.986026208523811 -3.155906620375703 204 160 135 255
-0.052674806235572 -27.965351805979509 -2.015916502771717 206 162 135 255
0.291870198331566 -27.593250504208754 -1.203133406220104 207 163 138 255
0.506178958958785 -26.937820437596287 -0.650646223991089 209 165 140 255
0.752683527162986 -26.354591684318308 -0.033991092971377 212 167 148 255
1.418796893319083 -26.706520017068385 1.419046718068444 211 168 149 255
2.147690907283419 -27.209359467393199 2.996041341944562 213 170 151 255
2.488408073009651 -26.852239006991539 3.798819421327750 213 171 151 255
3.117718806834532 -27.150136164541181 5.175531943941365 207 166 146 255
3.520898161922020 -26.945150551166392 6.101453154620174 202 161 141 255
4.019325909359651 -26.962266406364108 7.216165834510349 201 158 136 255
3.877273108217238 -25.520256507521879 7.057866496578612 190 148 126 255
3.959661980113452 -24.587780411622475 7.345910497779670 187 146 124 255
3.787490122518676 -23.065103617804340 7.129150661184980 185 147 124 255
3.870899033569813 -22.128456613129117 7.420008628812809 184 148 124 255
3.732376820262203 -20.672144467949067 7.271338109551493 182 147 121 255
3.721680041248376 -19.508688351004650 7.376586037967456 175 141 114 255
3.173800797748115 -17.076081192594415 6.419168378228107 164 133 105 255
2.502096866563647 -14.334537691953841 5.218638734823116 152 124 95 255
8.690266227193320 -2.845932382799333 20.364829718079108 176 135 105 255
9.655168765559154 -4.213467819986704 22.375108072396955 186 139 113 255
10.315150162800990 -4.790202592334083 23.789982296448017 184 136 113 255
10.822610615127587 -4.971793213696515 24.906980202779124 185 134 113 255
11.148280212717211 -4.674269751069176 25.669844026901956 178 130 110 255
11.233068288582359 -3.731894126147267 25.964580465598118 172 125 107 255
11.168250491110129 -2.382720115828988 25.969262938184073 161 118 98 255
11.164165467812126 -1.192755513090617 26.092315121783230 138 105 80 255
11.369863174719569 -0.571060197409963 26.622267000454912 121 102 72 255
-9.224041919404385 -27.621440026345084 -20.200507183527520 221 188 168 255
-8.595737759475057 -27.736401246441289 -18.815807748090492 225 189 170 255
-8.035890352780257 -27.721097834309120 -17.568604907664167 224 189 167 255
-7.477316748242487 -27.710783371429415 -16.324734549755817 220 185 163 255
-7.020123360121659 -27.499918856164271 -15.283660235558273 218 182 160 255
-6.697123340489753 -27.017775846300310 -14.510383744202187 214 178 156 255
-5.975523311799236 -27.364996190163083 -12.944076375899925 215 179 157 255
-5.255750125833288 -27.719421923532309 -11.382590014221364 224 181 164 255
-4.902419303702658 -27.317661611028313 -10.550749718931229 226 180 164 255
-4.351144530873029 -27.335958046972308 -9.325994542407585 219 174 155 255
-3.900247764681382 -27.149718842629085 -8.301363565084984 215 170 151 255
-3.351345961257920 -27.177331776936114 -7.082835139219952 213 166 148 255
-2.573236842478337 -27.701927484215560 -5.410550142516797 208 161 141 255
-1.830041233359964 -28.164104980475940 -3.808831269117604 205 161 136 255
-1.285663609654620 -28.209563421994460 -2.602243188255983 205 161 136 255
-0.939106094911011 -27.834319953757273 -1.788113620674409 206 162 135 255
-0.495039045118290 -27.674919118996797 -0.781424109328782 207 163 138 255
-0.247794219087552 -27.090834831897837 -0.164521922444209 210 166 141 255
0.064368290766737 -26.650981427187787 0.580531085059960 210 165 145 255
0.506192088592726 -26.500351229560692 1.581364468425903 211 166 147 255
1.239425240486923 -27.001865849962797 3.156756677478228 211 167 148 255
1.711317163496176 -26.932818574336181 4.215324935473262 208 165 146 255
2.246912513956588 -27.012863142239439 5.398780320640412 207 164 145 255
2.748931263098754 -27.025174014289888 6.515232781656465 200 158 139 255
3.023973207687050 -26.531461929744097 7.184015557712286 197 153 132 255
2.751140316581825 -24.795504154790990 6.774537337746267 185 143 121 255
2.479811378498141 -23.053486434918256 6.369133916641857 177 138 115 255
2.049509097875230 -20.937410421762678 5.652433787178495 179 143 119 255
2.037786058284738 -19.772739079463832 5.759324385440493 180 145 120 255
1.898743642761204 -18.309377622896619 5.616805011430245 177 143 117 255
2.016202936305433 -17.435822767405682 5.978208561856121 161 130 102 255
1.368849402342519 -14.773926155890990 4.840569070738837 149 123 94 255
7.400926286870501 -2.763912134110342 19.651614530098783 148 114 82 255
8.526901428893453 -4.521422252597858 21.958726241794437 182 138 109 255
9.100475576924836 -4.852887779958564 23.198465433943710 189 143 117 255
9.489943673303102 -4.708910979809843 24.082474437647392 183 135 112 255
9.787462860541282 -4.326810717506305 24.788886201168168 182 131 110 255
10.084530954769974 -3.946543165075013 25.494063292823967 173 126 105 255
