ply
format ascii 1.0
element vertex 641
property float x
property float y
property float z
property uchar red
property uchar green
property uchar blue
property uchar alpha
end_header
-5.875623031135490 -24.097927730882816 -14.612834366966752 215 174 156 255
-6.575951443634580 -23.775839427387780 -13.975081125469274 209 166 150 255
-8.053359098937221 -24.599461837693582 -12.481304050336576 213 170 154 255
-9.379708722744880 -25.218111704274634 -11.152182448737392 221 176 163 255
-10.459255889266075 -25.486019257256402 -10.093642452768592 221 177 164 255
-11.583618491246682 -25.832433067373813 -8.984509018435574 220 175 163 255
-12.029775879293538 -25.173157279981325 -8.623053361847923 216 170 159 255
-12.283390680867569 -24.224281316406262 -8.474268275005244 211 166 153 255
-12.729393665975692 -23.565293287758379 -8.112935847520873 211 163 149 255
-13.605388867293669 -23.563847046065518 -7.275601204253462 210 162 148 255
-14.145040339159550 -23.054485080099823 -6.809969177454718 206 160 143 255
-14.541178041716762 -22.326281214523078 -6.503148393561332 201 155 138 255
-14.699999444119953 -21.229896028376402 -6.459560979098683 199 153 134 255
-15.238572349651662 -20.722521350630757 -5.994768602179676 199 154 135 255
-15.729136100973960 -20.142514934562030 -5.583046666292518 198 153 134 255
-16.266223117822875 -19.637874276583773 -5.119407538764278 197 152 133 255
-16.567695128511787 -18.761924506589764 -4.917683731787605 194 150 131 255
-16.916419671003496 -17.959999726232610 -4.663477719976470 191 148 128 255
-17.031714366091052 -16.782748788116066 -4.669494410740242 188 146 125 255
-17.241588750389980 -15.753409408258904 -4.570487742789823 187 145 123 255
-17.359406475519961 -14.571522140783117 -4.574551803056750 186 143 121 255
-17.385895476129633 -13.235748772615437 -4.681122709384539 181 139 116 255
-17.645426814402583 -12.276015386307932 -4.527772423809409 174 133 109 255
-17.997842001725985 -11.467310503145200 -4.270711843209682 171 129 106 255
-18.488406950956687 -10.887309829632471 -3.858996343796775 168 125 101 255
-18.749062380380821 -9.925511101816710 -3.704776369628433 167 123 98 255
-19.101876950135193 -9.116072739029278 -3.447407093675082 169 124 100 255
-19.363608990414861 -8.152295084151717 -3.292353402508780 172 127 103 255
-19.671509615310299 -7.264533825186646 -3.085655972401412 176 130 106 255
-19.707509264143994 -5.911279069379646 -3.184862120873277 168 122 99 255
-19.337991098223796 -3.855494278953927 -3.741116213219982 156 112 88 255
-18.972525849279435 -1.792258862664085 -4.294230907066691 137 96 73 255
-25.516090919468894 -1.830024363203449 1.965254068110141 205 156 132 255
-27.056025868728454 -3.182270263496207 3.570980978670264 218 166 148 255
-28.545692950626915 -4.466033685289347 5.121890639077549 218 165 151 255
-29.503500747793282 -4.796855453894864 6.070243974053767 216 165 148 255
-30.327043470518959 -4.891830671767480 6.866952384040758 211 159 145 255
-30.930265905285438 -4.587378479997597 7.413594146236079 201 149 135 255
-31.749500156881652 -4.690269968252210 8.206969051810091 190 138 124 255
-32.219634098036153 -4.147806060895903 8.602879322656008 172 121 104 255
-32.213939052800100 -2.710287900263324 8.455515769740487 152 106 88 255
-31.994939334370656 -0.860445198811590 8.063519944110027 121 90 66 255
-55.365846669297611 -1.657384578700999 30.487812279943427 188 182 140 255
-56.187217814468440 -2.077983435414751 31.314738715100447 192 174 138 255
-57.161202153291867 -2.861583446696045 32.323408815499420 191 160 130 255
-57.782723856524228 -2.845111301616669 32.916135826749610 202 162 136 255
-58.364009513421706 -2.741710441237956 33.461820311746408 204 159 135 255
-58.558940160247644 -1.739650642888932 33.549429538499311 204 161 136 255
-58.946811855907086 -1.187345090278882 33.865902420376926 203 163 136 255
-1.265344123467315 -23.376227548018619 -20.385048428739594 217 183 164 255
-2.665312973383095 -24.012933448076410 -18.976070540735407 220 183 164 255
-3.176842223393606 -23.393518854170537 -18.547305447674205 220 183 165 255
-4.177414241686307 -23.480289643416626 -17.577494238999151 221 184 166 255
-5.468019806648670 -23.997008990456663 -16.285684271961571 221 183 164 255
-6.656728896997834 -24.380009399969083 -15.105252973714556 218 177 159 255
-7.161123724910823 -23.773719492766503 -14.682022763597075 212 169 153 255
-8.198167584980240 -23.953973669072695 -13.667746263447697 214 171 155 255
-9.280321733381015 -24.211823261869228 -12.602306069330496 216 172 159 255
-10.889530141803647 -25.266502971756495 -10.950154196926206 222 178 165 255
-11.722832544949370 -25.179225526864769 -10.158595995582601 222 178 165 255
-12.409905593858923 -24.879205641487204 -9.528978950066403 217 173 160 255
-12.808245814449890 -24.146849202103169 -9.220356054629065 213 169 156 255
-13.445231126795250 -23.778389550685972 -8.645763274158128 216 169 155 255
-14.128546969702285 -23.485281414846810 -8.019060962519518 214 166 152 255
-14.620321769702912 -22.902207167879880 -7.605620900169242 212 164 150 255
-14.969393803934764 -22.099906445961096 -7.351389384194192 205 158 142 255
-15.271373709398688 -21.223656802885444 -7.149859671451196 202 155 139 255
-15.809449293534669 -20.715990737101464 -6.684334956485799 202 155 139 255
-16.299704964353225 -20.135713651234340 -6.272075777209437 201 156 137 255
-16.648716550083691 -19.333528034623100 -6.017894774617332 198 155 136 255
-17.138215431116350 -18.754644022809941 -5.606223511656253 198 155 136 255
-17.627154789092003 -18.176789447934766 -5.194986439949588 194 151 132 255
-17.929413386143779 -17.300032581735536 -4.993245584956270 192 151 131 255
-18.046447312886585 -16.121696345878490 -4.999872783519834 192 151 130 255
-18.026000124553661 -14.714533047936044 -5.161662495833212 192 150 128 255
-18.146163541458805 -13.530444312706237 -5.165866100788577 187 145 123 255
-17.991437296582006 -11.888567353915533 -5.480337878043400 181 140 118 255
-18.482489499058261 -11.306831434636479 -5.067466764678613 169 128 106 255
-18.972987123770110 -10.726115366784342 -4.655025553649523 164 123 101 255
-19.508613208632852 -10.222959688985725 -4.191405070579776 161 119 95 255
-19.906762002307147 -9.490969494251317 -3.882943745073902 161 117 92 255
-20.577482491493697 -9.221029524272296 -3.266010489563001 169 125 100 255
-20.974772135647527 -8.490618883362004 -2.958214800154764 176 130 105 255
-21.055614039330379 -7.218295224302409 -3.009100149733115 176 129 103 255
-21.138087264111277 -5.942972229734096 -3.058721486778040 176 129 103 255
-20.862548463053116 -4.041623188587835 -3.515441867379565 162 116 91 255
-20.904420452140869 -2.680416178502696 -3.612734693200849 142 99 74 255
-25.164873698870821 -1.589806939097912 0.369119552804790 182 138 113 255
-26.748595728557916 -3.012414157747116 2.033945680589483 203 157 134 255
-27.974805350459860 -3.808076124528782 3.292060455187851 213 167 146 255
-29.415106433568724 -5.012774212378417 4.797124433248968 215 164 147 255
-30.151557111699816 -4.943038469933242 5.497422353225403 211 161 145 255
-30.755518634018500 -4.635296307964495 6.046426818523344 204 152 136 255
-31.054545989205593 -3.764472354651389 6.245671418125568 189 140 124 255
-31.873172366585095 -3.864710614415003 7.042070729944243 180 128 113 255
-32.344210008061111 -3.319758486437479 7.439447520533520 157 107 92 255
-32.298475261123883 -1.798544514720845 7.241862198906546 126 87 65 255
-57.401731832322412 -0.752865379386265 31.249212807069540 162 167 118 255
-57.984774418602683 -0.644001205218103 31.798328549971728 174 171 128 255
-60.417128635266664 -0.505904742824498 34.121092908642822 162 152 108 255
-1.470604163600740 -22.818461506457425 -21.543972861495632 221 184 165 255
-2.867829363253776 -23.452731775525280 -20.130187174233185 222 184 168 255
-3.771172650512824 -23.393411351933963 -19.264624548613966 223 186 170 255
-5.159713860609685 -24.043651965665731 -17.857571290840667 224 187 169 255
-6.008160437235887 -23.925103594948268 -17.051102155067895 224 186 167 255
-7.194031500365497 -24.307319381952539 -15.867305746127130 221 183 164 255
-7.698242325116183 -23.700534466194824 -15.443445664754847 216 174 158 255
-8.491594057806253 -23.523123295157518 -14.696224337864379 214 170 157 255
-9.571897279511262 -23.779111675406199 -13.627338544691099 214 171 158 255
-11.081087287775858 -24.688031379339748 -12.077149412383761 221 178 165 255
-12.153327878820619 -24.958846908241185 -11.014513881417997 222 179 165 255
-12.887499218481139 -24.730085796624337 -10.329707119883949 218 175 161 255
-13.619890781561168 -24.504598097112222 -9.646280445137904 215 172 158 255
-14.207838009455514 -24.064192908686550 -9.124437843480678 217 171 157 255
-14.605001443392524 -23.333905088057520 -8.816638696689239 215 169 154 255
-15.049399691327807 -22.676936746834542 -8.455686902479073 213 167 152 255
-15.587859315263273 -22.167357286769544 -7.988745506601845 208 162 146 255
-16.031375247530008 -21.512012638701435 -7.628478731810446 204 158 142 255
-16.427624268694217 -20.783408859799408 -7.321390712091471 203 157 141 255
-16.730144522654740 -19.906805874867985 -7.120035694635249 202 156 140 255
-17.079779854603657 -19.103742356904661 -6.865620659321110 201 158 141 255
-17.522750386705951 -18.449402796215566 -6.505778631402222 201 158 141 255
-18.197716109419559 -18.169341424111622 -5.883409041978609 199 156 139 255
-18.500423166935917 -17.292396894451599 -5.681911053075652 200 159 141 255
-18.711102351910085 -16.264325460469649 -5.584827732745708 202 160 142 255
-18.876580321133332 -15.159196348336906 -5.539322052087329 202 160 138 255
-19.181130994358597 -14.278862946258556 -5.336396285355590 196 154 133 255
-18.935820253798624 -12.487526235238875 -5.758169648399559 187 146 124 255
-19.059712669108649 -11.298691659332405 -5.761439997530601 185 144 122 255
-19.184989140016341 -10.107312366462907 -5.763637923367071 169 128 107 255
-19.675592552517770 -9.525562489180146 -5.350336744039481 161 119 95 255
-20.120271716029805 -8.868084176532903 -4.989173327118522 151 108 84 255
-21.017147522313735 -8.980847036751811 -4.112093889772439 149 105 80 255
-21.775905270273739 -8.867059198069455 -3.391695041233646 164 118 92 255
-22.037568523771398 -7.905414436894091 -3.238554508324825 175 128 102 255
-22.165232461695098 -6.709645597245611 -3.238902560535820 179 132 104 255
-22.339052941038517 -5.589178114891752 -3.186932873116177 174 128 102 255
-22.558667934549675 -4.544677622408301 -3.082925970144828 165 119 95 255
-22.378471167485202 -2.793785012232945 -3.437690530135143 142 97 73 255
-22.112554121144086 -0.880166870427502 -3.891980965476904 126 84 60 255
-24.815449187139279 -1.356066504798093 -1.234685059331127 171 127 100 255
-26.486743071452821 -2.927957820196752 0.540405575876576 192 145 122 255
-27.844383139156406 -3.955377359827537 1.956590209278744 211 165 142 255
-28.934588607593270 -4.513511269177570 3.066235122333296 212 166 146 255
-30.107995223664716 -5.239002078279213 4.273454255710590 211 160 143 255
-30.929516605908475 -5.330147287354862 5.075591637207083 203 154 137 255
-31.358739497851843 -4.701084979905090 5.424780576132861 193 142 125 255
-31.571707047984461 -3.668802791628309 5.523640148026487 179 127 111 255
-31.828676926636376 -2.715782415872184 5.673148535715796 165 112 96 255
-32.258148136038301 -2.086261538615815 6.022531748771428 139 90 73 255
-32.216187484454025 -0.561695917831230 5.824545417629736 111 81 56 255
-0.377954201789606 -21.777551800245874 -24.019041234579788 192 196 151 255
-2.364508109345877 -23.238339049215142 -21.938924417323420 220 187 165 255
-3.806109427049648 -23.943334451396254 -20.466924232630561 223 183 168 255
-5.242516117828359 -24.657883121758999 -18.998951335345282 224 188 172 255
-6.042167291937147 -24.465836334673043 -18.244018492863944 227 190 172 255
-6.694410955208895 -24.065428591863395 -17.653993199503930 226 188 169 255
-7.635387280497440 -24.092929099705771 -16.738868772683816 224 186 167 255
-8.670039925546661 -24.267788258723783 -15.717368832154420 221 179 163 255
-9.316689955500038 -23.877668049178681 -15.131680599146449 215 173 159 255
-10.010017284484604 -23.561523108231711 -14.492929422515601 214 172 158 255
-11.419581956697641 -24.325436350454538 -13.045766863534595 221 179 165 255
-12.585310018147226 -24.738692593707185 -11.872021596952038 223 181 167 255
-13.366200388058303 -24.581149119637246 -11.131634484640301 218 176 162 255
-14.287529046397339 -24.644783560756849 -10.231743002226551 218 176 162 255
-14.874547187271475 -24.204513340990843 -9.709161970838579 221 175 162 255
-15.224295065439890 -23.401510539466216 -9.454907822816295 218 172 159 255
-15.621331005685164 -22.671359767475451 -9.147117214734095 213 167 153 255
-16.065290912591735 -22.014730592919136 -8.786072396278570 209 163 148 255
-16.462051225164771 -21.285087110761111 -8.478495840037425 206 160 145 255
-16.765218086020866 -20.407933053181807 -8.277230992528814 203 157 141 255
-17.068794232624867 -19.530026510035015 -8.075649036683586 204 158 142 255
-17.605358700509726 -19.022727458356258 -7.609060020505154 201 158 141 255
-18.187514418111988 -18.591400846810444 -7.090249916900689 203 160 143 255
-18.537259445331784 -17.788404842148964 -6.835999419438338 205 162 145 255
-18.610261825290706 -16.535451340308839 -6.897553552966997 209 168 150 255
-18.961072031689810 -15.730496806536308 -6.642477621283120 211 169 151 255
-19.403870666314731 -15.076004845103625 -6.282334555048408 208 167 147 255
-19.983719388850915 -14.648921623697731 -5.765313639344726 204 163 143 255
-19.786188174470908 -12.934592637293179 -6.137859467091687 201 160 140 255
-19.956103593956385 -11.823045963019354 -6.090529393601088 186 148 127 255
-19.854612381807840 -10.251728832861602 -6.354867356436387 183 145 124 255
-20.254056458022006 -9.517152060714579 -6.045212294908339 174 133 111 255
-20.472702427796378 -8.475804874577250 -5.943227700042399 161 119 96 255
-21.368171358217324 -8.586998853094059 -5.063386363334786 149 105 80 255
-22.215970672461026 -8.626042799000601 -4.237377569588688 138 94 67 255
-22.388994619329168 -7.508780293118832 -4.187638407940398 162 117 86 255
-22.652562139759965 -6.544637389192815 -4.033952133927556 180 135 104 255
-23.050525537537709 -5.812784254900635 -3.725445540906037 174 130 101 255
-23.892991509550171 -5.861636599481841 -2.903571599676923 168 124 97 255
-24.023612779876487 -4.662538439420928 -2.903582219222670 153 111 86 255
-23.890340939868992 -2.989852428590098 -3.209436237771655 138 98 73 255
-23.936288889884850 -1.626839552873207 -3.308843510370394 138 100 77 255
-24.863568158399971 -1.839349657402579 -2.387464831020395 157 115 90 255
-26.664926305724038 -3.640719936365088 -0.450922375726947 177 133 108 255
-27.846264859763210 -4.344902440855321 0.768676218664467 201 156 132 255
-28.848762823361312 -4.738714584250033 1.782121915973789 209 164 141 255
-29.586894676049781 -4.659808684969107 2.489357573187561 209 161 141 255
-30.409784026069332 -4.744662886420997 3.296054965934786 205 153 135 255
-31.273460641651013 -4.914323878363746 4.151249479022169 195 144 125 255
-31.660044562086796 -4.203398236039959 4.450933919657643 184 133 114 255
-32.003582905797600 -3.411818871529363 4.700370526921347 171 120 101 255
-32.004244489746611 -1.972273448619262 4.548977985871943 150 98 79 255
-32.391922929828183 -1.259335023578217 4.849510880791229 119 77 56 255
-3.305242980651229 -23.727846058153773 -22.276927463279833 211 190 162 255
-4.985261712280561 -24.783766483976081 -20.526721563469124 221 183 169 255
-6.028188851129755 -24.938512477402014 -19.494268387848450 226 190 174 255
-6.729125897280653 -24.606062276094178 -18.847475848864605 228 192 175 255
-7.138899688154140 -23.852389936369633 -18.529721041407271 229 192 174 255
-8.126377585103086 -23.949661912177987 -17.557473615920031 229 190 173 255
-9.062828030554044 -23.981328325843833 -16.642004211678028 227 185 171 255
-10.092332956264642 -24.160758294129948 -15.619956651845285 217 175 161 255
-10.545189897090324 -23.487300473814400 -15.251581813121845 212 173 158 255
-12.046292952569445 -24.393915229441575 -13.691739689199636 218 179 164 255
-12.971236117121578 -24.446744528508816 -12.785191849045759 221 182 167 255
-13.940845281046506 -24.576878746561732 -11.826798093324442 217 178 163 255
-14.529078080309404 -24.132801008431301 -11.301816635045043 219 180 165 255
-15.069084259605120 -23.617966479411734 -10.831441482425902 223 179 166 255
-15.561228688908955 -23.031704097705699 -10.415389720922491 221 175 162 255
-16.099742632912637 -22.519613550755707 -9.946171153427599 217 171 158 255
-16.637450441221347 -22.009005421264533 -9.477577454856629 213 167 152 255
-17.174352657796447 -21.499878734430808 -9.009608227199038 211 166 151 255
-17.477604522612410 -20.623206945761609 -8.808869427149631 210 164 149 255
-17.920608646537431 -19.967867398311029 -8.448131680460250 209 163 147 255
-18.594926268209463 -19.684370633717350 -7.821975266777827 207 164 147 255
-18.944277249079363 -18.882367804554349 -7.568279150139773 209 166 149 255
-19.155544676619513 -17.855963251160091 -7.473287691341056 214 171 154 255
-19.137895230311926 -16.453307655534786 -7.641856191074083 215 174 156 255
-19.718291941550319 -16.023640001286225 -7.122948955492319 214 173 155 255
-20.114765500331430 -15.294423922337330 -6.815502058786876 213 172 154 255
-20.739161704274181 -14.943287427385343 -6.245266090509261 211 170 152 255
-20.862019368126710 -13.760575809890724 -6.253250384870455 205 167 148 255
-21.076973721063155 -12.727389924725998 -6.155399761063734 193 155 136 255
-21.021414420103753 -11.235002752874578 -6.370574744221301 188 150 131 255
-21.148666161431777 -10.044209525290739 -6.375151838804669 184 143 123 255
-21.322296368405887 -8.927572094351092 -6.326555580272554 170 129 107 255
-21.721431668324925 -8.193460909617158 -6.017045104439120 156 114 90 255
-22.389008518646392 -7.922362394930502 -5.396116079407278 140 96 68 255
-22.698026716603607 -7.035084958676634 -5.190905857739693 135 90 59 255
-23.140993221257446 -6.379815146580853 -4.830197787235420 160 115 84 255
-23.805596820488574 -6.114185923594931 -4.211575051931447 164 121 89 255
-24.734291711106891 -6.319570707342962 -3.284907284580100 162 122 91 255
-25.130268792894896 -5.591269831212799 -2.977847287599559 152 115 87 255
-25.218010522876227 -4.313690307143361 -3.030273736721796 149 113 87 255
-25.439102339924233 -3.269218832235083 -2.927666364352831 150 114 90 255
-26.405427602764263 -3.564850717237846 -1.954610216254792 160 120 95 255
-27.717858537243444 -4.499566322159524 -0.575492520121998 188 147 122 255
-28.894536395769592 -5.205594424723301 0.646727172122752 202 160 136 255
-29.893130463411296 -5.601334554163600 1.662014190656976 206 161 140 255
-30.541892606313667 -5.364845438889802 2.268349248735859 204 156 136 255
-31.059621590559544 -4.890987817442010 2.721446260872028 198 147 128 255
-31.705757991490970 -4.659329225412989 3.325744145396015 189 136 120 255
-32.135714687613785 -4.027993453461136 3.676358445108008 178 125 109 255
-32.351305541800798 -2.993644406935459 3.774695669084281 161 110 93 255
-32.183559304462761 -1.229233486207249 3.420889810044258 136 88 70 255
-4.097966864871012 -24.007881528682105 -22.778247699864920 213 206 172 255
-5.869534324569742 -25.203897277714304 -20.912956034421597 216 183 166 255
-6.764367329307106 -25.148866359988915 -20.043459702319950 224 188 173 255
-7.222862679443494 -24.464578092914849 -19.670286165002153 227 190 174 255
-7.729114673029670 -23.851539942134963 -19.242526792090104 229 190 173 255
-8.810308934079160 -24.090092596547379 -18.158307077536733 229 190 173 255
-9.792341156524429 -24.192852693004113 -17.186085402992376 225 187 171 255
-10.771373748241871 -24.301129299515821 -16.216189268831243 223 182 168 255
-11.461841663162403 -23.985620191438500 -15.575369798806065 215 176 161 255
-12.388134130145829 -24.031809977226885 -14.663921550567409 216 177 162 255
-13.643130846906189 -24.587046211226294 -13.374718304323380 216 177 162 255
-14.137998192104476 -23.994941584781515 -12.955781869292252 215 176 161 255
-14.867841190198135 -23.766097571173589 -12.266875287259722 220 181 166 255
-15.407957686820623 -23.249855098393624 -11.795297571400624 224 180 167 255
-16.087862600008947 -22.953770548324712 -11.162665977433647 223 179 166 255
-16.439025207687934 -22.148707656488227 -10.907817142064204 221 177 164 255
-17.070087329691830 -21.783368011298506 -10.330611155127343 218 174 161 255
-17.699858099353207 -21.420403119801023 -9.754406206511675 214 171 155 255
-18.328338264235867 -21.059811665503105 -9.179201770713064 211 168 152 255
-18.677978347148979 -20.257546812512061 -8.925531476023480 213 167 152 255
-19.350744633378753 -19.974589809683636 -8.298433508378196 212 169 153 255
-19.699869599219483 -19.173271533548416 -8.045161870659740 215 172 156 255
-19.819689763383963 -17.998259720308056 -8.057460319099988 219 176 160 255
-20.032437287055245 -16.970507394774643 -7.962595213341217 220 178 162 255
-20.702601759418656 -16.692334940772980 -7.337514043090124 220 178 161 255
-21.006991965940387 -15.814205103788765 -7.136481731826933 217 176 158 255
-21.311794878268415 -14.935315917299761 -6.935129128451251 211 171 153 255
-21.571722629977330 -13.979874602153416 -6.786125837066407 207 169 150 255
-22.238813712328835 -13.707355113538426 -6.163428139350856 197 159 140 255
-22.318779740162938 -12.446553854962332 -6.224180129691490 191 153 134 255
-22.355447329224262 -11.106300251612566 -6.336058551262767 189 147 131 255
-22.214767728491523 -9.455877415495053 -6.655664346670761 176 133 116 255
-22.434391696302100 -8.415475335228564 -6.555464820108710 162 120 98 255
-22.877728733836108 -7.759052696901023 -6.194032525484431 153 109 83 255
-23.187435872593426 -6.871142946489954 -5.988876513928574 133 89 60 255
-23.763484381349855 -6.447897902734013 -5.471881302054669 148 103 72 255
-24.426901427383882 -6.182138651649979 -4.852035195725648 156 113 81 255
-25.309197516180348 -6.309251328014568 -3.974706253703886 157 117 86 255
-25.661286720746602 -5.502481580882090 -3.719136468674520 151 112 85 255
-26.232742118867293 -5.087687769484205 -3.205706087785842 150 110 85 255
-26.759458919677485 -4.596091433479501 -2.744519842304896 157 113 92 255
-27.677747411301937 -4.816098678791775 -1.821734187909470 176 133 109 255
-28.810451145901538 -5.437189319744107 -0.644928466591438 193 150 126 255
-29.938995243630529 -6.065932491004901 0.528649891045177 202 156 134 255
-30.933686044079678 -6.463600092929710 1.545778122446990 202 153 133 255
-31.364501110838063 -5.830219673325615 1.897489902281819 197 149 129 255
-31.666058432819227 -4.957310325929370 2.096316088068619 189 139 120 255
-32.053795187979887 -4.244074820313074 2.397070161788093 188 132 118 255
-32.398741963065504 -3.450452829490530 2.647091121891151 172 119 104 255
-32.658634919385065 -2.495088890500369 2.796055029772560 154 103 86 255
-32.664171201579848 -1.053016226574414 2.642474337098122 131 86 68 255
-6.172800162761121 -24.784322813065160 -21.961031537818826 207 187 159 255
-7.066541163518593 -24.727512820648343 -21.088871124813352 220 181 167 255
-7.813728014318826 -24.464096139225518 -20.384037539334741 224 182 169 255
-8.319673763879678 -23.850788445472347 -19.955743674461132 225 182 168 255
-9.350517232440808 -24.017964294312662 -18.923581230366779 223 186 170 255
-10.330468982831604 -24.120023574167249 -17.948776238415007 224 188 169 255
-11.212368291756007 -24.084987958915065 -17.085793395559676 221 184 166 255
-11.854731036274245 -23.696925851005176 -16.498028111253518 218 181 165 255
-12.495797495095530 -23.311246721631903 -15.911266904009125 215 177 164 255
-13.277053242877884 -23.143879691876577 -15.162113418101598 214 176 163 255
-14.056284536236291 -22.980235453676585 -14.414529156922441 212 174 161 255
-14.739654614930458 -22.675465543434143 -13.777067338636044 218 180 169 255
-15.702271222063303 -22.809404530910030 -12.815701197753839 221 181 169 255
-16.568542445509337 -22.803108780580203 -11.964833343291133 221 181 169 255
-17.059871231153153 -22.216673130114970 -11.547862870332750 221 182 167 255
-17.875667670559238 -22.144493447899549 -10.754028677873066 221 181 166 255
-18.642890136153881 -22.002934233303506 -10.015754597092183 217 178 163 255
-19.223332616823143 -21.570032989696159 -9.493892516716301 214 174 159 255
-19.526313812505094 -20.695135988828696 -9.294547288186379 218 172 157 255
-20.105390764686177 -20.264745153122561 -8.773743048229250 220 174 159 255
-20.545942705833937 -19.612977824248560 -8.414037400363242 222 176 161 255
-20.894766950434530 -18.812481091475178 -8.161247789518114 223 177 162 255
-21.243759580582093 -18.011673962873999 -7.908326962185100 225 179 164 255
-21.956623780380738 -17.811372591831770 -7.230097133553016 222 180 164 255
-22.168960768661634 -16.785749619018844 -7.136824265706565 220 181 164 255
-22.336974790055621 -15.682927096675428 -7.095813817274546 214 172 156 255
-22.596327887937122 -14.729548007704977 -6.948188000879611 210 168 152 255
-23.216163424737431 -14.382910255057993 -6.377883245897266 206 164 148 255
-23.610432992969152 -13.657545534301448 -6.071957879407393 194 155 138 255
-23.512537434152250 -12.091475382767783 -6.344501522152996 188 149 134 255
-23.551082896051952 -10.750615119258612 -6.457562985994372 179 138 121 255
-23.591498527437466 -9.406314408688132 -6.569173545130667 167 125 104 255
-23.722530998419131 -8.212786451382954 -6.574729670677073 155 114 88 255
-24.031959132306866 -7.326025060476638 -6.370378813445313 140 97 67 255
-24.738987412137362 -7.136460897469647 -5.696677679346863 162 119 87 255
-25.532280739690577 -7.105676057969617 -4.920299055354320 170 126 98 255
-25.972223701771213 -6.455029098386490 -4.561065921898290 176 132 105 255
-26.368097850628345 -5.726716160547539 -4.253899073335674 169 125 101 255
-26.851209436238435 -5.155393874894912 -3.843300507092039 162 117 96 255
-27.769046426913889 -5.371710576592648 -2.916674245180815 157 112 92 255
-28.336683752167659 -4.962369018212826 -2.404749140912315 166 119 101 255
-29.379434299678024 -5.425105556714357 -1.327587130660845 196 149 131 255
-30.548001096530555 -6.132600159344861 -0.099187993967064 198 151 131 255
-31.496954346409808 -6.450418161473692 0.869449073788246 198 150 130 255
-31.927652516898661 -5.816788629474445 1.221500418251793 193 145 123 255
-32.272461508971730 -5.023690525986581 1.471163821781261 189 139 119 255
-32.660150100998408 -4.310448791783756 1.771968434300902 183 130 114 255
-32.834998025246591 -3.195070537510446 1.818265688792138 164 111 95 255
-32.798818515819875 -1.674220026672401 1.611462346746123 150 99 82 255
-7.563112568349453 -24.587169636544985 -21.915373731593633 208 177 154 255
-8.213642027883566 -24.182152619948624 -21.319482592798238 213 176 157 255
-9.005978177529528 -23.991362593490976 -20.558915763546707 212 175 157 255
-10.176926854510498 -24.371000962854822 -19.358860607647443 214 179 160 255
-11.011692957826000 -24.260518478558197 -18.547152861983193 218 181 165 255
-11.607504645429117 -23.797785221662821 -18.011922808581801 221 182 167 255
-12.249477844625716 -23.408496903555744 -17.422658822482873 219 182 166 255
-12.560498063143228 -22.519465923891602 -17.217683925303845 215 177 164 255
-13.106784624571844 -21.989466439021356 -16.739088869367492 213 175 162 255
-14.261321304866186 -22.399286669086990 -15.551756758324956 212 174 161 255
-15.224973150092524 -22.526793577571738 -14.585390584286358 212 174 163 255
-16.139022400195671 -22.587182363129671 -13.675724690658456 218 180 167 255
-16.724915736145675 -22.142682575941848 -13.148177600110131 219 181 168 255
-17.448854026040379 -21.919332588364909 -12.458875594462711 221 183 170 255
-18.217258199528430 -21.772548444914207 -11.716856588153348 221 184 168 255
-18.891398082835906 -21.482439447386554 -11.084405746907635 220 183 167 255
-19.287998530026414 -20.752692860603162 -10.776585030755115 220 181 166 255
-19.730401839641218 -20.097052444000269 -10.415009966050718 223 180 166 255
-20.584312264388842 -20.109700769437069 -9.570213641998777 223 181 166 255
-21.390084718341910 -20.052537100796428 -8.780981800704893 223 181 166 255
-21.738440513531543 -19.253171256103656 -8.528805069890211 225 182 167 255
-22.223148964592781 -18.678070029824823 -8.116187809079264 225 182 167 255
-22.888393639662326 -18.404320592351382 -7.490633864606394 223 181 165 255
-23.326349771055590 -17.756857514325134 -7.132505381028892 223 180 164 255
-23.538835646834173 -16.732335229959745 -7.040391182962423 217 174 158 255
-23.617489260805996 -15.478909513502373 -7.106760131541023 216 172 156 255
-24.235237065398849 -15.134167849599294 -6.536272520251316 209 167 151 255
-24.583697099702022 -14.334606754503227 -6.284011686477697 201 161 143 255
-24.575955775311627 -12.923377683740227 -6.453842075700038 191 151 136 255
-24.392622484842519 -11.201698663653190 -6.832771019262623 181 139 122 255
-24.433893954077746 -9.858671158474294 -6.946357237812208 170 128 107 255
-24.609587887540926 -8.743461131160018 -6.901002244509698 157 114 89 255
-25.094867980715378 -8.167306826278093 -6.487940141782246 144 100 71 255
-25.799311250347330 -7.979817072078362 -5.813759250978052 169 125 96 255
-26.721105113920686 -8.184327185306500 -4.879866550118663 192 146 120 255
-27.115535559261559 -7.458569033460378 -4.573726018648216 200 154 130 255
-27.640645330085732 -6.967516475251216 -4.111550176618067 192 145 123 255
-28.164972957710575 -6.477904267824783 -3.649982509492418 182 135 115 255
-28.861870027864427 -6.304304951226356 -2.981663590459391 180 133 115 255
-29.340938460866198 -5.739587644663686 -2.573429623437562 167 119 102 255
-30.164238040881145 -5.808565283714529 -1.752396692503197 187 139 122 255
-30.942096151237706 -5.802772124733849 -0.984837927651569 197 148 131 255
-31.717731563931267 -5.801070582164243 -0.219006013762993 198 150 130 255
-32.320212903367747 -5.484435199586642 0.339617803538630 195 145 126 255
-32.750991666179800 -4.850195375891303 0.692159953201553 188 137 118 255
-33.181486486013029 -4.216480280750716 1.044479614804999 177 126 107 255
-33.315101592909656 -3.020332545985298 1.038951470405408 160 110 91 255
-33.238875214824247 -1.418371698324506 0.779536408004901 130 89 67 255
-6.341585099691571 -21.921780605993973 -24.745065763079680 174 177 132 255
-7.948539082236834 -22.915306090066053 -23.034131426617307 202 180 147 255
-9.454303325726556 -23.778987103445246 -21.438824082271992 210 173 149 255
-10.480484870577328 -23.944944309711133 -20.401198991900571 213 175 156 255
-11.361615818926168 -23.903745532726759 -19.531789035922714 213 176 158 255
-12.004496453814568 -23.510847521018746 -18.940022449242548 216 177 162 255
-12.740131508924719 -23.263309018731093 -18.239170379599443 215 178 162 255
-13.333270708721983 -22.803913826122198 -17.704550612648376 213 175 162 255
-13.785008126634693 -22.130648780347457 -17.335313927008798 212 174 161 255
-14.749696118026662 -22.251721789430462 -16.363946876386080 215 177 164 255
-15.711388350577352 -22.378304868386806 -15.394902995123573 214 176 165 255
-16.484412075191102 -22.219974021922440 -14.646474377301274 214 176 165 255
-16.931334066596264 -21.555559611489798 -14.280966119074719 216 178 165 255
-17.885866363068487 -21.695311181708348 -13.317474011567640 220 182 169 255
-18.422918201347159 -21.181084999809400 -12.844916857763707 221 183 170 255
-18.867297711605772 -20.521342821521642 -12.481376431410638 222 185 169 255
-19.173921695456357 -19.641022044894157 -12.280389405089892 223 186 170 255
-19.937857560636445 -19.499402422362380 -11.539004600377808 225 186 171 255
-21.018760488417769 -19.880672370529453 -10.421787599758346 224 185 170 255
-22.186846105207906 -20.417557227005773 -9.199812746371634 223 184 169 255
-22.716161595452547 -19.917558016104095 -8.733252781507815 224 185 170 255
-23.063853886719329 -19.119681330480660 -8.481839737780547 227 188 173 255
-23.546968319003241 -18.546674443137306 -8.069682270886688 227 185 170 255
-24.029525699223996 -17.974691877229020 -7.657956550080343 206 163 146 255
-24.242474531326877 -16.950693044508967 -7.566757861509814 165 119 103 255
-24.590484406769349 -16.152228995212738 -7.315095537704963 151 105 89 255
-25.027866378293595 -15.505351870414245 -6.956976552677617 197 151 135 255
-25.598373841942220 -15.087571802528828 -6.439896995480638 204 161 144 255
-25.679909362253653 -13.831323807911645 -6.506328410995309 194 152 136 255
-25.541888508446277 -12.188978795210971 -6.835893139166188 181 138 122 255
-25.362590070506883 -10.464567926983591 -7.216039979123764 171 128 108 255
-25.538330721450905 -9.351013977308867 -7.172263513389822 158 113 90 255
-26.153955666519323 -9.008235121393170 -6.601622242329825 155 109 83 255
-26.987073200248233 -9.055352163159426 -5.769450857173155 176 129 104 255
-27.861343181504253 -9.184766605971646 -4.886795683893382 197 149 126 255
-28.341293919548434 -8.617583753653946 -4.477096329833984 204 156 134 255
-28.820703186827132 -8.051398657905025 -4.067818579508128 204 156 135 255
-29.299572581677410 -7.486208544999272 -3.658961347376362 201 152 135 255
-29.864200742203394 -7.079256851839034 -3.146454669499576 197 148 132 255
-30.298726057852264 -6.437647232966469 -2.790563297629603 191 140 123 255
-30.861678796411582 -6.033782544461360 -2.279360907935455 189 138 121 255
-31.252471184818859 -5.314629422469409 -1.975961538654303 193 142 125 255
-32.027202949512002 -5.311178697816047 -1.207668320244920 196 145 128 255
-32.927348135437512 -5.551019886201800 -0.286404514005795 192 141 123 255
-33.527584879348893 -5.236580059044911 0.272270364595215 180 129 111 255
-34.041966129992289 -4.764084293580936 0.727216549143179 171 120 101 255
-34.007213701400872 -3.247781788168254 0.514871020744238 147 99 81 255
-33.554222421944360 -0.920875175258743 -0.207538034770607 102 72 50 255
-8.957650486428179 -22.155392007175351 -23.432663493392880 200 178 141 255
-10.220242241501751 -22.669684262292009 -22.112566308981940 208 173 148 255
-11.384214991743278 -23.050141124914944 -20.906786087244683 211 176 157 255
-12.309425676223157 -23.081688037303678 -19.980759122418732 212 176 160 255
-13.091371175801669 -22.903902099884704 -19.222588888782525 213 176 160 255
-13.871290471962766 -22.729841347262493 -18.465988472696012 214 176 163 255
-14.416217393975131 -22.199933402167517 -17.986214553852278 214 176 163 255
-15.425053207612507 -22.392891107924640 -16.957495677262699 218 180 167 255
-15.828094325714858 -21.651108869047164 -16.644504755410480 219 181 170 255
-16.693345439983659 -21.635319409417264 -15.783888539392478 217 179 168 255
-17.048903963913034 -20.823253274658498 -15.526633808908713 214 176 165 255
-17.956461201107516 -20.887262789755596 -14.614290163995463 216 178 166 255
-18.127429834625843 -19.784251447566362 -14.575850850769598 219 181 168 255
-18.802713129444669 -19.487409256114660 -13.938221398708066 223 185 172 255
-19.339595346987664 -18.972283911185968 -13.464673109207894 225 187 173 255
-20.421685464871132 -19.345733437833104 -12.341310378939426 226 189 173 255
-21.363921500760569 -19.503574471841489 -11.383157601668614 226 189 173 255
-22.710499842935207 -20.336245928694780 -9.941188068379688 226 189 173 255
-23.194301068740828 -19.761139548105973 -9.527722809842203 227 190 174 255
-23.722559746153422 -19.261877225435455 -9.060863651691136 228 191 175 255
-24.115332802850020 -18.538966951637860 -8.755822510352175 229 189 172 255
-24.731903352601535 -18.192503204308139 -8.182644410021283 178 132 116 255
-24.900662311791876 -17.093542263567997 -8.145905847958517 146 100 84 255
-25.070561480282635 -15.992482106360370 -8.108281177812813 113 67 51 255
-25.596887385849044 -15.496773062779596 -7.642919328624203 131 85 69 255
-26.166707805574674 -15.078681534585570 -7.124912489851283 177 134 117 255
-26.337974154357369 -13.975104314745465 -7.086225345932178 191 148 132 255
-26.025859448676442 -12.026826764422168 -7.630468477773178 179 136 117 255
-25.981110679732637 -10.532478769753396 -7.853873712406482 172 127 108 255
-26.157745061695522 -9.419022532414061 -7.811018499123293 159 112 91 255
-26.990797053909006 -9.462471400491154 -6.975385972063236 159 112 89 255
-27.864932011316426 -9.587977501501854 -6.088982452033065 177 129 106 255
-28.649460251454173 -9.563067176487266 -5.309902521714776 197 146 125 255
-29.345109101536195 -9.386401952713356 -4.637581493678766 206 155 134 255
-29.693398437841267 -8.587698198795835 -4.385956719687584 207 156 139 255
-30.171114520167521 -8.023794513198311 -3.977219999555473 207 156 139 255
-30.476454661314193 -7.146473050042488 -3.777819928908173 199 147 133 255
-31.124934907941395 -6.898959719268476 -3.161003933554184 192 141 124 255
-31.558324779105817 -6.258975518524721 -2.805563909659440 186 135 118 255
-31.778438065284803 -5.223182376006832 -2.710091448131493 184 133 116 255
-32.296804373450357 -4.742143248315415 -2.250929877974073 184 133 116 255
-33.280311834219845 -5.139378340258361 -1.223006382381783 183 132 115 255
-34.091455155705376 -5.223175115972481 -0.404411467157360 176 125 108 255
-34.521114992033091 -4.590070946925437 -0.051882030416095 162 112 95 255
-34.362586089254336 -2.832160211169594 -0.420280300635511 129 86 70 255
-10.942797480579173 -21.487145773337375 -22.843118328122074 207 172 150 255
-12.523426886348631 -22.510431579580484 -21.135303049019626 211 176 157 255
-13.351546697949118 -22.401909531407739 -20.319235143871822 214 177 161 255
-14.223922471724563 -22.369230055192958 -19.449584687473674 216 178 165 255
-14.768959018134609 -21.837915089644639 -18.968608417209680 217 179 166 255
-15.729727549176573 -21.957140802198637 -17.991886069765798 218 180 167 255
-16.410533942657992 -21.647833677258177 -17.347835651423736 221 183 172 255
-17.181881919899098 -21.486481294535139 -16.595048689378586 220 184 172 255
-17.400187555113632 -20.455400043335999 -16.502263809346772 213 177 165 255
-17.573586902586442 -19.349665208754374 -16.463559172345441 213 177 165 255
-17.656768375312311 -18.095372802437453 -16.533333155584899 215 179 165 255
-18.607101179528513 -18.233786960303121 -15.564698114419912 221 185 171 255
-19.827042672880282 -18.819785133907601 -14.271427683926589 224 188 174 255
-21.042540774495819 -19.413959999163922 -12.981606754237617 226 188 175 255
-21.801691357572537 -19.275039387954251 -12.238276128666229 228 190 177 255
-23.189797854888354 -20.180727099806290 -10.737568822839904 227 189 176 255
-23.808377315869876 -19.828624492950723 -10.161030946331266 229 191 178 255
-24.111881569059165 -18.955314464646307 -9.963642922143805 230 192 179 255
-24.326385151396067 -17.931207986960743 -9.873789513349806 233 193 176 255
-25.076802684294648 -17.808354823422832 -9.137235727822912 193 150 131 255
-25.425037491670537 -17.010014972858556 -8.885897593236933 146 101 82 255
-25.906471610983886 -16.438422299662562 -8.473489270506690 122 77 58 255
-26.387351714876189 -15.867848930738745 -8.061510865595267 138 93 74 255
-26.867678938608492 -15.298293001895388 -7.649961705652174 177 134 115 255
-26.995617950361236 -14.118903334521917 -7.665748146944395 184 138 122 255
-26.730215045823741 -12.247754023124628 -8.159883058242343 177 132 114 255
-26.555850831680857 -10.523648575679658 -8.544899119990362 167 120 102 255
-26.864349980791303 -9.641139957310060 -8.343626938466258 159 111 91 255
-27.521235227074840 -9.375832921598999 -7.718129037477070 160 112 92 255
-28.523606023746737 -9.733066989344167 -6.670658990199968 180 129 108 255
-29.392769337472544 -9.863569479832279 -5.784265997097492 194 143 122 255
-30.086682113864896 -9.687419767328890 -5.110809231187488 201 150 131 255
-30.520772190238205 -9.045671108506156 -4.754384442965460 200 149 133 255
-30.782999268973015 -8.091035014374427 -4.608264661575902 199 147 133 255
-31.216979382627386 -7.449493083799211 -4.251929295933053 192 140 127 255
-31.608015535356230 -6.729691198138767 -3.948155119852373 186 133 118 255
-32.041529788969598 -6.089012087564470 -3.592186554433681 181 126 110 255
-32.220304073376980 -4.973379146686057 -3.549302570341240 175 122 106 255
-32.949975531453731 -4.888735931489691 -2.828885183004900 174 121 106 255
-33.677669552644034 -4.807736142508588 -2.110007152881366 171 118 104 255
-34.529526323800326 -4.970122142539140 -1.237083117941694 160 109 94 255
-34.498255191121018 -3.454586993456246 -1.453375637767437 135 92 76 255
-34.176726831419188 -1.372166350395560 -2.029543642389257 91 62 46 255
-10.463349283137603 -19.854186921405017 -24.844268821588742 203 175 151 255
-12.554476568237249 -21.654799662105631 -22.516275014459325 210 173 157 255
-13.382420070802141 -21.543180018735654 -21.697171914019037 211 176 158 255
-14.347101759602509 -21.650680617151124 -20.713218019489830 213 179 163 255
-15.077713085066733 -21.404331537390476 -20.008799186302809 214 181 165 255
-16.129193776196360 -21.665932008251531 -18.918326454723967 218 181 166 255
-16.855391272877910 -21.427699090858113 -18.217328491810918 218 181 169 255
-17.625658398266637 -21.265283120913665 -17.462551037413107 220 181 169 255
-17.616510504063172 -19.869555560290280 -17.645443261630845 218 179 166 255
-17.609466201484054 -18.469951470921103 -17.826697307998927 216 176 164 255
-17.604525239228451 -17.066471522876441 -18.006313564069728 215 177 163 255
-18.826543687068124 -17.641901798104726 -16.705177613108333 217 180 164 255
-20.134604736951246 -18.372831580873395 -15.298117185209264 220 182 167 255
-21.753595571253015 -19.630011633213627 -13.512728426822292 223 186 170 255
-22.240929820115412 -19.046730038152305 -13.094968895179250 226 189 173 255
-23.356025111338397 -19.505087796585940 -11.915970015323126 225 188 172 255
-24.019577614908883 -19.225198186904294 -11.283151632472624 227 190 174 255
-24.503050506300895 -18.649019051786297 -10.868386810763582 227 190 174 255
-24.807898408508521 -17.773872636150827 -10.670545395647395 228 191 173 255
-25.734696767125854 -17.951064073516307 -9.715980992552801 225 183 163 255
-26.348595543772035 -17.605627588527227 -9.141271838293449 192 149 130 255
-26.696292073385649 -16.808547122761524 -8.890600792232647 168 123 104 255
-27.044161035674534 -16.011148590080865 -8.639795180547821 163 118 99 255
-27.260469018379695 -14.985092671539519 -8.549811830570462 185 142 123 255
-27.433886876749625 -13.881043733545226 -8.512687145308206 182 136 120 255
-27.128083418299781 -11.932751671838446 -9.062782810413523 176 129 111 255
-27.305118916341200 -10.822043090973409 -9.022847362454598 160 113 95 255
-27.526726788695953 -9.786231037649429 -8.928746513648235 157 108 91 255
-28.268919106730408 -9.675467434151415 -8.195754260734105 159 110 91 255
-29.009115090110498 -9.568380403730572 -7.464314526095762 178 127 108 255
-29.876511420095511 -9.697980014785259 -6.575442284359639 189 138 119 255
-30.354693196219017 -9.131542761569648 -6.164789905073121 193 142 124 255
-30.917980891206895 -8.722334854832297 -5.648945928565979 192 140 125 255
-31.224031759997075 -7.844980443388835 -5.450175901752516 189 137 124 255
-31.743420004479901 -7.359642732667282 -4.987979585464245 182 130 117 255
-31.922344394339689 -6.245472716762180 -4.946591179391561 180 126 111 255
-32.356466316115728 -5.603209065823421 -4.589718616402507 173 117 102 255
-32.536981883354315 -4.486116307631733 -4.547099884555109 167 111 98 255
-33.265939245789895 -4.399743267063172 -3.824415314775678 159 106 92 255
-33.992919660466953 -4.317013747312274 -3.103270644520649 155 103 90 255
-34.634211109410671 -4.078134568931375 -2.487776478777903 141 92 78 255
-34.522757171298366 -2.399898920556438 -2.808764879216824 104 71 54 255
-12.126508490702349 -20.087957192389496 -24.461541725207638 202 175 148 255
-13.371902499331497 -20.613644565146927 -23.136022844344808 210 174 156 255
-14.889719299389640 -21.577300392391635 -21.479570966931192 214 178 163 255
-15.343045559772975 -20.899245228485540 -21.107370815809418 214 181 165 255
-16.484602184095252 -21.302913692698695 -19.902272002745065 216 179 163 255
-17.393280316424409 -21.352386501519874 -18.977495330470134 215 177 163 255
-17.842597011090220 -20.681698113391718 -18.608397145563345 214 175 160 255
-18.109431364474091 -19.720618544951179 -18.460586795147407 216 174 160 255
-18.286076232093421 -18.612404946562634 -18.422601007337761 215 173 159 255
-18.735635763244574 -17.941256295638084 -18.053301884692132 213 171 155 255
-19.817333329279904 -18.298517008394583 -16.914568028738046 212 170 154 255
-21.210695701128373 -19.178090008634342 -15.394538683379835 214 172 156 255
-21.565180012200386 -18.368796856955186 -15.138855951271864 218 175 159 255
-22.054265549551872 -17.781452793106951 -14.718958436191457 221 179 163 255
-23.481299052178571 -18.755615519061166 -13.152886204210972 223 181 165 255
-24.367846254817749 -18.845799942112421 -12.245277704219575 225 186 169 255
-24.984961957486178 -18.492499830444046 -11.666269307892350 224 185 168 255
-25.556465317062873 -18.066586102012650 -11.142575864964670 222 184 165 255
-26.524785427205586 -18.319391964042779 -10.131676118505652 223 182 162 255
-27.225373732473088 -18.125584550373418 -9.448056060563090 217 176 156 255
-27.528517594967525 -17.254210763953665 -9.252127876585632 207 162 143 255
-27.744389367009830 -16.230334862495454 -9.163759864135159 204 156 139 255
-27.786271212643413 -14.900435165276349 -9.290082256810962 191 142 125 255
-27.830021199216304 -13.567095542708358 -9.414952342953313 178 132 116 255
-27.962600839167578 -12.383389578406366 -9.431051008979750 166 120 104 255
-28.139925748014718 -11.273892389930239 -9.392507457442122 155 109 93 255
-28.491349831274363 -10.470218215042422 -9.139188925638990 152 105 89 255
-29.058541060529848 -10.052241878001524 -8.618845164271733 161 112 97 255
-29.624703539323946 -9.636161161447518 -8.099302382440044 176 126 111 255
-30.361342729038654 -9.532574388478281 -7.367801362177204 181 130 115 255
-30.497418131994777 -8.342439113996079 -7.381189494883301 183 132 117 255
-31.231766471718544 -8.243074750645718 -6.651473220595079 181 131 115 255
-31.581504920901466 -7.442515406156133 -6.399475278490058 181 129 115 255
-32.312965436350225 -7.348473854325164 -5.672008913593004 175 123 110 255
-32.323818580087675 -5.919128258981573 -5.842328753405809 169 116 101 255
-32.589702058551779 -4.959785371130693 -5.695244434092018 162 108 94 255
-32.940322166237905 -4.157616304245096 -5.442573812002223 154 98 84 255
-33.752143617877721 -4.228816290151030 -4.612932553065491 147 95 82 255
-34.603294793917570 -4.384200478859384 -3.732862353615673 129 83 70 255
-35.076732996492012 -3.825692910919429 -3.325151508056223 104 65 52 255
-34.469409867011308 -1.185656631345523 -4.273935347084006 22 8 3 255
-13.873503113382725 -20.469970450839298 -23.964112230819154 209 176 155 255
-13.916457527650067 -19.141018333502871 -24.092309883671760 215 175 161 255
-15.748865335585350 -20.610042399280076 -22.041575937474420 214 176 162 255
-16.842233076233754 -20.940202779806327 -20.888568185096887 214 177 160 255
-17.977469894434364 -21.349492611477615 -19.682806175433655 213 175 160 255
-18.290252079319174 -20.461053161666570 -19.480017257084967 212 170 156 255
-18.285986049856831 -19.062790861866347 -19.665097343379728 211 169 155 255
-19.369318699052059 -19.411408895428394 -18.519871857519092 210 168 153 255
-20.178285894422601 -19.327841716265425 -17.709134554861464 209 167 151 255
-20.895017664662930 -19.101646931762446 -17.010497461335262 205 163 147 255
-21.206185741790677 -18.216156966498289 -16.808942344952925 204 161 145 255
-20.846599369910564 -16.222296396974798 -17.431828375412408 202 156 140 255
-21.249644119678834 -15.480083340236405 -17.118441481127093 203 157 141 255
-22.587147356537514 -16.298047796872538 -15.654404400020042 212 169 152 255
-24.407672550461655 -17.945136418000772 -13.592664907455458 217 174 157 255
-25.689257375999858 -18.709832435012174 -12.192295880152841 221 178 161 255
-26.524540771350132 -18.734016313721440 -11.340879590759698 218 176 157 255
-27.181260834670326 -18.462073175184628 -10.709076805550325 214 173 153 255
-27.309701454299613 -17.288105925530687 -10.730355792002371 212 170 151 255
