ply
format ascii 1.0
element vertex 646
property float x
property float y
property float z
property uchar red
property uchar green
property uchar blue
property uchar alpha
end_header
-43.668099274082323 -13.469983060962093 -20.194684291736962 171 125 110 255
-41.370182623358716 -13.539998859089792 -21.651183190682332 155 109 93 255
-37.437243960871854 -14.233148200298785 -24.136956112746560 149 104 85 255
-33.159391856509444 -15.080332040614067 -26.839612039355018 175 128 108 255
-30.601675712187273 -15.303104984906440 -28.459117957861650 184 137 117 255
-29.764605584553919 -14.885245520585585 -28.995354076786725 169 123 100 255
-28.927392282994646 -14.472745577762041 -29.531661232226469 152 106 82 255
-28.864698339781086 -13.765169501033810 -29.580465568004087 137 91 66 255
-28.371605693524884 -13.226331962290743 -29.900191174999094 125 81 54 255
-28.308893353367353 -12.521063910722106 -29.949079791486525 118 76 46 255
-28.504492067772901 -11.713687428130214 -29.835464639015981 114 77 44 255
-28.786264341647325 -10.870687055954022 -29.667694599458969 110 75 42 255
-28.895887855542526 -10.095443372918226 -29.608318500032738 102 71 37 255
-28.919437034979040 -9.354568238532423 -29.603162177080719 98 67 36 255
-29.287554883062114 -8.472495312850043 -29.381290689435502 96 66 36 255
-30.172630223812206 -7.374880972398529 -28.834302348108594 91 63 33 255
-31.144065501898837 -6.235922446944542 -28.233124960593443 87 60 32 255
-32.718844927206732 -4.838283081750248 -27.252591516691325 83 57 31 255
-34.207806760394732 -3.467121604971240 -26.326230295240492 76 50 26 255
-34.921512180752103 -2.416258496185037 -25.887627671851476 55 30 8 255
-35.204470302476636 -1.545401768816546 -25.720036606094766 54 29 10 255
-35.228940346790438 -0.784266433348421 -25.715082915736048 68 42 20 255
-46.736980840174510 -16.096039177554218 -17.268923700315753 182 142 126 255
-45.818040856115147 -15.631535983463962 -17.860838088108835 124 82 70 255
-45.242207097144842 -15.050251310203450 -18.235355404283126 55 12 1 255
-43.550532333044487 -14.875151510368681 -19.316724192569410 166 122 108 255
-43.146064292748974 -14.242496401608619 -19.582636203225093 178 132 117 255
-42.655690737479432 -13.644028197701473 -19.902969082974579 167 121 105 255
-41.564275908853773 -13.271138496555736 -20.603979877364281 151 106 87 255
-39.184759613105030 -13.385773998832363 -22.120727853904242 137 92 72 255
-35.001547062300659 -14.193919694052028 -24.779577620024924 122 75 57 255
-31.418668027032226 -14.800490009675030 -27.057985032345329 188 141 121 255
-29.724588667013307 -14.707122251203060 -28.140162572590754 179 132 110 255
-28.717349999700332 -14.359593978724064 -28.787369771128482 163 117 94 255
-28.568962975998488 -13.684640181271675 -28.890786016514767 148 102 78 255
-28.248746972909657 -13.078022286565741 -29.103019963742724 133 89 61 255
-28.186251556424025 -12.371721920636418 -29.152129896344007 126 83 53 255
-28.209697437949586 -11.631693471100178 -29.146884663774500 123 82 50 255
-28.147236913816357 -10.926053985950972 -29.196068572255115 117 79 43 255
-28.256682372931891 -10.151393667581758 -29.136498561727649 109 75 40 255
-28.280223272114682 -9.411108016747235 -29.131359319485085 105 70 38 255
-28.647649543450200 -8.529606139982093 -28.908656015021052 101 69 38 255
-28.929207711392422 -7.681381685602460 -28.740377803104792 97 66 36 255
-29.382813641062569 -6.759777905854989 -28.463319360581579 92 65 35 255
-30.180498080232894 -5.690981276500779 -27.968659190004047 87 60 33 255
-31.322366194404879 -4.471734965496992 -27.256376666248201 81 55 29 255
-32.894529723435255 -3.062148534650504 -26.272042171239576 76 52 28 255
-34.036971471625833 -1.827179632803691 -25.559741916609454 49 24 3 255
-34.405468110673496 -0.919574779142650 -25.337155635689584 44 19 1 255
-46.317787195785854 -16.050611132411873 -16.587100566243947 175 138 118 255
-45.486395322929042 -15.555508170429292 -17.126799193231903 138 93 78 255
-44.911795740506562 -14.973752285323584 -17.502826382336480 142 98 82 255
-42.880950607642092 -14.922084695383049 -18.806785703194436 181 137 121 255
-42.049018951527955 -14.446176386201230 -19.346705208430450 173 127 111 255
-41.216939640327212 -13.975663790872474 -19.886691868247169 168 123 103 255
-40.813119159970540 -13.351693053950640 -20.153810601470269 153 108 87 255
-39.466650931938602 -13.082841761834729 -21.021457822007335 131 86 65 255
-37.177255111024635 -13.178021459065889 -22.489699789079793 124 77 59 255
-33.173291165349667 -13.939366944843044 -25.049939831195559 135 88 68 255
-30.025704004810564 -14.397571998574449 -27.064444411298382 188 142 120 255
-28.763433866093692 -14.147074226624014 -27.877990020613993 173 127 104 255
-28.443989217155632 -13.537331969208950 -28.091036299873167 158 112 88 255
-28.295985253400460 -12.862372010228341 -28.194927676531250 146 101 72 255
-28.233724713817622 -12.154497644185270 -28.244256067957309 133 89 59 255
-28.171476184799303 -11.447093221501703 -28.293621175362460 128 88 53 255
-27.937707465124646 -10.809096901091223 -28.452236983280301 125 87 51 255
-27.703918116853117 -10.172638332647736 -28.610898554555860 118 82 46 255
-27.470108946738549 -9.537710597201212 -28.769606569351822 114 78 44 255
-27.579450149804984 -8.763171111945027 -28.709912773976100 108 75 44 255
-28.032046086507393 -7.845766383017022 -28.431795699080055 102 71 40 255
-28.313143727509441 -6.997191787497272 -28.262929675633785 98 68 39 255
-28.680147094823411 -6.110775791835152 -28.039473443771016 91 64 37 255
-29.304737140223324 -5.112965535700368 -27.652183470002058 84 58 33 255
-30.702006839790329 -3.781493985679205 -26.773316712199630 78 56 32 255
-32.786347920834061 -2.145948847325940 -25.457449503616687 70 48 25 255
-33.583351522404399 -1.054926785772963 -24.960912881833167 41 19 1 255
-45.812761040194857 -16.035364807906475 -15.959603029785796 151 112 89 255
-44.726695916872103 -15.631615706885299 -16.665821209593389 157 113 94 255
-44.238765612056739 -15.020044810491953 -16.988578333824137 190 145 126 255
-41.613627821256927 -15.185822290243351 -18.681213837932688 184 137 119 255
-40.954335526931686 -14.649962379090439 -19.113710517490574 178 129 112 255
-40.038422712235842 -14.212931594702326 -19.710656905352749 169 120 103 255
-39.977449879107525 -13.464085129423793 -19.759681998618333 157 108 91 255
-39.146811969760876 -13.004163421352359 -20.301949100907763 134 87 69 255
-38.316027504741015 -12.549620262669009 -20.844283925678070 130 84 63 255
-35.688840855951383 -12.784741565282403 -22.537594764185144 114 67 47 255
-31.606893597049748 -13.595124346038133 -25.162777143811581 156 109 89 255
-28.978554953902233 -13.868268256799055 -26.856422830254161 179 132 112 255
-28.232068357877694 -13.423404428484218 -27.344377319946403 165 118 98 255
-28.084445787685098 -12.747684568483891 -27.448706779394939 155 109 84 255
-27.765659049153129 -12.140856434460602 -27.662704835541035 142 97 70 255
-27.532419445329481 -11.501914162087260 -27.821933430523046 137 92 61 255
-27.213561683675152 -10.898994914568661 -28.036024747256732 133 90 58 255
-26.980269756704047 -10.263407362405232 -28.195344093114215 125 84 52 255
-26.832570246980140 -9.594333375702021 -28.299886491198976 117 78 47 255
-26.941733263011685 -8.820376956934467 -28.239998606741437 116 79 52 255
-27.222206969510268 -7.974655554956911 -28.070490629673827 111 77 50 255
-27.588405181135272 -7.091367983467777 -27.846180303045088 101 71 43 255
-27.440821286789685 -6.422397478053611 -27.950870994302534 92 65 36 255
-27.807176274453042 -5.536154086587047 -27.726618066273005 85 58 29 255
-28.516297280010008 -4.501041148026687 -27.283056657719612 79 53 26 255
-30.425026883564982 -2.944675469822542 -26.071815916629561 74 52 25 255
-31.820083822857839 -1.599340535860705 -25.189559506926258 61 41 17 255
-32.358548377306477 -0.619716388816499 -24.855674807633335 41 23 2 255
-44.770994347310790 -16.998731787820574 -15.668082964930420 142 117 86 255
-43.857792740629293 -16.532854613614091 -16.267055510600187 143 101 79 255
-44.053288059014989 -15.677363987993729 -16.151079101768204 170 127 108 255
-42.713330732779013 -15.373385517523928 -17.025176809807647 190 145 124 255
-40.861235404540366 -15.263873392064596 -18.229394786811042 187 140 120 255
-39.862014502796171 -14.853855301582399 -18.883652773653154 178 130 110 255
-38.947941621399082 -14.418805726538309 -19.482974656068336 167 119 99 255
-38.887100908931359 -13.671890507662212 -19.532253352100923 155 107 87 255
-38.655568663683880 -12.989597035597328 -19.691589069072535 138 91 71 255
-38.594721850501855 -12.244259727816143 -19.740933422822167 126 81 60 255
-37.850959034544161 -11.760154666962364 -20.230447258883089 119 74 53 255
-34.716598874185678 -12.200972929443694 -22.260561017210705 101 56 35 255
-30.300895809904461 -13.158708037078611 -25.116164075195371 180 135 114 255
-28.446058182020352 -13.142467142038555 -26.321307201397502 178 133 112 255
-27.957262516723574 -12.599320512670602 -26.646165827786035 170 124 100 255
-27.810023288331138 -11.923588535748593 -26.750970491931668 153 107 82 255
-27.406527425536297 -11.351505060187705 -27.020900147247858 144 97 69 255
-27.088399468590183 -10.747566937475554 -27.235849942487135 136 91 62 255
-26.941099797688253 -10.076203566901199 -27.340782334017319 131 87 58 255
-26.708353398784027 -9.440855213737535 -27.500789837922923 124 83 55 255
-26.475586317915628 -8.807032463648710 -27.660842475133308 119 82 56 255
-26.670098028014337 -7.996907381893323 -27.545750677450371 111 75 49 255
-26.950145492830075 -7.149753488384462 -27.375647209580137 102 72 44 255
-27.059324537454131 -6.373066908575495 -27.315652514121723 95 65 37 255
-27.168555589950103 -5.595711315111487 -27.255691317558984 88 58 30 255
-27.448828418984760 -4.744385382412119 -27.085673929786338 81 54 25 255
-28.413214800379507 -3.595952519920445 -26.475308433688411 74 48 22 255
-29.890901272290847 -2.218281289708912 -25.534651205135248 69 47 23 255
-30.941320380537860 -1.018534552604834 -24.869227876900339 51 33 11 255
-44.667425537246800 -17.633067868570123 -14.771722412138473 189 168 132 255
-43.330698901105990 -17.312397231813904 -15.649055075097351 189 148 124 255
-42.674662580210537 -16.759085984010866 -16.084782856454638 161 116 95 255
-42.444140670685329 -16.057945719490363 -16.244497843577221 120 75 56 255
-41.702775050237619 -15.542663127340433 -16.735539929242123 191 144 124 255
-39.939552219570032 -15.403941245747930 -17.889250355737005 190 142 122 255
-38.686904317205091 -15.089100482707906 -18.711752064441214 182 133 113 255
-37.859824170034244 -14.624786443539193 -19.258230875643136 167 116 97 255
-37.713947139083018 -13.911586144284115 -19.362987299607653 153 105 85 255
-38.164300598219683 -12.975064141596306 -19.081199862583475 140 93 73 255
-38.529575351022089 -12.068141642489309 -18.854646553256799 126 84 62 255
-38.213384190201424 -11.419790493342333 -19.069938947981058 115 73 51 255
-36.278287994689066 -11.398011001239013 -20.334667769698427 101 59 37 255
-32.553376777349229 -12.084471702766862 -22.759410039913405 87 45 23 255
-29.083398804849054 -12.694446562302829 -25.018645447834672 181 139 117 255
-27.828694673276800 -12.450942514055669 -25.841905830689967 179 133 110 255
-27.426133953594643 -11.876019125940957 -26.112864298227407 162 114 92 255
-26.938268345554746 -11.337947831217619 -26.439112763778951 151 103 80 255
-26.706091240406721 -10.699583812115918 -26.599686866269479 144 96 73 255
-26.729680760034768 -9.958487139121274 -26.594570328295561 136 90 66 255
-26.753299688661116 -9.217301537600164 -26.589486162858861 129 86 60 255
-26.521107478037038 -8.581915307017880 -26.750179714187169 125 83 58 255
-26.374183692781486 -7.912479204649472 -26.855668061552961 114 77 50 255
-26.397852825343307 -7.172334890405807 -26.850694529562219 108 73 45 255
-26.336248396700768 -6.468181841923311 -26.901009925656865 100 67 38 255
-26.359975478883712 -5.728062596596587 -26.896109478595605 91 60 31 255
-26.383737215425896 -4.987808709924153 -26.891245792621845 82 55 26 255
-26.919529456407275 -4.025879511759499 -26.554865680038489 73 47 21 255
-27.882168779245660 -2.874585786990863 -25.942199132752108 68 46 22 255
-29.442487145751699 -1.454928333955948 -24.942696172986359 57 38 15 255
-29.722778719796679 -0.591368463296661 -24.772134284414108 32 16 0 255
-43.313120393892234 -17.914179265255953 -14.698454663131827 113 101 60 255
-42.998335144625059 -17.237535346475013 -14.914178900018385 67 32 6 255
-41.579181927089707 -16.955272071595374 -15.850446017720714 111 69 47 255
-41.264182787004813 -16.286505977011629 -16.066270396115215 172 126 107 255
-40.099489393055478 -15.927006061568960 -16.836408242683888 189 142 122 255
-39.104521659175816 -15.513119277878531 -17.495765310734242 189 141 121 255
-37.684461722257367 -15.261965425540282 -18.432350853816416 184 133 114 255
-37.029040424198087 -14.736315543901924 -18.870125679887281 165 114 95 255
-37.138488139582137 -13.928869220013254 -18.809036902608113 155 104 85 255
-37.758014948166988 -12.928505834930760 -18.415344437240122 141 95 74 255
-37.867590170641535 -12.118318391469600 -18.354286696792087 129 84 63 255
-37.552085050511664 -11.470563397653009 -18.570458206340760 116 71 50 255
-36.216144690666368 -11.219381682644553 -19.451991634029355 102 58 37 255
-34.199626091153817 -11.241931401981773 -20.777176026394500 85 41 19 255
-31.162125650217121 -11.678336598038129 -22.767845997546459 87 43 22 255
-28.719440704249081 -11.898375886115744 -24.370538763426595 191 145 122 255
-27.722419099632475 -11.556852816554496 -25.030705094787351 178 131 109 255
-26.980443812805220 -11.119083800203313 -25.524587851663370 161 113 91 255
-26.578676705286711 -10.548137584040475 -25.796715851140846 154 106 84 255
-26.347036511959516 -9.910288730966698 -25.957980225386876 145 97 74 255
-26.370676853632347 -9.168875164188563 -25.952912056118720 136 90 66 255
-26.139017158374060 -8.533276509513726 -26.114256655986225 128 84 59 255
-25.992454410975569 -7.863623963884251 -26.220183043947713 119 77 52 255
-25.845888204396545 -7.194943163533878 -26.326150236471364 112 73 47 255
-25.614183540189458 -6.563341573911131 -26.487624525146373 104 68 41 255
-25.552748628116149 -5.860466829023451 -26.538209633770606 95 61 33 255
-25.746789559338481 -5.048031368695760 -26.422426328102972 86 57 28 255
-26.537033015565157 -3.975883557852057 -25.918375598903026 78 51 24 255
-27.242298304608539 -2.935909953799111 -25.469803266442739 71 47 23 255
-28.203277787928926 -1.779039361916915 -24.854817868688173 61 42 19 255
-28.568170777114346 -0.880216755272642 -24.628166659245835 29 13 0 255
-42.750026049888362 -17.132792896425514 -14.122784607653500 146 135 100 255
-41.164275328876585 -16.910180671040635 -15.173959177050364 171 130 108 255
-39.832573034909984 -16.606521849656957 -16.058317073060124 183 135 117 255
-38.839789687322906 -16.188664860087883 -16.720200938180881 182 136 113 255
-38.186027824330864 -15.653362007922567 -17.159587310622300 187 139 117 255
-37.192905290011026 -15.247402236152496 -17.821602348188037 174 123 102 255
-36.793330830915806 -14.627249482953417 -18.094168024232914 165 114 93 255
-36.817828696461106 -13.850814314116278 -18.088538812348531 156 105 84 255
-37.012018999881917 -13.010233407416578 -17.971634689986104 145 97 75 255
-36.866885472107583 -12.297890863273082 -18.077353686289570 128 83 62 255
-36.382326404970684 -11.717022445242307 -18.405719739525836 112 67 46 255
-35.643101725976180 -11.237988460164686 -18.901101219165326 101 56 35 255
-34.988616546384435 -10.730631194682132 -19.340886808327696 86 41 20 255
-33.230591928878169 -10.661958153036622 -20.504299657199397 83 38 17 255
-30.368693915764112 -11.042502455112867 -22.391414121533529 102 58 35 255
-27.845821751482589 -11.305537654483032 -24.056033574748199 191 145 124 255
-26.680934989756423 -11.037093748668354 -24.830157253721126 175 128 108 255
-26.110226869872861 -10.534665214918817 -25.214695658610651 163 115 94 255
-25.879112950300510 -9.896871381198494 -25.376615746701077 151 105 81 255
-25.987697363280915 -9.120461175500509 -25.315895877803001 142 96 71 255
-26.181266905542543 -8.308107475588898 -25.199531323844894 134 88 63 255
-25.865213492035139 -7.708042447346301 -25.417235589785321 126 81 55 255
-25.379208185777628 -7.181730186235214 -25.746338608725665 119 76 50 255
-24.893130029386072 -6.658547166258174 -26.075496438149429 108 70 42 255
-25.086770504953051 -5.847363784306836 -25.959274233130657 99 64 35 255
-25.280478538143910 -5.034965503346726 -25.843079491851682 90 61 31 255
-25.984202601069086 -3.999754185521638 -25.392815350657969 83 55 28 255
-26.433100840492926 -3.071669279082045 -25.109613392194177 75 49 26 255
-27.647200328305672 -1.803460416434348 -24.325253244609883 63 42 18 255
-27.841371847310995 -0.980428995976752 -24.209140263629791 44 28 6 255
-42.500662354869633 -17.028064617545780 -13.330082104357047 145 154 104 255
-39.987545836619717 -17.136734070327748 -14.999645362654661 163 119 92 255
-38.743149280576773 -16.804895411558419 -15.831598994069026 126 78 55 255
-37.837004733064759 -16.358298578430109 -16.440224866030917 132 81 60 255
-37.523108857333028 -15.700727574789767 -16.657938063614125 191 139 118 255
-37.293801976523099 -15.014061296201959 -16.819832751485620 178 125 107 255
-36.810516819192003 -14.423602502078054 -17.149334779105544 164 113 93 255
-36.581118784420653 -13.740977064409037 -17.311303866977738 156 106 83 255
-36.267023555038350 -13.092027847490783 -17.529169774790773 144 94 74 255
-35.952880201933226 -12.445218936597584 -17.747075285606428 126 79 59 255
-35.638689416650521 -11.800544091145454 -17.965020968084616 107 60 40 255
-35.324451893585831 -11.157996978380581 -18.183007390145519 92 45 25 255
-35.264267376757942 -10.418118854554791 -18.233427078015268 88 42 20 255
-34.357006389509678 -10.012944097572046 -18.842589690938468 88 41 20 255
-32.432978463037443 -10.017955275117941 -20.122298714596155 66 22 1 255
-28.983522107295101 -10.646643988117305 -22.407872074608264 178 135 112 255
-26.889130364253276 -10.749720435630124 -23.799596930873349 182 136 115 255
-25.811245683137770 -10.452214396104424 -24.520898528428006 172 126 103 255
-25.495924717696198 -9.848706085496602 -24.739352039148145 159 113 89 255
-25.434841508221609 -9.142146139555578 -24.790202620625365 149 103 77 255
-25.797611623385023 -8.259467804303583 -24.561665943919877 141 94 67 255
-25.567039223483448 -7.623610025017555 -24.724347964652367 133 86 60 255
-25.251658529359162 -7.025120434710971 -24.942960259854232 123 79 52 255
-24.766649719551083 -6.500927779528567 -25.273398403373562 113 73 44 255
-24.875190406060483 -5.725092091663271 -25.212650928199167 103 67 37 255
-24.898968503039328 -4.985249246205271 -25.207826623256210 93 63 34 255
-25.262061929430388 -4.097521062991703 -24.979456850808447 86 56 30 255
-25.879746858855441 -3.095857826463515 -24.583418097037082 79 51 28 255
-27.091455269751663 -1.827902069081574 -23.796102120759400 66 43 20 255
-27.454975847000497 -0.929684349286958 -23.567775677624695 51 36 11 255
-39.995610805058675 -16.940835864817345 -14.043851596770878 105 69 37 255
-38.838298237006768 -16.577024039259527 -14.822949704094043 174 127 101 255
-37.765214666012128 -16.190067330694120 -15.546058658897607 185 135 112 255
-37.367610162321853 -15.562187869460914 -15.820710665330040 184 133 112 255
-36.632060715591763 -15.062072424207869 -16.319675120030269 177 124 106 255
-36.487718541127606 -14.346074075290218 -16.426206605685479 166 113 94 255
-36.005415642058011 -13.758368173317891 -16.757055477018071 158 107 86 255
-35.607523773820219 -13.141815010244741 -17.031876476783651 146 96 74 255
-35.209565955810092 -12.527943245876713 -17.306740067162337 121 74 54 255
-34.896054680991909 -11.884131296763528 -17.525569138969104 96 49 29 255
-34.667016312026732 -11.209562360598525 -17.688358503997250 90 44 21 255
-34.691535222718187 -10.437108017177877 -17.682940157610204 91 45 22 255
-34.124313719207464 -9.898589170972798 -18.070130899213666 92 47 24 255
-32.711533679917636 -9.700762004507126 -19.018226392435793 111 69 47 255
-29.184616329105495 -10.361222904348338 -21.368589084018851 176 134 112 255
-26.840887665328552 -10.565006511662290 -22.933890510757010 180 138 115 255
-25.511565350532180 -10.369770692918564 -23.826234015755716 181 136 112 255
-25.535282446583153 -9.626670256528186 -23.821182820653434 171 125 99 255
-25.220668860771610 -9.023674705276235 -24.040538059713271 154 108 79 255
-25.413600603710677 -8.210841493617778 -23.923359676801283 146 99 69 255
-24.929742423541825 -7.681533624117947 -24.254988479157845 137 92 62 255
-24.699654618610111 -7.047786850121028 -24.418369902360894 125 81 54 255
-24.469544220130587 -6.415547765237648 -24.581793255025246 117 76 48 255
-24.577942315950139 -5.639209334370776 -24.520845478159117 107 70 43 255
-24.601747593643637 -4.898869355237338 -24.516031835812953 97 63 35 255
-24.710234798723121 -4.121449233037495 -24.455144452548097 89 59 31 255
-25.157407136970619 -3.194493141555938 -24.169852858491595 79 52 26 255
-26.366707665042071 -1.927330563327132 -23.379585259951085 69 44 19 255
-26.898878039187537 -0.954447840734915 -23.038201691496170 53 34 12 255
-40.507183535464122 -16.563787693595245 -12.747844537077896 152 134 93 255
-39.015301690642616 -16.318667310974348 -13.755023596097004 187 144 115 255
-37.691690357328497 -16.021829286710528 -14.649739762175102 183 137 113 255
-36.704980752315237 -15.609647865463074 -15.319425171020157 183 132 111 255
-36.223872447813847 -15.016336334786004 -15.651496506577416 172 117 100 255
-35.742678467201500 -14.426265325013958 -15.983611898634649 162 106 89 255
-35.345714856188323 -13.807618963208014 -16.259487818789523 152 98 78 255
-34.948683917541445 -13.191660878130875 -16.535404938690647 136 85 64 255
-34.720251381661967 -12.513684566558965 -16.698788072550798 110 62 42 255
-34.576128189897616 -11.804683276257535 -16.805916065272925 88 40 20 255
-34.347641375103819 -11.129621167478078 -16.969367078708331 89 43 20 255
-34.203482446959697 -10.422980923048200 -17.076560292737895 100 54 31 255
-33.131275486351399 -10.085115681006286 -17.803035499971060 80 35 12 255
-31.299488373011286 -10.057533392794440 -19.036260368239397 182 141 119 255
-28.707889166436559 -10.347524021342849 -20.776285355438205 162 121 99 255
-26.875313841972485 -10.346031111082098 -22.009742754711681 163 122 100 255
-25.548791292937835 -10.149287922529410 -22.905491104541824 184 141 118 255
-25.234936781328003 -9.543730984502588 -23.125669562111483 178 132 108 255
-24.921038720046113 -8.940251881958972 -23.345890400358485 165 120 93 255
-24.860379500153584 -8.232875220239350 -23.397229293996787 156 109 81 255
-24.546422334573776 -7.632719653407776 -23.617531019763845 141 96 67 255
-24.401312814751520 -6.962893376869957 -23.725252951562254 129 85 58 255
-24.087290682606010 -6.366302851610342 -23.945639497220441 121 80 52 255
-23.857690377629865 -5.735349643998617 -24.109755605288086 111 73 46 255
-24.050421323666228 -4.922513606861756 -23.992327881414241 100 67 36 255
-24.327697492005598 -4.071511204572289 -23.818606340876357 92 62 33 255
-24.943010265518126 -3.069872161006089 -23.419624617744745 82 55 26 255
-25.558478107783884 -2.064287931023600 -23.020652258748044 71 46 19 255
-26.089596533576440 -1.092506824203255 -22.678014237940403 56 37 14 255
-38.180322391605614 -16.425847545122025 -13.361509455883549 177 143 108 255
-36.943548396616478 -16.099461139357246 -14.203176511945003 187 141 115 255
-36.295366237151285 -15.564157909603409 -14.649487859089419 179 127 106 255
-35.815318049187681 -14.970632906572860 -14.982865002448904 169 114 94 255
-35.335183490668129 -14.380349124613119 -15.316285372923886 153 96 79 255
-34.939107838682446 -13.761485705414145 -15.593253269132362 144 89 69 255
-34.627117392304001 -13.113226252761137 -15.813763442794908 127 76 56 255
-34.567562103540524 -12.370043953664378 -15.864810724516758 98 50 28 255
-34.087156741677376 -11.790503650811104 -16.198393594428637 88 40 18 255
-33.690847066925215 -11.181278516935677 -16.475518347612848 104 58 35 255
-33.041909225236623 -10.674214109179559 -16.922202351143198 92 48 23 255
-31.466697193741823 -10.539221725837010 -17.990522882675492 170 128 103 255
-29.554360883561003 -10.549269614471854 -19.284976166709072 174 137 111 255
-27.978504261558641 -10.435785128914659 -20.353494855271776 156 118 95 255
-26.991896995960957 -10.092780729314214 -21.026517717082129 147 108 85 255
-25.836644919321060 -9.825225382618186 -21.812640279188571 181 140 117 255
-25.102371546968811 -9.391225870320909 -22.316256851796226 183 138 115 255
-24.704959074880634 -8.821778682183265 -22.593858975066325 175 130 105 255
-24.391742179318555 -8.219616035705940 -22.814986306256998 164 117 89 255
-24.078482246065533 -7.619517859731999 -23.036156033290922 150 104 76 255
-23.765179936162440 -7.021477023229906 -23.257368645644107 134 90 63 255
-23.451835913559677 -6.425486305544766 -23.478624632244561 122 81 53 255
-23.307033463991758 -5.758719501646198 -23.586869657341936 109 71 44 255
-23.836625617713395 -4.799465790930952 -23.242918758617094 100 67 34 255
-24.282043745984936 -3.873778286050992 -22.955508881471758 92 62 32 255
-24.811897609077448 -2.908017228278894 -22.611580791562687 82 55 26 255
-24.751604740530297 -2.201297273883640 -22.663404842468026 74 49 20 255
-25.113001931306712 -1.306141765349508 -22.432585170224399 62 44 19 255
-36.255578755643370 -16.929215826161709 -13.706746701231367 173 148 108 255
-35.524888416855987 -16.423084150646218 -14.211462606648126 185 138 112 255
-35.213799606572422 -15.766778938248876 -14.432718408472567 182 129 107 255
-35.406397990125669 -14.924963125964453 -14.313781237252954 148 90 72 255
-34.675427502381751 -14.429114894448560 -14.818626693441900 139 81 65 255
-34.448162588750364 -13.747204031228833 -14.983276369153714 133 79 62 255
-34.220863218099595 -13.066902413275400 -15.147957963648508 116 65 45 255
-34.413485343748164 -12.226403384503215 -15.029111369495354 89 38 17 255
-34.354161230751117 -11.482690597826135 -15.080420944960935 104 56 34 255
-33.790789585562436 -10.936889854574872 -15.472051815185665 94 48 24 255
-32.051081615246289 -10.859221400311441 -16.657780059236899 143 99 74 255
-29.722854542862052 -11.026941024890021 -18.240646877882767 182 140 115 255
-27.982404569308812 -10.973764800036705 -19.426590879601918 173 133 108 255
-27.670339643210355 -10.354202616693769 -19.648340428884467 148 111 86 255
-27.274176527689235 -9.770990618994418 -19.926854321969614 149 111 88 255
-26.373590212430145 -9.397540495862046 -20.545773206606640 172 130 107 255
-25.136562872011098 -9.169126857050216 -21.391672656630647 187 142 119 255
-24.403763594094016 -8.738365869648561 -21.897269030530168 188 143 118 255
-23.923090940162439 -8.206382877380875 -22.232727252284917 169 122 96 255
-23.610528889706899 -7.606340807470161 -22.454765728261378 153 107 81 255
-23.466130128760312 -6.936610266066225 -22.563374228701207 138 94 67 255
-23.237611580920628 -6.303992431349968 -22.728755656106330 124 83 55 255
-22.840827189044603 -5.745705439982117 -23.007655226233879 112 75 48 255
-23.201148497420178 -4.859832692823147 -22.775931076102523 103 70 37 255
-23.729844975429444 -3.897748211343398 -22.430737177339381 94 64 34 255
-24.258676288282743 -2.932271250264634 -22.085553180918367 84 57 27 255
-24.282709961869756 -2.188372684286364 -22.080857851027133 76 51 22 255
-24.559268420101318 -1.331009415099501 -21.905950355900387 64 46 21 255
-24.667565875642964 -0.547926808441375 -21.844564683266668 49 35 14 255
-35.174220481699990 -17.128058249250358 -13.490060481409699 171 154 109 255
-34.863881146686424 -16.470163501703709 -13.712172691171872 188 140 114 255
-34.888596765191011 -15.690384421794391 -13.706658545650782 157 102 81 255
-34.913326776161739 -14.910612578525189 -13.701162598522103 131 73 54 255
-34.519099046909531 -14.288615738498223 -13.980278539930538 135 78 62 255
-34.376210699175829 -13.573840826364531 -14.088671154245645 121 69 51 255
-34.149492693537610 -12.892230572490078 -14.254013550632607 103 54 33 255
-34.174201147720680 -12.115128985601714 -14.248614773322146 94 43 22 255
-33.863611735600131 -11.468544796222019 -14.470941523530172 89 42 19 255
-32.966109438129365 -11.054428890180915 -15.091800734990045 145 99 75 255
-30.223822468411640 -11.376078984221508 -16.965179753333047 176 132 107 255
-28.403388679040859 -11.347615236518806 -18.212454369421181 170 128 103 255
-27.337365897132599 -11.027548366726066 -18.947430790776679 168 129 101 255
-27.193731281839234 -10.340605780609891 -19.056188880966374 149 109 83 255
-27.133964139926547 -9.620425815637503 -19.108040747128882 156 116 91 255
-26.235309255905634 -9.245981091046005 -19.729310580255003 170 128 104 255
-25.168691023891256 -8.946999289028454 -20.464526523853948 190 145 121 255
-24.185777642835262 -8.619895036973006 -21.142871791023026 196 150 126 255
-23.622256481508202 -8.122502127223143 -21.536563657216817 182 134 111 255
-23.226486383375970 -7.557581791252460 -21.816414224191874 159 113 89 255
-23.082452635347494 -6.887626781484641 -21.925465326254226 142 98 73 255
-22.854468904266639 -6.254789937119412 -22.091500352837244 126 85 59 255
-22.710409790248065 -5.587037209223539 -22.200622178854275 113 76 47 255
-22.902178307888477 -4.773480955290154 -22.081966556702923 102 69 36 255
-23.345912441655457 -3.847826471813462 -21.792468199775698 93 63 33 255
-23.705786894360330 -2.956552365799084 -21.559938783420279 84 57 28 255
-23.897791421496549 -2.137962905581773 -21.441342487324505 75 51 22 255
-24.089861800856511 -1.318129037954307 -21.322770168933204 64 46 21 255
-34.621523177587619 -16.363562907261070 -12.928078129796006 160 128 93 255
-34.646293708143787 -15.582996833676589 -12.922595612220107 132 89 62 255
-34.754693274946277 -14.771149152938392 -12.860001710827333 125 74 53 255
-34.528629414016336 -14.085002095360451 -13.025945420111071 130 78 60 255
-34.135264482475918 -13.464131236026816 -13.306184438871355 109 58 39 255
-33.574547547177104 -12.910151058330655 -13.700730480398960 97 47 27 255
-32.930077157323410 -12.392306059608728 -14.152458739290950 89 41 18 255
-32.118169905140093 -11.944040438506519 -14.718513482437487 144 97 73 255
-30.636774108618170 -11.764429735649571 -15.741747058979854 171 127 100 255
-28.736709607967384 -11.760409938038208 -17.050778066799154 160 119 90 255
-27.589423372697354 -11.467721036653501 -17.845620642169052 158 117 87 255
-26.609300221146697 -11.115107372364079 -18.526245006955861 162 123 94 255
-26.633405011196743 -10.361033943969346 -18.521165734400768 144 108 79 255
-26.071561099597261 -9.846726185957394 -18.916154240042403 151 115 87 255
-25.342180303547650 -9.405195733961250 -19.425493504871525 167 130 103 255
-24.612665647620219 -8.968454571190861 -19.934888901985602 184 143 117 255
-23.548074075843118 -8.676783250207905 -20.672959414061921 188 144 118 255
-23.236981291456885 -8.073972107071100 -20.896692891969394 182 137 110 255
-22.674583189335436 -7.580064622836503 -21.291940346656901 163 117 91 255
-22.698421566674654 -6.838659038202820 -21.287118330685161 147 103 76 255
-22.722285209932835 -6.097142166526979 -21.282322507621160 126 86 60 255
-22.746174857535493 -5.355506178420640 -21.277553430573363 113 77 49 255
-22.770091255215505 -4.613743108107997 -21.272811655389830 100 67 34 255
-22.877831968295197 -3.834880051079622 -21.210930832717764 88 61 31 255
-23.153229539927565 -2.980861481492425 -21.034737780913048 81 55 28 255
-23.596337289128883 -2.050054794845693 -20.744222906812553 75 51 23 255
-23.871916386244266 -1.191933859256537 -20.568064760141738 64 45 21 255
-35.629524941427348 -15.795665244925900 -11.282622192519881 129 132 83 255
-35.487608110492062 -15.072309011177126 -11.391822309303933 96 79 42 255
-35.095337149815037 -14.443925396204065 -11.673070399880288 120 86 59 255
-34.869900232219237 -13.755116224867422 -11.839668664886347 119 76 55 255
-34.143656929118123 -13.258932473380312 -12.350365477566555 98 52 32 255
-32.749512677985194 -13.024439101362503 -13.319888278176677 107 59 37 255
-30.937697766960241 -12.960987595625866 -14.576236070205482 143 97 74 255
-29.292495123583592 -12.844108769548967 -15.717983571702661 140 94 70 255
-28.481924810267884 -12.408855688267309 -16.286301494462833 141 97 70 255
-27.337180970782498 -12.111711506139343 -17.084092682048407 137 93 66 255
-26.776806430137697 -11.587903193478951 -17.480463918209495 138 97 67 255
-26.216329647199984 -11.067829841296074 -17.876881596981661 137 98 69 255
-26.240464984991064 -10.313515601141305 -17.871829061506986 135 99 69 255
-25.596306669185992 -9.833267392258463 -18.325689467634930 146 111 81 255
-24.617839001496094 -9.495419193050736 -19.009053711069726 178 142 115 255
-24.056967213958131 -8.989950829712924 -19.405658951562316 183 142 117 255
-23.328865441557809 -8.558337910057787 -19.917045880873900 185 142 113 255
-22.851351527573115 -8.025461253515743 -20.256382953232446 176 132 103 255
-22.123008732149856 -7.602584463280763 -20.767876183284983 160 116 87 255
-22.230445857457426 -6.825595515522522 -20.705705552232757 141 100 72 255
-22.421524804875816 -6.011797223293385 -20.586182868973054 121 84 57 255
-22.779881174656339 -5.123941802562328 -20.351928011765182 109 75 48 255
-22.803863556810938 -4.380591730427099 -20.347194478945568 95 64 33 255
-22.911498776410156 -3.600137405345649 -20.285108878674009 83 57 28 255
-23.019178908129902 -2.818998870527636 -20.223047265497314 76 52 24 255
-23.210548401547044 -1.999656781747902 -20.103627897760163 68 46 19 255
-23.485634350714122 -1.141290262092170 -19.926846305889939 59 42 16 255
-34.183439250309789 -14.586142029825851 -11.345170248305948 146 128 95 255
-32.542704085248658 -14.435402826674320 -12.490890927331549 146 112 85 255
-32.151000367638630 -13.817870248829266 -12.773346611740692 152 112 87 255
-30.093237297946388 -13.845223205443020 -14.207017205641137 145 101 78 255
-28.534906599372647 -13.691787054241018 -15.295433269019469 134 89 66 255
-27.559480314974024 -13.320044602608036 -15.980999185656941 132 88 64 255
-27.333790441029151 -12.658478084895009 -16.148547810912731 123 79 54 255
-26.691396082423012 -12.164449090999099 -16.603957918340001 122 78 51 255
-26.215565925629704 -11.607781874780770 -16.944280611424944 125 82 52 255
-25.572947653964604 -11.121770533058637 -17.399784910998790 126 87 56 255
-25.430368490568782 -10.436025828445722 -17.509908519263632 129 91 62 255
-24.203983596299338 -10.196820429747362 -18.368515516299993 158 123 93 255
-23.227490017281468 -9.862031797938513 -19.054471800616085 183 144 117 255
-22.917895284416318 -9.255166467260977 -19.279876365272600 187 145 120 255
-22.691646611118188 -8.615301412908792 -19.447738606493829 185 141 115 255
-22.298561064058561 -8.047673716608386 -19.730795334484441 174 130 101 255
-21.821998964572401 -7.518276224754928 -20.071475172291031 157 113 84 255
-21.679037756433587 -6.848451350664490 -20.181863447345563 139 98 70 255
-21.953211868391321 -5.998784520598335 -20.004353914925446 118 82 54 255
-22.144024579798071 -5.183810551223161 -19.884446243046682 104 73 45 255
-22.334897254176781 -4.367628879047075 -19.764556943124092 92 63 31 255
-22.275464133180719 -3.661153762762765 -19.817459392834110 80 54 26 255
-22.633361334556014 -2.768853498584207 -19.582428378979529 71 48 21 255
-23.158301911371524 -1.799206509369739 -19.232222047597020 64 43 16 255
-23.599893970384386 -0.863937828699108 -18.939618967523131 54 37 12 255
-28.702576878638439 -16.450195090550466 -14.196476911653832 142 122 89 255
-28.560775507740459 -15.747440468933149 -14.306776427374274 152 117 92 255
-27.837112970047883 -15.268675686072484 -14.821484635859491 151 111 88 255
-27.196437591772764 -14.762649826935089 -15.278471413619258 145 103 80 255
-26.555638498093629 -14.260931322452706 -15.735504547890315 136 96 72 255
-26.247299595523998 -13.632895334079649 -15.961485218635545 129 88 63 255
-26.354679499229263 -12.842369908520268 -15.898615354696261 121 80 55 255
-26.545255860672683 -12.018076809629704 -15.777981856091344 116 74 48 255
-26.070509231679239 -11.460384159464681 -16.119601730431498 111 68 41 255
-25.346134760566997 -11.007092656193251 -16.634608545950840 112 71 41 255
-24.455244123369653 -10.626621897094267 -17.265234954200935 117 81 49 255
-23.314588018410120 -10.354862022130064 -18.069277506661678 168 131 102 255
-22.672946749257846 -9.883327668033502 -18.526666231024137 184 146 117 255
-22.364046695929517 -9.276780577120888 -18.752947734416864 187 146 118 255
-22.138321177940128 -8.637229591283884 -18.921473841389343 183 139 111 255
-21.746099340884456 -8.069926128611954 -19.205617570670341 173 129 100 255
-21.437053184713278 -7.469604773052623 -19.432006675640139 154 110 81 255
-21.294459319726627 -6.799550366410330 -19.542840209355887 135 96 67 255
-21.484887930865227 -5.985798394542826 -19.422512540837715 114 80 52 255
-21.592107548319802 -5.207285579233144 -19.360001238695560 101 70 42 255
-21.865921027736192 -4.354689983529809 -19.181908202595622 89 62 32 255
-22.223096721913635 -3.463359100449438 -18.946026711335151 77 53 26 255
-22.746955301123847 -2.495222988787106 -18.594547626799397 68 47 20 255
-23.187643059449300 -1.561209181967286 -18.300880453037536 59 39 14 255
-23.461823418424359 -0.699911002538926 -18.122838874066900 50 34 10 255
-25.954740284526878 -18.040274518281464 -15.165123073008033 89 71 36 255
-26.144810431884480 -17.219060356758007 -15.044004200614154 162 131 103 255
-25.671402586597566 -16.649404983499878 -15.386730466249048 163 128 104 255
-25.695598707832687 -15.891893033078475 -15.381604966687235 155 119 95 255
-25.222061034199839 -15.327090503638075 -15.724395317664971 145 110 86 255
-24.997332640127809 -14.668347218967455 -15.893268262945725 138 102 78 255
-24.523641329060013 -14.109183797985793 -16.236129639497818 133 96 70 255
-25.211633128444419 -13.092221046317093 -15.767187021909990 127 89 62 255
-25.650801534592631 -12.170504203426034 -15.472204864402613 117 78 51 255
-25.343063188918137 -11.547276369125044 -15.699154030508424 106 65 37 255
-24.537213977612936 -11.128604095552305 -16.274100831095268 98 57 27 255
-23.399135131848141 -10.851323163368889 -17.081085803226358 119 80 49 255
-22.509912255951036 -10.478707456342477 -17.714146622075077 176 140 108 255
-21.786588122567451 -10.042869722234741 -18.231267028581982 183 144 115 255
-20.980082044759456 -9.646644397907608 -18.806440330888734 186 142 115 255
-20.920899444776524 -8.939926866416698 -18.859642452967080 180 136 108 255
-20.944781260590219 -8.198302719498443 -18.854864205393028 170 125 96 255
-21.217895290376561 -7.349690788702731 -18.676087957637861 149 105 76 255
-21.158765983651136 -6.642963104248850 -18.729355751000668 131 92 63 255
-21.265817146897461 -5.864323062463015 -18.666629475212574 112 79 51 255
-21.372908432265916 -5.085025645792243 -18.603922487012852 96 69 40 255
-21.563145983864018 -4.268349672150464 -18.483221993626529 86 59 30 255
-22.002785157686475 -3.339508138318052 -18.188493457689731 74 51 25 255
-22.442536676672006 -2.407819881682769 -17.893772240111190 65 45 20 255
-23.131796557821531 -1.360701315742077 -17.425003941475808 54 36 12 255
-25.450608586026988 -18.785157039794314 -14.574012500217975 107 80 47 255
-24.978319689458658 -18.212834037952248 -14.918003695475846 172 142 113 255
-24.505938030193931 -17.643762572688601 -15.262030663271020 179 148 121 255
-23.702385208654022 -17.204273576862562 -15.838861438244521 167 136 112 255
-23.892011768169453 -16.387934495558113 -15.717418275005429 155 125 99 255
-23.998898246564124 -15.602633034445745 -15.654178458122544 146 115 90 255
-23.774632372260157 -14.946356306120649 -15.823739909036220 140 106 82 255
-23.550328099290226 -14.291681393779498 -15.993328041953703 135 101 74 255
-23.988489548242342 -13.375126465213071 -15.697335705351833 128 93 64 255
-24.592395456250074 -12.389430489491886 -15.284936778560450 118 81 52 255
-24.450965462068154 -11.701187225588797 -15.396370669568626 106 67 37 255
-23.563966141418774 -11.317682776578678 -16.031685815620420 92 51 21 255
-22.842487637819033 -10.872040311116436 -16.550641812426505 141 102 71 255
-21.955157226876366 -10.499772854764458 -17.186067539032052 172 136 104 255
-21.564843201197732 -9.926053396266994 -17.472281300394798 183 142 114 255
-20.760091850817901 -9.529091613412461 -18.049598223555051 184 140 113 255
-20.203832336254806 -9.032169027059638 -18.452324375669718 178 134 105 255
-20.144816797992718 -8.326749183000146 -18.505794063140740 167 122 93 255
-20.500302807404609 -7.443596255701266 -18.268195028471723 144 101 72 255
-20.855879092918201 -6.558180500205211 -18.030603020148902 127 88 60 255
-20.879877246471921 -5.815201382990594 -18.025906276936837 111 79 50 255
-20.986823255523689 -5.035658959227263 -17.963007615179265 94 67 38 255
-21.093809249233942 -4.255451663082610 -17.900127722451913 84 58 29 255
-21.781440649605912 -3.215653287979734 -17.429678032873909 71 50 23 255
-22.220379250349595 -2.283162105794034 -17.133910636230752 62 43 18 255
-22.825352340769228 -1.272756689514736 -16.721689452377234 53 36 11 255
-24.698711717435856 -19.621596874669706 -14.158004568290778 120 92 56 255
-24.062349491567545 -19.110051506723778 -14.620088261546698 186 153 125 255
-23.591022019391772 -18.540746094398429 -14.965412727869989 196 164 139 255
-23.202191331919323 -17.943373684062692 -15.252369755407557 183 153 127 255
-22.813284933824718 -17.348707464942137 -15.539358409925200 173 143 117 255
-22.837340982286520 -16.597446416049976 -15.534349163821759 161 131 105 255
-23.026641164338116 -15.781921306620077 -15.412538707867583 151 120 96 255
-22.802864062009718 -15.127299888086114 -15.582783596959956 139 107 82 255
-22.496414364603481 -14.506950045472763 -15.811465674382958 134 101 73 255
-22.603119602831867 -13.724040204765956 -15.748111912414544 127 94 61 255
-22.627205303313417 -12.973769076515438 -15.743185408816515 121 86 53 255
-22.651305539709540 -12.223460987437022 -15.738275230483396 108 73 39 255
-22.096743525945868 -11.709356117092526 -16.142310744296395 107 68 35 255
-21.790106239882476 -11.096923704373225 -16.371127445005698 164 125 94 255
-20.987302216884785 -10.692334292132941 -16.950507212969285 176 136 106 255
-20.763200940567401 -10.051164551385583 -17.120974047877212 182 138 111 255
-19.877440970679885 -9.690186607120793 -17.758872790527818 182 138 112 255
-19.487777411753484 -9.124473423147947 -18.046265412270685 173 127 101 255
-19.511647167482778 -8.384524821041268 -18.041549957302806 159 113 87 255
-19.866452488864638 -7.501920540188479 -17.803131580168440 140 98 73 255
-20.221347327527411 -6.617054168992652 -17.564719321847804 123 88 61 255
-20.410839191984707 -5.802280783735469 -17.443181650485855 104 74 46 255
-20.352120973315522 -5.095666494315907 -17.496964909424037 92 65 38 255
-20.541699189430688 -4.279302376285472 -17.375460585068197 81 56 29 255
-21.145199065542442 -3.276760116534007 -16.961775910620759 69 48 21 255
-21.997189598627131 -2.158499974228448 -16.372767731160337 58 41 13 255
-22.766588973593883 -1.072213419520523 -15.842191164334992 50 36 9 255
-25.265974295049574 -19.972588603714556 -12.805450067815599 188 170 133 255
-23.889642889868099 -19.730027500458121 -13.796706046686779 194 160 131 255
-23.007438942756210 -19.311968832222647 -14.436369121782747 198 164 138 255
-22.866750681079168 -18.620384757143867 -14.548568536114232 194 162 137 255
-22.396359890252285 -18.055187964439313 -14.895246198472051 186 156 132 255
-22.173159578552912 -17.398456375217492 -15.066109013712662 175 145 121 255
-22.032354699193462 -16.711481654642000 -15.178377609088813 164 134 108 255
-22.138862469228684 -15.929180013277417 -15.114806994508029 153 121 98 255
-21.998037165449148 -15.243538860148661 -15.227112130639085 141 109 82 255
-21.774726718710639 -14.591634510514467 -15.398062284396161 134 101 71 255
-21.633848383527123 -13.908382839477653 -15.510412496609064 125 92 59 255
-21.822868890468470 -13.093325000925105 -15.388276620356294 122 87 54 255
-21.599494256230940 -12.444571566808705 -15.559293341715033 117 83 48 255
-20.881097283431444 -11.999921631614257 -16.082119901022509 137 98 65 255
-20.575089427997966 -11.389962026235963 -16.311832551201462 158 119 88 255
-20.186512622881054 -10.816401810018505 -16.600209774190034 175 134 104 255
-20.127958953437627 -10.107221197740230 -16.654078155248158 178 134 107 255
-19.574210931790191 -9.607520344268522 -17.059792394495986 176 132 107 255
-19.102898985716308 -9.076420167385905 -17.406909198595656 166 120 95 255
-18.961698840128946 -8.406977213420632 -17.519500859929082 152 108 81 255
-19.150715756834870 -7.595941362004098 -17.397547184379590 134 94 68 255
-19.339786487879167 -6.783725337057973 -17.275605527299689 116 81 54 255
-19.446335766989478 -6.006507543318122 -17.212322366280716 98 68 41 255
-19.470337990751261 -5.265091110619281 -17.207703197307012 87 60 33 255
-19.989921528096801 -4.303189401584191 -16.851207673955628 78 53 26 255
-20.840040448608761 -3.189920829626757 -16.260108282675503 65 46 18 255
-21.938189877708822 -1.959297985653862 -15.493038351130224 54 39 10 255
-22.540871923393979 -0.946724194555941 -15.077873110357871 47 34 8 255
-25.828491476369891 -20.330526611674316 -11.447328407268174 190 184 143 255
-24.208708432713195 -20.170677862079643 -12.618630082155590 197 173 143 255
-22.999699934291243 -19.869067702245914 -13.495906848143420 201 168 144 255
-21.954902452376871 -19.514005265729352 -14.255601963063896 201 168 144 255
-21.896767106925068 -18.793278720957218 -14.309453692057076 195 163 140 255
-21.838623560360134 -18.073104627058953 -14.363320881330395 184 154 130 255
-21.862729508886019 -17.321878705340779 -14.358375196613224 174 143 119 255
-21.557782066739946 -16.698128539923189 -14.588763923296796 164 130 105 255
-21.335050420302565 -16.044395086079732 -14.760347541439359 152 119 92 255
-21.194561065451182 -15.359862303834703 -14.873121063548354 143 110 82 255
-20.971756713169128 -14.709071616051702 -15.044751017123588 134 101 70 255
-20.831212989508344 -14.026929327610219 -15.157568002407771 127 94 61 255
-20.690647171104615 -13.345837927455065 -15.270406336534421 127 94 60 255
-20.220787863472879 -12.799746963776983 -15.618630307966697 130 96 64 255
-19.503857860396153 -12.358131965248177 -16.143418377723123 149 111 79 255
-19.280797686160071 -11.717154945713773 -16.315186272568781 160 121 90 255
-19.387076345855093 -10.940545964285079 -16.251595499112170 168 128 99 255
-19.246329299331109 -10.267042688978094 -16.364561067881965 170 127 102 255
-18.858478633894151 -9.699069593540415 -16.654098798621078 168 124 99 255
-18.470557093629168 -9.133722020230977 -16.943670414288761 156 112 86 255
-18.494460086721745 -8.394092819510405 -16.939011033456012 142 101 75 255
-18.353605111853767 -7.725673404751248 -17.052078589012581 125 89 62 255
-18.459922632203813 -6.950474901206150 -16.988601504592737 109 77 49 255
-18.731086748590855 -6.102247789464315 -16.807423070649321 92 65 38 255
-19.002322667678527 -5.252284580365554 -16.626253180712695 83 57 30 255
-19.933013073975530 -4.106722664269881 -15.974200713843061 74 51 25 255
-20.699053968505012 -3.029084757449468 -15.439857299035907 61 44 18 255
-21.959916002843102 -1.722801843199974 -14.552315389876867 51 37 9 255
-22.479021742621768 -0.746144148278418 -14.194542058938481 44 32 6 255
-24.360036452455006 -20.676652343421225 -11.554309968167018 202 179 147 255
-23.235859898490730 -20.338635314159006 -12.375730426002775 203 172 146 255
-22.439654729480793 -19.886115682888715 -12.961075662466897 206 170 148 255
-21.397102922961238 -19.531400836432240 -13.723574025367270 202 169 144 255
-21.092954958122277 -18.904154705785587 -13.954792742127239 195 163 140 255
-20.952901580913448 -18.216414802350997 -14.067958518408375 186 154 131 255
-20.730736213718956 -17.561365672677439 -14.240183888719059 176 144 119 255
-20.672718399679468 -16.844191243470704 -14.294346336685777 165 131 105 255
-20.614693253428044 -16.127552525088845 -14.348524546439791 151 117 90 255
