ply
format ascii 1.0
element vertex 647
property float x
property float y
property float z
property uchar red
property uchar green
property uchar blue
property uchar alpha
end_header
-19.183003182488306 -0.875043073301811 -25.576662885667332 53 41 12 255
-40.735581732901153 -16.684280166699665 -9.688411148008953 115 90 60 255
-39.337085168979570 -16.398738650272904 -10.650163180581217 137 97 71 255
-38.775913635290237 -15.817662309701305 -11.042887511354081 187 141 118 255
-37.209409286764753 -15.609319495366861 -12.118611059805033 103 57 33 255
-35.307483880939202 -15.535311777147712 -13.422084418663388 181 135 111 255
-33.824108917356142 -15.317312723731121 -14.441080076632744 181 137 112 255
-32.843207840006500 -14.919710212490557 -15.118651065456163 179 135 110 255
-22.918722301037832 -17.192950505876482 -21.881615202683491 169 128 103 255
-19.840928545128605 -17.649549659163682 -23.982666126405036 204 169 142 255
-18.355264855463503 -17.506047462162087 -25.002278564866373 194 163 137 255
-17.707683909938424 -17.043189162791506 -25.452698180636190 181 151 125 255
-17.730752018041073 -16.319215894094000 -25.447729197486865 173 143 117 255
-17.753838627936062 -15.595202590969436 -25.442781319026238 162 134 110 255
-17.860807757032575 -14.837427128848333 -25.380921535424392 154 127 98 255
-18.051685969764492 -14.045072427801855 -25.262144896011307 146 119 90 255
-18.829783554915167 -13.011784274573529 -24.744823317312807 138 111 81 255
-19.188611708282309 -12.146197372117513 -24.512187453127325 134 105 74 255
-19.463633194965951 -11.313171479241674 -24.336501890754477 130 102 66 255
-19.151383417557867 -10.723911757201407 -24.559428328456420 130 101 65 255
-18.419511582797014 -10.313413078257142 -25.067116110011312 129 99 65 255
-17.687507718928714 -9.907685817818162 -25.574861466664629 140 109 76 255
-17.207170127057964 -9.399089454287122 -25.911820886244868 154 121 90 255
-16.810694952626676 -8.857480530349704 -26.191878240457470 156 122 94 255
-16.833908929113306 -8.136364861347062 -26.187222913595576 157 123 95 255
-16.353397383964023 -7.635261883657293 -26.524314199907678 157 122 94 255
-16.124711084522858 -7.026393462455928 -26.690589617596373 152 117 89 255
-15.644072066122561 -6.530701109592101 -27.027773798249598 142 107 79 255
-15.667266758581718 -5.813100744959996 -27.023257679802896 131 97 69 255
-16.110459714879028 -4.906483831945494 -26.733971180720800 117 86 57 255
-16.637773379493098 -3.958951687011250 -26.387736426713531 100 74 43 255
-17.333246326970368 -2.931368337345489 -25.927585800012537 82 61 30 255
-18.028892227632866 -1.899267777768841 -25.467440186825343 69 51 20 255
-18.808741048531289 -0.823783638289385 -24.950333798594215 54 41 14 255
-38.667485918073510 -16.444490981135829 -10.140148137927497 111 105 62 255
-37.355218600415100 -16.138325674190199 -11.048510536700775 140 108 78 255
-36.795072320556670 -15.564078502461129 -11.442824249243131 112 58 37 255
-35.398753243847494 -15.303821403412215 -12.408452195367630 192 148 123 255
-33.333235028171117 -15.303072039446022 -13.831193645062854 186 140 116 255
-25.102969809624057 -16.901745320700726 -19.476516073683882 208 166 143 255
-20.693841289211377 -17.853528482148207 -22.499454563888918 207 168 145 255
-18.626004606661184 -17.927567913926225 -23.922789431284940 202 166 143 255
-17.561651739816512 -17.623410727659063 -24.660576743990276 194 161 136 255
-16.831758733226593 -17.194608767814614 -25.169871019373062 183 151 125 255
-16.520104749087466 -16.604734484506878 -25.393508377271473 175 143 118 255
-16.459451598530848 -15.916630746874915 -25.445749241476420 165 134 108 255
-16.649877517245983 -15.127859943536805 -25.326577583410455 156 126 100 255
-17.007759607726030 -14.269974818972827 -25.093124988927372 149 120 91 255
-17.784280168643875 -13.238564448252220 -24.573933305266848 139 111 81 255
-18.477258378483867 -12.236755720973960 -24.111882625228532 135 106 76 255
-18.416851394495666 -11.543763587948121 -24.164202142006502 132 105 73 255
-17.854033734336014 -11.061662705696392 -24.559476814599350 136 107 75 255
-16.956139026289293 -10.724627545422933 -25.183426247085919 138 109 77 255
-16.141829815718381 -10.357833643916237 -25.750280934358670 139 109 78 255
-15.829942308604473 -9.781049619170147 -25.974235972287602 146 115 85 255
-15.434239079457143 -9.242474147876777 -26.255392170483276 151 120 91 255
-15.624929455764800 -8.451521852126604 -26.136447490819847 150 119 91 255
-15.480528302734115 -7.806141361552065 -26.246183084898206 150 115 86 255
-15.419915683419475 -7.124747348084568 -26.298785644440500 146 111 83 255
-14.940285172134736 -6.629932807061067 -26.637262225687749 137 102 74 255
-14.963463570784455 -5.913182853199999 -26.632765351676255 124 90 62 255
-15.573432259464226 -4.931840236370618 -26.228093001280058 113 82 53 255
-16.351217038278890 -3.870448009709520 -25.709078914348765 98 72 41 255
-17.213030998114050 -2.765689625272898 -25.132889232486860 81 60 29 255
-17.739654464234661 -1.809688873927584 -24.785404850498736 66 50 19 255
-18.350274070584817 -0.811384679057994 -24.380753186070393 51 40 12 255
-36.296942682305598 -15.549630405322404 -10.823923052834431 131 87 60 255
-35.654479708550070 -15.010260132698392 -11.277143756544916 179 137 109 255
-20.789805448498527 -18.352481630454079 -21.525548253093376 211 169 147 255
-18.142232421886433 -18.642773296836197 -23.355569844419421 208 169 147 255
-17.497614264083268 -18.173339538458166 -23.809361427073128 201 165 143 255
-16.936361126860049 -17.675562006066357 -24.205850297030423 195 160 135 255
-16.375003335685449 -17.181539622351096 -24.602383553394702 185 151 126 255
-15.813541388556217 -16.691266486532157 -24.998961540382368 176 144 119 255
-15.753055376429131 -16.004004752837858 -25.051448917350257 166 135 107 255
-15.776091757021874 -15.283513025371008 -25.046602132045734 159 128 101 255
-16.049738179818121 -14.460983111326712 -24.869697080709443 153 124 94 255
-16.490533957787477 -13.568242522750680 -24.578079420960563 143 114 84 255
-16.847888190945469 -12.707271160236928 -24.343828471318830 141 111 83 255
-16.703993031246938 -12.052903928365765 -24.453774989703987 139 112 81 255
-16.810779895065991 -11.294309368474842 -24.391650982401245 139 112 80 255
-16.081867088654292 -10.888557007395562 -24.903231497854335 139 110 80 255
-15.519985464948974 -10.416343256868331 -25.300126741295259 140 111 81 255
-14.623640042358915 -10.091364949220420 -25.926558545066626 141 112 82 255
-14.479526581877991 -9.446806538403649 -26.036689347443883 145 116 86 255
-14.669837364932874 -8.657501701000612 -25.917350010044487 142 113 83 255
-14.525738354831901 -8.013788613005801 -26.027537977465727 143 108 78 255
-14.548882456139893 -7.297088734390684 -26.023000860831104 135 102 71 255
-14.321148257694006 -6.691971372094045 -26.190632017889413 129 96 65 255
-14.427963340397582 -5.938288914451320 -26.128770999102215 118 87 58 255
-14.953085988358282 -4.995003509361695 -25.780014052733094 110 81 51 255
-15.729326222813597 -3.934149457641922 -25.259108001839707 95 69 41 255
-16.756764095680381 -2.753279479653685 -24.566038623277734 81 60 31 255
-17.700764662360228 -1.604321031933267 -23.930347819597870 66 47 21 255
-36.464840930027833 -15.289157259961527 -9.744598216701689 132 139 90 255
-34.325074295207486 -15.306216317858073 -11.235468093803007 141 119 83 255
-18.158149628677677 -19.166921152434284 -22.442938168647885 207 166 144 255
-16.682035664886598 -19.014879250380275 -23.474006490345118 206 169 147 255
-16.288629847099202 -18.451609739357124 -23.756867988253816 201 165 143 255
-15.978469202573251 -17.858371633694276 -23.982202624118628 195 160 135 255
-15.834905386042976 -17.201428827111940 -24.092440843879245 187 153 128 255
-15.524655186084715 -16.611914842380187 -24.317837165015334 178 146 120 255
-15.547722504056622 -15.890683264505441 -24.312994440468458 167 136 108 255
-15.487455770761784 -15.203137783179031 -24.365740796811735 161 130 101 255
-15.510549304540007 -14.482081470436199 -24.360938742692667 157 128 96 255
-15.617029694819252 -13.726697252011263 -24.298583358724414 149 120 88 255
-15.473414975153872 -13.074331211479077 -24.408970805716677 149 120 90 255
-15.246399396855310 -12.457786341604461 -24.576963505449186 145 119 86 255
-15.269535546257828 -11.737541243875270 -24.572251989460199 143 115 82 255
-15.125886235342136 -11.087914674149260 -24.682723641322269 140 112 81 255
-14.148104797390545 -10.795497112788297 -25.369047959466059 139 110 80 255
-13.670660260655296 -10.294115085306018 -25.709932771679519 138 109 79 255
-13.693709850211718 -9.578895288491694 -25.705347045308656 138 109 79 255
-13.883658958416390 -8.790695609514287 -25.585610121155725 136 107 77 255
-13.739880050550283 -8.148107466332334 -25.696247576340966 136 103 70 255
-13.679546527027497 -7.469498172969224 -25.749325758964346 128 97 63 255
-13.619221021267634 -6.791293121179123 -25.802432652928189 120 90 59 255
-13.809323279790334 -6.000938017646675 -25.682785773061113 111 82 50 255
-14.082969338394832 -5.171560798930372 -25.505562492893887 102 76 43 255
-14.857639210451623 -4.112055779558389 -24.982770066280722 89 66 36 255
-15.715995140459739 -3.009177744488412 -24.402375875062120 77 58 28 255
-16.908589093118479 -1.746307532841328 -23.591572883977165 62 47 19 255
-17.850909014335599 -0.592270009929365 -22.953560509533276 46 37 10 255
-19.169191622970459 -19.315349238806192 -20.834499463228241 206 174 149 255
-16.865275921340498 -19.472146941160347 -22.447032344838391 206 171 146 255
-16.057205417266118 -19.065999158939704 -23.019803539749944 202 166 144 255
-15.830936595209096 -18.438547327175357 -23.188216860000125 197 161 139 255
-15.438338436795107 -17.878006362198278 -23.472207376368090 193 158 133 255
-15.378286610971827 -17.188442131706324 -23.525126767019458 187 153 128 255
-15.151906529190001 -16.565776813358141 -23.693624139871702 178 146 120 255
-15.175005792694861 -15.844299873902244 -23.688809676057531 167 136 108 255
-14.865399784850354 -15.257719879558707 -23.915141670261590 163 132 103 255
-14.722119768600010 -14.605240438651705 -24.025939256190384 158 129 95 255
-14.246031697745764 -14.090886931318749 -24.367905589683630 158 129 97 255
-13.769857815914634 -13.579712519368741 -24.709912961594767 153 124 94 255
-13.376813742052605 -13.036894973810533 -24.994172577394238 145 118 88 255
-13.815940319031313 -12.145842008628932 -24.700561586641186 144 118 85 255
-13.506081365025040 -11.570210309072635 -24.927087748200449 140 114 81 255
-13.279414718551408 -10.961023511186241 -25.095854989659188 138 112 79 255
-13.135967068676507 -10.317463695837574 -25.206858476082346 134 108 75 255
-13.492058363564354 -9.457875282458318 -24.971104270073909 132 106 73 255
-13.515172631246770 -8.741762174705400 -24.966557358279971 128 102 69 255
-13.288481899554881 -8.135653543973106 -25.135437562258801 127 99 62 255
-13.228332396444500 -7.457081773689708 -25.188745874757558 120 92 56 255
-13.334777256856057 -6.704415892730808 -25.126472549959374 112 86 51 255
-13.607869734572091 -5.876024176453370 -24.948607954572282 103 78 44 255
-13.631107445981598 -5.159228202724776 -24.944182558124879 94 70 37 255
-14.237611493248750 -4.175840084010815 -24.535115297722371 85 65 34 255
-14.927594899793604 -3.150158517110626 -24.068239839860126 72 55 27 255
-16.367785353259308 -1.772534540548932 -23.081048346763623 58 45 18 255
-17.391572901686459 -0.579881169408310 -22.382901680074752 43 34 9 255
-18.017482021578218 -20.287365717923251 -20.725834160137708 203 196 161 255
-16.879704902402125 -19.996810328410092 -21.532577551526742 205 173 149 255
-16.156444128082256 -19.554568679027568 -22.049479393664342 203 169 144 255
-15.681913923184453 -19.020823078762362 -22.392479232387473 199 165 142 255
-15.041360257812499 -18.555084653380590 -22.851486769607845 195 159 137 255
-14.400681919017302 -18.093648947958002 -23.310539259246326 189 154 129 255
-14.506732859495855 -17.340143484804400 -23.247738074650471 184 150 125 255
-14.363838618171684 -16.685666612374305 -23.358921748495590 176 144 118 255
-14.220924973268694 -16.032233536543274 -23.470129782079368 167 136 108 255
-13.911973086893937 -15.447317915627920 -23.697350851011322 166 135 106 255
-13.270894772223158 -15.000554430340358 -24.156587852640229 161 132 100 255
-12.878775718195129 -14.455216917339698 -24.441878564964810 160 131 99 255
-12.403551623506246 -13.947069340455144 -24.785205193980801 156 126 98 255
-12.592596617739275 -13.163530077081177 -24.664562455794254 148 121 91 255
-12.449482616101335 -12.519197661819931 -24.775944178750962 142 116 86 255
-12.389414887329934 -11.840502337681187 -24.829348247691257 138 113 82 255
-11.997067541355960 -11.304783577338370 -25.114802023043524 134 109 78 255
-12.269287427894682 -10.484456621368395 -24.936228729055046 132 107 76 255
-12.458492812146886 -9.698575219762986 -24.815676355173906 129 104 73 255
-12.647754905515967 -8.911500135775938 -24.695138965550569 124 99 68 255
-12.837074407708855 -8.123223445134997 -24.574617060836488 120 94 57 255
-13.026452027104085 -7.333737067779893 -24.454111145215023 113 88 52 255
-13.132765524141973 -6.580286936255376 -24.391638388496261 104 81 45 255
-13.239121040967774 -5.826151730077754 -24.329185989046977 99 76 43 255
-13.345519284132280 -5.071323063551361 -24.266754434597942 88 68 35 255
-13.867707450430686 -4.125461323583849 -23.914235926146688 78 60 29 255
-14.639502064711849 -3.061169786572677 -23.387652867994206 65 50 21 255
-15.577816395582659 -1.914608647988359 -22.745016111262601 52 41 14 255
-16.682704360007392 -0.684141549749882 -21.986316630704380 37 31 5 255
-15.898784924225652 -20.900430057237386 -21.313801773642780 200 181 149 255
-15.177104069480464 -20.457442128705011 -21.832629826146388 202 167 145 255
-14.869170934780186 -19.860043512779598 -22.060535948026285 198 162 140 255
-14.561180568772130 -19.264799124167467 -22.288471015522447 195 159 136 255
-14.253133460308561 -18.671703242068745 -22.516435369854520 188 152 130 255
-13.779421514477377 -18.146078832553812 -22.860827649817878 180 145 121 255
-13.636870983521078 -17.491933697894169 -22.972453299598016 178 144 119 255
-13.659943041809044 -16.772430010797962 -22.967696648027157 172 141 114 255
-13.683029666475704 -16.052890335100813 -22.962956404650413 167 136 108 255
-13.126258796408365 -15.569521612256395 -23.365676933199126 166 135 106 255
-11.989448774358863 -15.327990158264143 -24.175895746421702 164 135 103 255
-11.432406014778564 -14.853972524118703 -24.578712806857197 160 131 101 255
-11.372448331912381 -14.176344532407953 -24.632302988080312 158 128 102 255
-11.892606413447368 -13.255410917462598 -24.278421823691161 149 122 94 255
-11.666945218772270 -12.647020366940907 -24.448473888448916 140 115 85 255
-11.524141385859735 -12.004803324171888 -24.560338735448539 135 110 80 255
-11.464221609299898 -11.327942070998319 -24.614011545937984 131 106 76 255
-11.570121184765924 -10.579712043635297 -24.551267329529793 127 102 71 255
-11.593141247636197 -9.867014462493486 -24.546762011077448 124 99 68 255
-11.864960329526014 -9.044863671112424 -24.367606634396907 117 92 62 255
-12.136853475909675 -8.220971226716330 -24.188462351011111 112 88 50 255
-12.242934333614670 -7.469305484344332 -24.125783676477710 104 82 45 255
-12.680864824512014 -6.567928390095503 -23.830209085623892 97 74 40 255
-13.201867705319330 -5.626172732528602 -23.476410073977320 91 71 39 255
-13.557060549513864 -4.756617801938575 -23.239078260754127 82 63 32 255
-13.995327389208114 -3.846665996201253 -22.943523169607431 73 56 28 255
-14.599682882297628 -2.857154027084221 -22.531505128061184 61 47 18 255
-15.453177010618390 -1.747834574992382 -21.944777995467632 48 39 11 255
-16.555890092153163 -0.516258979487588 -21.183327814816408 32 28 1 255
-15.438708221486820 -20.887356404239469 -20.742192013391019 199 168 143 255
-14.883791603502004 -20.381252292290000 -21.146158734005638 191 159 134 255
-14.163549713680794 -19.942646889665383 -21.666976080413008 188 155 130 255
-13.525779641817252 -19.476767547794651 -22.129431806802586 184 150 125 255
-13.548881664260392 -18.756004422391499 -22.124653894542064 180 146 121 255
-13.076195006124493 -18.231239296847107 -22.470358541682913 175 141 114 255
-12.603417241439217 -17.709691751763557 -22.816099440941059 173 139 112 255
-12.213199660562282 -17.158146544441664 -23.103461986022722 170 139 111 255
-12.153547283857847 -16.475349142072133 -23.157191176554846 166 135 106 255
-11.845887388512892 -15.894298986864783 -23.386195133239227 162 130 105 255
-10.876757929721123 -15.587519135239674 -24.082590917017995 161 129 104 255
-10.403548811428806 -15.081429460442180 -24.428513846507940 159 127 102 255
-10.674499768954092 -14.267481224046378 -24.248661709923681 154 124 98 255
-11.359034379952476 -13.277693611082995 -23.776689534165229 148 118 92 255
-11.216608628715761 -12.634511992090466 -23.888978854779907 141 112 83 255
-10.908724965995759 -12.063071088555589 -24.118151049023226 134 106 76 255
-10.766248112775969 -11.422421991343313 -24.230494478666031 126 101 70 255
-10.871968833327060 -10.675024710039096 -24.167566931656523 121 99 67 255
-10.729486725464710 -10.035528488566555 -24.279957343596948 116 96 63 255
-10.918011140083166 -9.251195280591290 -24.158631665775431 109 91 57 255
-11.354883598541363 -8.355494811411106 -23.862007393371101 102 85 49 255
-11.709092166266970 -7.493956380309626 -23.623826028748823 95 77 44 255
-12.311737835946644 -6.518328986371657 -23.210330288365839 89 71 39 255
-12.914529107601794 -5.538770827279578 -22.796832832139188 84 67 37 255
-13.600266015941656 -4.517467762264957 -22.324890230540547 77 60 30 255
-13.872127760123703 -3.682050846595644 -22.145172134118269 70 54 25 255
-14.558151244723263 -2.653109250030255 -21.673230706544501 59 46 19 255
-15.492818216175721 -1.503805182873720 -21.025939900860948 43 35 9 255
-15.037729676365871 -21.570492231129776 -20.116787660727198 196 171 140 255
-14.813775303208587 -20.936977765310530 -20.287792091685276 190 157 132 255
-13.518214160614406 -20.715809494600762 -21.220833221524998 188 156 131 255
-12.799443252287261 -20.280235777049853 -21.743616906503263 182 150 125 255
-12.492754048417424 -19.688848053226806 -21.973345835608711 178 144 119 255
-12.433368861574763 -19.002397955343042 -22.027237118451069 176 142 117 255
-11.796739112016297 -18.545189336240412 -22.491510503299196 173 139 112 255
-11.324925572770184 -18.026390893288806 -22.838575689771204 169 138 110 255
-11.100460794369951 -17.411162267393365 -23.009795283015308 165 134 106 255
-11.040934631590630 -16.730550999457591 -23.063782574550288 162 131 102 255
-10.733912525428650 -16.151701921450979 -23.293680243802925 159 129 103 255
-9.931798342007966 -15.779113003929197 -23.875401286621809 157 126 101 255
-9.789643608050625 -15.137516550838569 -23.988100533885557 153 123 97 255
-10.225134121115417 -14.254987545547792 -23.690372398544270 148 119 93 255
-10.578195342297533 -13.404524785624162 -23.451281068824159 142 114 87 255
-10.601178849201517 -12.692246985626483 -23.446749862256269 136 109 79 255
-10.706729066363920 -11.944512917745556 -23.383595072871856 129 103 72 255
-10.812314332194489 -11.196150268888985 -23.320454610689580 122 98 66 255
-10.670233738025729 -10.554899518339354 -23.433261916862506 116 96 63 255
-10.280409173457855 -10.023186329102131 -23.722032620952433 111 93 60 255
-10.551193759997943 -9.202413408087850 -23.541657273621183 104 88 54 255
-10.987237667778459 -8.306446047972059 -23.243992297525381 99 84 49 255
-11.423389784332926 -7.407648379181865 -22.946330267862834 92 77 42 255
-12.024872790208576 -6.431475457547307 -22.531366223394770 86 71 38 255
-12.709120375822238 -5.413833634549562 -22.057745132164911 80 63 33 255
-13.145645506440047 -4.505139108729267 -21.760086748113167 73 57 26 255
-13.251732445659258 -3.745898527778778 -21.697064080390732 65 51 22 255
-13.771091747987498 -2.794193953492197 -21.340763497294319 56 43 16 255
-15.034476354944246 -1.491467215556170 -20.456517401765524 41 33 7 255
-13.156161534179660 -22.808380153204894 -20.549698533842133 198 176 141 255
-13.672778929607659 -21.899137532305986 -20.191965577652297 191 159 131 255
-13.120277971795446 -21.393938498466511 -20.598972387514891 185 152 127 255
-12.320893350835036 -20.987322373677429 -21.182501931157049 184 154 126 255
-11.685876842784893 -20.522370479485630 -21.648418158496611 178 148 122 255
-11.133006307968515 -20.029595756344420 -22.055542885192494 176 144 119 255
-11.073724301371755 -19.346138704067656 -22.109701129819115 177 143 118 255
-10.356100794415511 -18.924635969622727 -22.634561880006373 173 142 114 255
-10.214436705333782 -18.277330199937040 -22.747605104677888 168 137 109 255
-10.155059212687320 -17.597857780566898 -22.801829764173505 162 131 102 255
-10.177994881147640 -16.885402421094383 -22.797230944758411 158 129 99 255
-9.789310261730435 -16.341702049622725 -23.086860125695864 156 126 100 255
-9.235881445408438 -15.868714366528820 -23.494210264513356 153 123 97 255
-9.176409330032754 -15.193659515062464 -23.548522502445564 147 120 93 255
-9.363992794031560 -14.415377021055932 -23.426309814891368 143 116 89 255
-9.304541693632018 -13.740466436093797 -23.480654829863937 137 110 83 255
-9.739310333704623 -12.855364105207101 -23.181911349514081 130 105 75 255
-10.009424556097798 -12.038239466201006 -23.000873323838135 123 100 68 255
-10.444383473079199 -11.148105207113247 -22.702132469962976 117 95 63 255
-10.302671936479300 -10.506617664151776 -22.815386825643316 112 93 60 255
-10.243348598357159 -9.829918256819866 -22.869807389358670 107 91 57 255
-10.431268240365711 -9.044265858806298 -22.747669903504743 100 86 51 255
-10.701664822075401 -8.220682692955194 -22.566682581073337 96 83 48 255
-11.301859879677750 -7.247342503250024 -22.150251523250802 89 76 41 255
-11.737317607466025 -6.344627346297401 -21.851545878068691 84 71 37 255
-12.255333328789732 -5.401521430445811 -21.493976826723241 77 64 32 255
-12.361186776931959 -4.644087800654930 -21.430748231164216 70 57 25 255
-12.714480258936192 -3.771699886002253 -21.190927635908196 63 49 21 255
-13.150342721987442 -2.858623067178740 -20.892243434497772 54 42 16 255
-14.328676143379113 -1.595025192451658 -20.063707871227052 40 33 7 255
-12.862827541631361 -22.733910565089616 -19.863280560060645 190 161 132 255
-11.983294846686761 -22.352191551984163 -20.507945425319406 185 153 128 255
-11.596045728858911 -21.788424981962976 -20.798424959990314 180 150 123 255
-10.962459483472770 -21.322175942470452 -21.266056092740314 178 147 119 255
-10.000363370911060 -20.987742619472144 -21.969897619445703 176 145 118 255
-9.284379630508795 -20.563355271974586 -22.496659618300981 172 140 115 255
-8.978811601943789 -19.981751006678778 -22.728234083444249 169 137 112 255
-8.837426721467409 -19.336924344807329 -22.841738888037469 168 137 109 255
-8.778147797148506 -18.660202837408448 -22.896213548257691 163 133 105 255
-9.375970850199991 -17.718204753245516 -22.478293143163427 158 129 100 255
-9.563191673630882 -16.939860881274470 -22.355627532466542 154 125 95 255
-9.175368417496401 -16.396743526504949 -22.646352812043062 150 123 96 255
-8.623141733193393 -15.924348757297111 -23.055222438251633 148 121 94 255
-8.399499780049638 -15.318466918497137 -23.227897018601084 144 118 91 255
-8.340183522185185 -14.644998518379694 -23.282476317592881 140 114 87 255
-8.363055012658407 -13.937160410672718 -23.278012128841112 132 106 79 255
-9.043537665022569 -12.948333530591867 -22.801055637805177 123 103 70 255
-9.806383907248147 -11.919718843649335 -22.265022447858229 118 98 65 255
-10.158318559440374 -11.064427817784463 -22.024308853703275 113 94 61 255
-9.852533718149459 -10.494282613006533 -22.256146035699459 108 92 58 255
-9.711165078196245 -9.853806933636321 -22.369872921388037 104 89 54 255
-9.898752312474699 -9.068439483263560 -22.247336107125221 99 86 51 255
-10.168645012487502 -8.245137185447859 -22.065736449932473 93 80 45 255
-10.603130984585903 -7.346073699896891 -21.765994225462123 87 74 39 255
-10.873185036544726 -6.518727253658710 -21.584407137768238 81 68 34 255
-11.554704145703937 -5.501876513571091 -21.107436436962843 75 62 30 255
-11.742661382338582 -4.707458133382687 -20.984938789138397 69 56 24 255
-12.259859446529731 -3.759441703187733 -20.626127048022880 61 47 20 255
-12.612575599280262 -2.884729640549963 -20.385482065660227 50 38 12 255
-13.788522045331575 -1.621366686492053 -19.553994920249011 38 32 7 255
-12.873049294759255 -23.261320120567049 -18.943731606465605 191 170 140 255
-12.405015068743666 -22.721068477235875 -19.294491691193315 180 149 122 255
-11.445495235245687 -22.370484387425932 -20.000781106515234 179 147 122 255
-10.567681584093464 -21.995055425532470 -20.647871399091201 176 146 119 255
-9.935431523728624 -21.530749580316012 -21.117251058161827 175 144 115 255
-8.893430054607194 -21.230157115574130 -21.882944214729491 175 144 116 255
-8.015077361299319 -20.872284932408888 -22.530180293175761 172 140 115 255
-7.710133883213899 -20.293415902577152 -22.762656830051725 169 137 112 255
-7.814882112089890 -19.553250456759713 -22.698857942295177 166 135 107 255
-7.673781095801417 -18.911399098150227 -22.812853132826092 161 131 103 255
-7.778559150306023 -18.170915837077430 -22.749076512275138 156 127 98 255
-8.047318731773487 -17.362862573770997 -22.566778230192057 152 122 93 255
-7.988201829251864 -16.688223828360151 -22.621550635291726 146 119 92 255
-7.847085869559237 -16.048118333564389 -22.735608303366547 144 118 91 255
-7.541942558916048 -15.477658769495164 -22.968227102487077 140 114 87 255
-7.400765243678308 -14.840143990981545 -23.082328854604498 134 110 82 255
-7.423606791350295 -14.133946643206087 -23.077903649815113 128 104 76 255
-8.102692944430515 -13.146723614515025 -22.599288391168841 120 99 68 255
-8.863971342435178 -12.119708852564301 -22.061383594508726 112 96 62 255
-9.133144768990519 -11.301701607670097 -21.879136982487523 107 91 57 255
-8.992111278568103 -10.661628884406795 -21.993298524396749 105 91 56 255
-9.179314454429573 -9.877735132144039 -21.870353446619362 102 88 53 255
-9.448642258548205 -9.056180723644090 -21.688133812750692 98 85 50 255
-9.882203003872377 -8.159405473631367 -21.387349480465843 96 82 47 255
-10.151689325358149 -7.333824598154607 -21.205139718667851 90 76 41 255
-10.339148090013282 -6.543770451690179 -21.082225955182139 81 66 33 255
-10.855092377866015 -5.602283194247590 -20.722161159903607 75 60 29 255
-11.289045613937702 -4.695222984727266 -20.421386634356622 68 53 22 255
-12.051609048434841 -3.632922994500206 -19.883439148052844 57 46 18 255
-12.814352396951534 -2.565583454352307 -19.345481073084159 48 36 10 255
-13.905848689866986 -1.338652211186329 -18.570325231420441 35 29 5 255
-10.861676494220831 -23.828612486120434 -19.503323634241497 185 157 130 255
-11.211720287110836 -22.985503684470899 -19.260828652411590 176 145 124 255
-10.499386228382917 -22.544201497829732 -19.791335284267319 172 141 117 255
-9.541695082372030 -22.201801689510432 -20.500274115539099 174 144 119 255
-8.665547488323853 -21.834276987721324 -21.149798987326534 173 142 116 255
-7.870969876908077 -21.440811841323153 -21.739904853894132 170 140 113 255
-7.485036900752789 -20.891978628387562 -22.032710899980998 171 139 114 255
-6.608401168413423 -20.540374849073032 -22.682368816110284 168 136 111 255
-6.876495694524891 -19.736994180674344 -22.499461981821526 164 134 106 255
-6.653923111601188 -19.129751400856506 -22.673400601836818 157 127 100 255
-6.840292935867978 -18.357936818765495 -22.549981830764722 153 123 95 255
-6.617680130041805 -17.752525461914530 -22.723955524556061 148 120 91 255
-6.722283497363691 -17.013602839251163 -22.660034526777423 143 118 88 255
-6.990562071572811 -16.206008429668344 -22.477160559634370 141 116 86 255
-6.849745957009475 -15.568309196814596 -22.591702038995948 136 113 82 255
-6.708907402150942 -14.931632464487251 -22.706263120884898 131 108 79 255
-6.813594815320755 -14.191410537543476 -22.642386133278876 122 101 72 255
-7.409461633291528 -13.239833460378051 -22.221593285187936 116 97 64 255
-8.169198689684464 -12.213606890625130 -21.681812102569381 109 93 57 255
-8.192227684315242 -11.503409525588651 -21.677433901987712 104 90 53 255
-8.133387397543260 -10.829053674894581 -21.732562744865760 101 87 50 255
-8.320224554803502 -10.046523155372668 -21.609226666269194 98 85 50 255
-8.752818684695796 -9.153377403191371 -21.307411105236696 96 83 48 255
-9.595070837795532 -8.073683533257693 -20.708106407313295 93 79 44 255
-9.864079607535956 -7.247570230183314 -20.525279244692655 89 75 40 255
-10.378943882485970 -6.307842053401387 -20.163955678350845 80 65 32 255
-10.648120922011913 -5.477398736757848 -19.981136404260326 75 60 29 255
-11.245153499296066 -4.493871872755832 -19.560307625777256 68 53 22 255
-11.924283887330745 -3.468300013310042 -19.079967534918751 55 44 16 255
-13.177320712429264 -2.169645937354133 -18.183067774522726 44 37 9 255
-14.512615886287733 -0.824052722897648 -17.226628813635813 32 28 3 255
-8.589162124327373 -25.201719066543916 -20.254564777128053 190 170 142 255
-9.019861369086954 -24.335062641380702 -19.951626810841361 181 149 126 255
-9.042915283488867 -23.619768131449888 -19.947042984689517 177 146 125 255
-8.658193725863356 -23.059880798659691 -20.240839516047316 173 143 119 255
-7.702436349225962 -22.722141032446942 -20.952394624252065 170 140 116 255
-7.235919731147419 -22.201183213176918 -21.305933626060323 169 139 115 255
-6.850888563770582 -21.651580380336952 -21.599823193286511 167 137 111 255
-6.710551778592617 -21.008201507031671 -21.714695983597096 167 135 110 255
-6.162188800934985 -20.528032934501027 -22.128000096738361 164 132 107 255
-6.021755706470174 -19.888141492891506 -22.242915205564572 160 130 104 255
-6.207766372142970 -19.117438904714433 -22.119102287902962 155 125 99 255
-6.312195434535113 -18.378868020915760 -22.054981283445841 149 121 95 255
-6.008477789414513 -17.807264374545952 -22.289316385953100 146 119 92 255
-5.867987882616347 -17.170227056232591 -22.404293441886438 141 116 85 255
-6.217387854613150 -16.329937383920409 -22.161130244470741 137 114 82 255
-6.566869163354397 -15.487436010921755 -21.917965351508002 129 109 76 255
-6.589753047944782 -14.781069115186384 -21.913584822678388 125 106 73 255
-6.612649262589571 -14.074637919355354 -21.909216612622629 116 100 66 255
-6.798932951296138 -13.297878493970444 -21.785461452938108 111 96 57 255
-7.312049389088259 -12.378365163140273 -21.422906790530192 107 92 53 255
-7.335055622273671 -11.669537873710851 -21.418563924520811 102 88 51 255
-7.603217100053399 -10.852800227648416 -21.235120299713628 100 86 49 255
-7.708001204869277 -10.106760025092029 -21.171093295912783 97 84 47 255
-8.466667948748125 -9.068232233340979 -20.629412856284489 93 81 43 255
-9.062028788861369 -8.098222925717621 -20.207136614957363 90 76 37 255
-9.657529232141940 -7.124304224431782 -19.784852204472458 86 72 35 255
-10.334927554897604 -6.109175943397005 -19.302847116951114 82 67 33 255
-10.440119407741889 -5.352511677930224 -19.238833118297009 73 58 27 255
-10.872448046185866 -4.443828107389962 -18.935966959551251 65 50 21 255
-11.632019960753468 -3.379868800865466 -18.394229678696632 52 41 11 255
-13.046113476761974 -2.003880590860163 -17.374725087140746 39 34 4 255
-14.705932779129228 -0.502576990992850 -16.176020087569299 26 26 0 255
-9.334449588611335 -25.453125750421435 -18.799432097293391 194 170 146 255
-7.893144621510288 -25.279991692271054 -19.872723136449508 188 153 131 255
-7.346579484446892 -24.780641486318558 -20.287368355521068 180 148 125 255
-7.044028049149119 -24.192658340507037 -20.522390688843387 177 145 124 255
-6.904183643467434 -23.544689327333671 -20.637661549322900 172 140 117 255
-6.194551265622749 -23.117281130509426 -21.172166054780206 167 135 112 255
-5.973185944580365 -22.505006707280771 -21.347369498578956 165 133 110 255
-5.588951983448652 -21.958140164143600 -21.642375470220941 166 134 109 255
-5.774580645677702 -21.188833933878698 -21.518153250195951 165 133 108 255
-5.471677438740244 -20.613034308453422 -21.753304423813233 162 130 105 255
-5.331588190707436 -19.973975964778759 -21.868684945087693 157 127 101 255
-5.517258825711764 -19.204088042362585 -21.744487821867096 154 124 98 255
-5.540062808209285 -18.499579448593281 -21.740094368241216 149 121 94 255
-5.481412167110108 -17.828551738134649 -21.795613036908293 142 115 87 255
-5.341281088492082 -17.191808900572212 -21.911049102491177 138 113 82 255
-5.608533023629917 -16.385838716250589 -21.726976348249735 134 111 79 255
-5.875848210715304 -15.578197446413782 -21.542904542778643 127 107 74 255
-6.061728069473958 -14.803471267710165 -21.418742549165444 124 105 72 255
-6.003131139998629 -14.132189808466507 -21.474316103305057 116 100 66 255
-6.433628359804487 -13.250578698074506 -21.170433370472125 111 95 59 255
-6.864225880948254 -12.366188025335177 -20.866546125210306 108 92 56 255
-7.131855943869652 -11.550357534999122 -20.682485059535765 103 89 52 255
-7.318009328865941 -10.768757197290853 -20.558343517308543 100 86 49 255
-7.585763644362089 -9.949761845056841 -20.374289783798474 96 83 48 255
-8.179827354476913 -8.983099108423218 -19.950558980418577 91 78 41 255
-8.610890689297150 -8.086045951362507 -19.646662204630871 87 75 35 255
-9.042057685492153 -7.186165525361233 -19.342762872552470 82 70 32 255
-9.718089761212042 -6.171561656149649 -18.859086467853103 78 65 30 255
-10.231088098159660 -5.227622605209049 -18.495251655815451 68 56 24 255
-10.907418758332085 -4.204614499464569 -18.011555792924241 57 46 16 255
-11.991975636240795 -2.986581163322782 -17.228200359027312 48 41 12 255
-13.240025249884525 -1.684586919385495 -16.324955936683750 37 33 4 255
-9.506074325326182 -25.920718392371697 -17.758521055130387 203 176 152 255
-8.555180303921503 -25.560581563831462 -18.475072666702687 194 162 140 255
-7.766458019127271 -25.146405973786628 -19.071484450624155 185 152 128 255
-7.302354348906476 -24.615471904991679 -19.427555183454700 175 145 120 255
-6.350915939992433 -24.272705268929258 -20.144237287468883 172 140 119 255
-6.130204527454737 -23.656653772632936 -20.320077009380043 167 135 112 255
-5.259660055173015 -23.293093498171601 -20.976739923127582 166 134 111 255
-5.038785814461448 -22.682464705374912 -21.152629220804187 167 135 112 255
-4.574143301565925 -22.169150631481926 -21.508848920883480 168 136 111 255
-4.678149325196728 -21.433904292574496 -21.444357170272298 166 134 109 255
-4.457147034855012 -20.827858764212309 -21.620300249942744 163 131 106 255
-4.479900870843380 -20.125298302227492 -21.615934970209395 159 129 103 255
-4.665214190072277 -19.356764192943459 -21.491357210126239 154 124 98 255
-4.769286415749576 -18.620371960245365 -21.426894443308242 149 121 94 255
-4.792091712641025 -17.916925598029877 -21.422551918127709 141 114 87 255
-4.733604230476686 -17.247229049727565 -21.478334861954096 137 112 80 255
-4.837730410597004 -16.509914159788451 -21.413896238573727 131 108 74 255
-5.185842792838798 -15.669026608369634 -21.169107261400001 125 105 70 255
-5.534035830066841 -14.825921482043398 -20.924315469929439 119 101 64 255
-5.719635849517687 -14.050327212915917 -20.799765879396375 112 97 59 255
-5.742590674062853 -13.343857657088108 -20.795468630070388 108 93 54 255
-6.172330553763459 -12.460270595337008 -20.490554257418296 105 90 50 255
-6.520807191347927 -11.609575205534526 -20.245762186642196 101 88 47 255
-6.950739176963054 -10.720677525807844 -19.940839776726420 99 85 46 255
-7.136629361599660 -9.937634151639642 -19.816304605550869 94 82 43 255
-7.648127799787687 -9.007446003516350 -19.451246429388561 90 78 38 255
-7.996948935423205 -8.147417834038080 -19.206448791175148 85 76 35 255
-8.590077669830833 -7.174013859737784 -18.781244731365206 78 70 31 255
-9.020512637075569 -6.271293464821980 -18.476305075018132 70 62 26 255
-9.613901844498514 -5.290586856491501 -18.051085381073904 61 53 20 255
-10.696034540602881 -4.078895354663246 -17.265015603940867 52 45 13 255
-11.941299431914729 -2.783786551226072 -16.358634598319924 43 38 8 255
-13.512653553370882 -1.326859532632326 -15.211646549365497 32 31 3 255
-7.511109190955381 -26.473246247582054 -18.337791495868089 204 172 151 255
-7.291213445703960 -25.848200002115306 -18.514226108023593 196 165 141 255
-6.747199385638282 -25.345935773381171 -18.931902241900076 183 153 127 255
-6.365119592021927 -24.786377894523611 -19.228992766711201 175 145 121 255
-5.820887121548367 -24.291188449860670 -19.646726164493600 171 138 117 255
-5.519668180149125 -23.706523065671647 -19.883556235419263 169 137 114 255
-4.813122500604379 -23.280841163349834 -20.421971770075515 171 139 116 255
-4.430669630998949 -22.733500826839389 -20.719166273195412 171 139 116 255
-3.804925528332831 -22.284569504135320 -21.197334019045229 169 137 112 255
-3.908755621015928 -21.550409761329391 -21.132674347716545 168 136 111 255
-3.444998038813907 -21.042795311005946 -21.490256852850848 164 132 107 255
-3.792104067674671 -20.211289446729026 -21.244654281582058 158 128 102 255
-4.058182659117648 -19.410586394059166 -21.059369728336264 151 121 95 255
-3.999866899728318 -18.741245762938561 -21.115382315755738 146 119 92 255
-4.022664272932076 -18.038892342033435 -21.111080678811049 138 111 83 255
-3.720945387579491 -17.471669557586026 -21.348099761604203 131 107 73 255
-4.068285243260902 -16.634067890108938 -21.102504493362261 124 101 67 255
-4.009960885105528 -15.965916265924534 -21.158561589488528 120 100 63 255
-4.519731592668023 -15.056033245098646 -20.792301461427940 116 98 59 255
-4.786118959362938 -14.247462711050829 -20.607035008122949 109 94 53 255
-5.133744846562280 -13.402058941432628 -20.361432646670721 105 90 48 255
-5.481452190484305 -12.554416873465470 -20.115827504204987 103 88 45 255
-5.991626876551550 -11.633163352450680 -19.749541061483313 99 86 44 255
-6.339516201936902 -10.780481767151613 -19.503927897777658 97 84 42 255
-6.849909086792081 -9.853092229867343 -19.137627495819487 93 80 38 255
-7.360420672369571 -8.922352304959276 -18.771318925528988 89 77 35 255
-7.952279438715806 -7.951489507465013 -18.344656636884054 83 74 34 255
-8.544275656170498 -6.976718536055628 -17.917983564759737 76 68 31 255
-8.973918757403936 -6.072640462898022 -17.611998111815552 67 60 24 255
-9.809937206881642 -4.977840623433295 -17.004255686015625 57 51 19 255
-10.808674401581214 -3.801789626667883 -16.275789425983419 48 43 12 255
-12.457816608852028 -2.314153155441559 -15.064467319555206 40 37 8 255
-14.351172249629542 -0.700360876833329 -13.672028815005490 25 28 0 255
-8.328342121117259 -26.704317056224127 -16.811554887491837 205 181 154 255
-6.330918600627683 -26.728543715506930 -18.319968047302439 206 178 155 255
-5.707302638291452 -26.256032647337818 -18.799682723243251 204 174 150 255
-5.406936158786380 -25.666730874051154 -19.037355617650917 192 157 135 255
-5.349069214832014 -24.987949543487943 -19.093487097900237 185 149 130 255
-4.886868853767197 -24.463865604742907 -19.452237943244000 175 140 120 255
-4.586313409981187 -23.880848389018539 -19.689967973609782 174 139 117 255
-3.962166639474674 -23.425471705567730 -20.169819051752654 174 139 117 255
-3.499665406416568 -22.911151129311776 -20.528649591942184 174 139 117 255
-3.198862570159065 -22.336261299214883 -20.766449766686407 172 138 113 255
-3.221626606304767 -21.634823832096956 -20.762149263521650 168 136 111 255
-2.677980867310339 -21.160504512266911 -21.181579418516634 162 130 105 255
-3.024397478142049 -20.330071044478160 -20.935170976682173 154 124 98 255
-3.451825189822131 -19.464472407644408 -20.628221788626234 147 117 91 255
-3.879347854660864 -18.596149039520057 -20.321263995151526 139 112 85 255
-3.497449455867837 -18.060360003887027 -20.619682738976024 132 105 76 255
-3.034510865269795 -17.561031067379147 -20.978666220581090 127 103 69 255
-3.057290501513194 -16.860499980611820 -20.974427143000838 121 98 64 255
-3.484968836132708 -15.988236005354139 -20.667479672118873 116 96 59 255
-3.993730982748843 -15.078608371212866 -20.299979667309401 112 94 54 255
-4.421612633481715 -14.200553579342980 -19.993015786628803 106 91 49 255
-4.444570411656883 -13.495463144002713 -19.988786206721471 103 88 47 255
-4.710578112641144 -12.684044381986567 -19.802916365270363 100 86 45 255
-5.057671451559372 -11.835233292963395 -19.556494925609741 97 83 42 255
-5.404846536483888 -10.984169379993844 -19.310070389847539 93 80 39 255
-5.914183031967184 -10.058388911311013 -18.942533574168550 88 76 37 255
-6.585734333508071 -9.056262027739606 -18.453875107740259 85 73 34 255
-7.338496670717490 -8.012926859797858 -17.904643579814291 81 71 35 255
-8.010364973466267 -7.001641532829865 -17.415953510286556 74 65 29 255
-8.439163552539839 -6.097827348453677 -17.108932164357583 63 56 22 255
-9.678901940727258 -4.815368669024465 -16.196279273842123 53 47 17 255
-11.243290552482307 -3.373243234672088 -15.041333230413045 44 39 10 255
-12.808030617787836 -1.920677613188559 -13.886338858328600 33 30 3 255
-8.598673746517676 -26.426540670521803 -15.699105533014205 205 180 153 255
-6.121690480421421 -26.626967695593066 -17.577224258754825 207 180 153 255
-4.934835459233796 -26.363839499437134 -18.483781704359359 209 179 153 255
-4.231773948416446 -25.927100255142307 -19.026008294055714 201 167 142 255
-4.093348266300865 -25.281323142409988 -19.143141661986107 188 154 129 255
-3.874198104951802 -24.667482194153777 -19.321021648364052 181 146 124 255
-3.493595629344469 -24.117483478782106 -19.620389310021523 174 139 117 255
-3.193620389889958 -23.538828263244937 -19.859041870527136 175 140 118 255
-2.812860227471788 -22.993983563354533 -20.158453019363350 175 140 118 255
-2.512745453002964 -22.419931685529164 -20.397146038888366 174 139 117 255
-2.535513489678522 -21.719313835193176 -20.392888538424501 166 135 109 255
-2.396795719583054 -21.083591271763751 -20.510126016774933 159 128 100 255
-2.500312247513165 -20.350772743283358 -20.445139423453156 150 120 92 255
-2.846142435215739 -19.518422479154935 -20.197914212865584 143 113 85 255
-2.949733395735507 -18.783671179514585 -20.132930300074150 135 108 79 255
-2.811006447050175 -18.148942890701505 -20.250202530169787 129 104 74 255
-2.268303613849383 -17.684264123899979 -20.671250338096854 120 101 63 255
-2.371872782595602 -16.950753429006213 -20.606296954722893 114 95 56 255
-2.717889283457538 -16.113629622323629 -20.359081442614524 108 93 50 255
-3.225616678289526 -15.205066707970744 -19.990346615875012 105 91 49 255
-3.652633767378205 -14.328081645206581 -19.682359369401155 101 88 46 255
-3.998914587562467 -13.483477646324516 -19.435124756521304 99 85 49 255
-4.183590736718344 -12.707479753956250 -19.309409815126003 97 83 46 255
-4.934270926286928 -11.680473374657183 -18.758351928878767 92 80 42 255
-5.119099971796487 -10.900248122241365 -18.632630560037597 87 75 37 255
-5.627450790187169 -9.973913309731174 -18.263844690036535 82 72 36 255
-6.297674327115232 -8.971223201218180 -17.773512190940977 79 69 33 255
-7.210710597346576 -7.853774026198550 -17.100853790927687 73 66 27 255
-7.881267459278916 -6.841385204429372 -16.610484874856184 65 60 23 255
-8.309265954022095 -5.936481344113602 -16.302419970271046 55 49 15 255
-9.870148887474187 -4.502549193153229 -15.143503257975198 50 43 12 255
-11.431381882682160 -3.058188587349576 -13.984537034146456 40 37 6 255
-13.478550225717100 -1.374632997016576 -12.460854509915322 28 28 1 255
-10.854126260529881 -26.142672363325815 -13.063815789156479 198 171 145 255
-8.946394968901302 -26.119251600168866 -14.521883095842242 208 178 154 255
-6.313861212927520 -26.376640711877386 -16.528494973584202 214 184 160 255
-4.807692302637065 -26.231532165382490 -17.682035715877703 211 181 157 255
-3.864724796609067 -25.884649357273517 -18.409040063545774 205 173 149 255
-3.646169989936141 -25.269184882307528 -18.587583600664146 193 161 138 255
-2.944432820067760 -24.840380470446547 -19.131822083125883 185 150 128 255
-2.645195827622786 -24.260927090125193 -19.371353842868814 179 144 122 255
-2.426432134322908 -23.652272759364067 -19.549954182213554 176 141 119 255
-2.288168380828893 -23.013602228657192 -19.667618330043723 175 140 118 255
-2.230431220519080 -22.344100178762275 -19.724341527790472 172 137 115 255
-2.011549125279060 -21.739508433091473 -19.902983458687373 164 132 107 255
-2.034343953303477 -21.039162694818671 -19.898771837532507 157 125 98 255
-1.734809626555574 -20.469707460705990 -20.138398578849490 148 118 90 255
-1.757580450281068 -19.770411152938749 -20.134205868925278 142 113 85 255
-1.860958580429497 -19.037825070534439 -20.069058297165498 134 107 77 255
-1.964360724949415 -18.304668890773783 -20.003914072067204 127 102 70 255
-1.745311942471574 -17.706159569937526 -20.182631406263226 118 100 61 255
-2.009983231351413 -16.904773086746573 -19.995568526858420 111 93 53 255
-2.435987686536720 -16.033025605024989 -19.686567567525799 104 91 47 255
-2.862088066207747 -15.158521889180264 -19.377557746276210 102 89 47 255
-3.288284784496113 -14.281254967755189 -19.068539253551393 100 87 46 255
-3.553252534163818 -13.471530185369772 -18.881457340354672 97 83 46 255
-3.656938837607242 -12.730961238178011 -18.816321766611395 94 80 43 255
-4.325415716491108 -11.739892483437586 -18.324360819137041 89 77 39 255
-4.590596951633046 -10.924243928618509 -18.137268947023898 85 73 35 255
-5.420728492157963 -9.853215989833885 -17.523323486192822 79 69 33 255
-6.251047332015361 -8.776676356176225 -16.909354690844481 75 65 30 255
-7.162269832197438 -7.657838365705743 -16.234380760022646 68 62 23 255
-7.589350368069177 -6.755219081755683 -15.925282598027422 62 56 19 255
-7.855064342653861 -5.924402522087448 -15.738147978422461 52 46 12 255
-9.412721767057150 -4.490398101871349 -14.575224720077983 45 38 8 255
-11.535987184997509 -2.780947693302835 -12.985332860568434 34 32 2 255
-14.548087736662040 -0.637835331511738 -10.724480382312180 18 21 0 255
-11.652057219405236 -26.398052434656520 -11.514751597016243 191 167 136 255
-10.310905835899490 -26.159353796654685 -12.549848893931426 200 167 144 255
-8.407306212396151 -26.136320531185291 -14.013062013746264 208 175 152 255
-6.021390144513418 -26.304857780239630 -15.843272663521674 211 179 156 255
-4.679171953489856 -26.099242833645135 -16.878581323717555 217 185 162 255
-3.738325436956444 -25.751342144681914 -17.608170801005826 207 175 152 255
-3.359667538760675 -25.195959243715222 -17.909702010538211 195 163 140 255
-2.820222089986089 -24.704982632763915 -18.333572113544477 187 152 130 255
-2.280656646522630 -24.217806259855593 -18.757469656061829 181 146 124 255
-2.142815518436777 -23.577522834120586 -18.875583473057418 177 142 120 255
-2.165698080573947 -22.875028436879163 -18.871381021860287 175 140 118 255
-1.947425408945747 -22.268299646062829 -19.050680132612257 170 135 113 255
-1.487918633590823 -21.759760828220323 -19.413495432013121 162 130 105 255
-1.189118831566674 -21.189534630421733 -19.653998015200585 154 122 97 255
-0.890253498301149 -20.621456159088297 -19.894518941225641 146 116 88 255
-0.832587725103593 -19.956518769169989 -19.951542579285018 139 110 81 255
-0.935770651339737 -19.225556955644493 -19.886228119931928 130 103 73 255
-1.280294652741617 -18.393404322404365 -19.637390968194126 123 98 67 255
-1.463999249172730 -17.626676263745637 -19.510900432926206 117 98 59 255
-1.486831932571221 -16.926986625539044 -19.506766243200275 109 91 51 255
-1.831534061005158 -16.089846469983456 -19.257918699511350 102 88 44 255
-2.095839461563969 -15.285111080457057 -19.070246295131568 99 86 44 255
-2.682138492068816 -14.339130534738530 -18.637838557632023 98 85 44 255
-3.027092645738634 -13.494781870637027 -18.388969263509438 96 82 45 255
-3.452626658250608 -12.612765201512914 -18.078907852784141 91 77 40 255
-4.039277194426035 -11.656561368419730 -17.646461917425029 85 73 33 255
-4.384504673702082 -10.804398323106284 -17.397569190874776 82 70 32 255
-5.212976961850558 -9.732525369047892 -16.781525208976831 75 65 29 255
-6.122172228266351 -8.618628921995793 -16.104264602551694 71 61 26 255
