ply
format ascii 1.0
element vertex 664
property float x
property float y
property float z
property uchar red
property uchar green
property uchar blue
property uchar alpha
end_header
-53.094797634168572 -15.630618152896858 -19.899501481750377 108 68 56 255
-53.215831175535470 -15.078009089528777 -19.881985691642164 46 17 5 255
-53.141977061683122 -14.443914571595954 -19.899644958672503 21 6 0 255
-53.944973400565488 -14.180449878247856 -19.759192635376294 24 17 6 255
-54.747803410524966 -13.921229263681766 -19.618772799582977 37 34 21 255
-55.745274040238570 -13.749827135340027 -19.443242340724900 18 19 5 255
-55.476431774015964 -13.036963079626375 -19.496179099612654 10 11 0 255
-54.331223587310689 -11.941411997751899 -19.707300050397386 4 6 0 255
-55.523186798014933 -11.861682408230408 -19.496729757160686 1 3 0 255
-57.785862673252296 -12.259913357770543 -19.092898258847974 0 4 0 255
-58.393107741144121 -11.937070621503665 -18.987828581234112 0 2 0 255
-58.026842850530244 -11.183239067276219 -19.058521453287113 0 1 0 255
-57.952656039928826 -10.558166408257634 -19.076536648429062 0 2 0 255
-57.197277864416492 -9.624752600362257 -19.217603809144059 0 3 0 255
-57.609758622033439 -9.217553643588190 -19.147836124905275 0 3 0 255
-57.535683253872293 -8.589905704919943 -19.165976091554874 0 3 0 255
-57.753493358308617 -8.095861213455777 -19.131437740921768 0 2 0 255
-57.484898933012573 -7.377563767602581 -19.184812483767423 0 2 0 255
-57.508169086892309 -6.793397552385002 -19.185510075446423 0 3 0 255
-57.239691631785860 -6.072326802793640 -19.238977391392559 0 3 0 255
-57.651981759453093 -5.670394366081638 -19.169466701594509 0 3 0 255
-57.091886677318996 -4.809244091026642 -19.275755718631125 0 3 0 255
-57.795794321953935 -4.547735131170000 -19.153609668796740 0 4 0 255
-58.013515418690645 -4.056510692676042 -19.119388500806885 0 5 0 255
-55.412448583259561 -2.205069077979530 -19.594944427773122 0 5 0 255
-26.628260940515929 -14.777995013627120 -25.279773562184658 170 143 103 255
-29.679887726634036 -15.249153411752189 -24.726221063361720 181 137 106 255
-31.169622460261792 -15.146198834741782 -24.458196859072977 180 133 109 255
-32.073640862443085 -14.828151346216004 -24.297261101505477 178 128 104 255
-32.977468439653705 -14.514955069913796 -24.136352833094783 172 120 98 255
-33.100747974099988 -13.904704547475816 -24.118216866826351 166 114 93 255
-33.809212396547736 -13.523022935678867 -23.993050155533787 156 105 86 255
-34.029913348925277 -12.953712171315644 -23.957126347756393 138 90 70 255
-35.225699655222314 -12.770928591390501 -23.742803686125328 117 70 52 255
-37.591253457106973 -13.060399368056991 -23.314399888758444 83 39 20 255
-43.076010263944454 -14.613581005350554 -22.315065691844246 189 144 125 255
-47.292325048238297 -15.685314593710089 -21.547720437769989 176 131 112 255
-49.460859266183490 -15.948052461967507 -21.155101377377214 171 124 106 255
-50.751795556598552 -15.863547618510609 -20.923096274323164 156 109 91 255
-51.945009043564994 -15.745842800932351 -20.708964956613301 135 88 72 255
-52.650782439412552 -15.432375045987840 -20.584077614394765 103 63 53 255
-51.797583467251997 -14.471309512557255 -20.744702314527899 33 6 1 255
-51.334246687943221 -13.669223030596299 -20.833990519128641 19 8 0 255
-52.819126804829523 -13.689310320005646 -20.566461530216920 8 2 0 255
-53.816718030688804 -13.509834695974689 -20.388178701414994 17 12 1 255
-54.814100292006657 -13.335678266816501 -20.209929706671012 10 9 0 255
-54.545425257158001 -12.620081148838551 -20.263671638884823 7 8 0 255
-54.471545644099962 -11.987423249558347 -20.281765157232549 2 4 0 255
-56.539426384205115 -12.291295216108125 -19.907348964676331 1 3 0 255
-57.925477472375491 -12.306331803823880 -19.657867572848154 0 3 0 255
-57.267305885684920 -11.422896624937053 -19.783131690642783 0 3 0 255
-57.290526796841107 -10.839426669645761 -19.783532925864336 0 1 0 255
-57.800297637359733 -10.474234925658209 -19.694755773871975 0 2 0 255
-58.115373723059463 -10.023715476884206 -19.641705764839813 0 2 0 255
-58.527680532054234 -9.618904553729834 -19.570852166147240 0 3 0 255
-57.772597076383846 -8.682203381551034 -19.714173536893767 0 3 0 255
-57.698552341056541 -8.054363447888974 -19.732629558429117 0 2 0 255
-57.041011723038935 -7.155617656855370 -19.858201520010859 0 2 0 255
-57.258825407482306 -6.660662154027634 -19.823214800796343 0 3 0 255
-57.184907420999650 -6.029889428652368 -19.841810654254310 0 3 0 255
-58.083242614138300 -5.856870978127148 -19.681993275583650 0 3 0 255
-58.009281270069067 -5.227360207337000 -19.700682599457799 0 3 0 255
-57.935352797008903 -4.597113831239568 -19.719421832656856 0 4 0 255
-56.403612714076047 -3.266201719008620 -20.005922779965061 0 4 0 255
-54.094800358689412 -1.550929521039592 -20.435272231807375 0 4 0 255
-29.116167830700277 -15.692540052760634 -25.495191886618791 178 135 108 255
-30.508262288102628 -15.547206153626576 -25.241162030554563 181 133 110 255
-31.997615602788812 -15.446356666040131 -24.969046599202066 179 129 106 255
-32.998917044369136 -15.167621378366462 -24.787532677057122 171 122 100 255
-33.609863320882653 -14.744413307457464 -24.678504266575409 165 114 93 255
-33.635533207082432 -14.098017859834883 -24.678188490974918 158 107 86 255
-34.148777293912900 -13.641633650866481 -24.587330130943684 143 92 73 255
-34.466909898411103 -13.111376047743505 -24.532728717735246 128 81 63 255
-35.077459930504034 -12.698347850766027 -24.423815512796736 107 62 43 255
-35.687884695144533 -12.288527529512621 -24.314933071812057 88 46 29 255
-37.760255735657438 -12.468189727955746 -23.934377852934560 56 14 2 255
-42.756001014544296 -13.839807032247890 -23.010449797646721 150 106 89 255
-46.776156527014564 -14.842664133319801 -22.267693294466234 164 120 102 255
-48.944091038201151 -15.109601482152570 -21.869127466254120 154 109 90 255
-50.234701338621960 -15.026877811565654 -21.633615855375574 135 89 73 255
-50.940530691923385 -14.708504015384747 -21.506817909767385 103 63 53 255
-51.159179573321495 -14.190319712696095 -21.470620648527536 46 21 9 255
-51.962168530583170 -13.918999469628858 -21.325776490239242 17 6 0 255
-52.959762273577553 -13.734417889482401 -21.144739566792275 8 2 0 255
-53.567647704748026 -13.389095972079190 -21.036191617505480 10 5 0 255
-54.078046176946231 -13.005144839083954 -20.945792864224963 4 3 0 255
-53.906870299199795 -12.329410266885816 -20.982226809481780 3 4 0 255
-54.027771729638403 -11.779477600565613 -20.964357475732577 3 5 0 255
-57.263276322832240 -12.593089065815064 -20.366878063709336 3 5 0 255
-57.286483530741378 -12.009811603025412 -20.367196139458819 1 5 0 255
-57.017767303056388 -11.297006863223643 -20.421897147155413 0 4 0 255
-56.846422910316960 -10.625867893988143 -20.458525531193452 1 3 0 255
-57.745305863485441 -10.433990123600353 -20.295934483574051 0 2 0 255
-58.352169338194273 -10.115002273516765 -20.187726858071962 0 2 0 255
-58.569843350063621 -9.622242869402626 -20.152020372275736 0 2 0 255
-58.009431873080018 -8.774492659766551 -20.261280528480228 0 3 0 255
-57.546404731697095 -7.968103245791653 -20.352473262421803 0 2 0 255
-57.764138993433278 -7.474076792472587 -20.316902634797337 0 3 0 255
-58.565184323667495 -7.252792173660040 -20.172679340021375 0 4 0 255
-58.977214213753484 -6.853372336028272 -20.100965101510909 0 5 0 255
-59.875180489487946 -6.685173521127567 -19.938710858481421 0 5 0 255
-58.148789220535605 -5.276502107070826 -20.265671190668094 0 4 0 255
-56.811521834351538 -4.043425329449462 -20.520224968931366 0 4 0 255
-59.167028824664982 -4.575632432841033 -20.086344828928716 0 4 0 255
-56.372592618330316 -2.633284513966458 -20.612792726718176 0 4 0 255
-53.870242105543412 -0.816576702636993 -21.084964197736888 0 4 0 255
-30.016100000204460 -16.680984697074805 -25.991665601475056 179 148 115 255
-31.115293577270563 -16.425091151975479 -25.788947350311233 185 136 114 255
-31.628963507669766 -15.955215593428264 -25.696571892757184 181 133 111 255
-32.142528065883198 -15.488039757900268 -25.604223039299988 176 126 105 255
-32.558460664561551 -14.986365254107938 -25.530286928472258 168 118 97 255
-33.364374179126543 -14.636697060862318 -25.382837405361769 156 107 85 255
-33.877602563994856 -14.178133247247288 -25.290572871691886 143 94 74 255
-34.683210486892790 -13.836261967828065 -25.143182699338901 128 79 61 255
-34.903746227081797 -13.269045632626032 -25.106132665725603 115 68 50 255
-35.124242321063463 -12.702881865876321 -25.069112740476626 97 53 35 255
-35.247236525929281 -12.098952290850477 -25.050508421903494 75 40 21 255
-35.760020134525320 -11.651859117109453 -24.958397202057348 62 27 8 255
-37.344552017523711 -11.640310765656196 -24.664088866354213 44 9 0 255
-41.267072522960234 -12.588316449454268 -23.928587322933737 92 57 37 255
-45.968095867860939 -13.877018710315767 -23.046046838814640 151 114 95 255
-48.330281143131060 -14.227665155502180 -22.604769118717471 128 92 74 255
-49.036188037394822 -13.903843685488383 -22.476061321956976 118 89 75 255
-50.521048844766653 -13.909366869293791 -22.200312639286231 31 11 3 255
-52.200346186224664 -14.004870438682431 -21.887829810146187 22 11 1 255
-53.002990840361974 -13.738287916367824 -21.740842265116633 8 1 0 255
-53.026628212550690 -13.143834135240382 -21.740966996005206 7 3 0 255
-53.244960579319724 -12.632862488308845 -21.704359896969500 2 2 0 255
-53.949924720747561 -12.333153004136008 -21.575867116508505 3 5 0 255
-51.248443242267996 -10.555754125882700 -22.090881122952865 5 8 0 255
-54.775548948458038 -11.489215923205947 -21.429304669367980 2 4 0 255
-58.301887391288972 -12.442037354789221 -20.767759017095699 2 6 0 255
-58.324995813031705 -11.861310527430120 -20.768112767145070 1 5 0 255
-57.861712716044792 -11.063429547394378 -20.860435489707029 1 3 0 255
-57.884890901256398 -10.481103736382664 -20.860874530951726 0 3 0 255
-57.616302577996407 -9.766800820857313 -20.916514782458897 0 2 0 255
-57.931272935873579 -9.316047340444811 -20.861884184070071 0 2 0 255
-57.662767161482975 -8.599834839301082 -20.917615767468163 0 3 0 255
-57.783239417660468 -8.060886637940243 -20.899848598965555 0 3 0 255
-57.806484688332944 -7.477289390658001 -20.900515027904184 0 3 0 255
-58.704579511357736 -7.301247779197823 -20.735743668119824 0 3 0 255
-59.796877532906279 -7.221059594171791 -20.534239611913691 0 5 0 255
-59.625572510374695 -6.550676358715037 -20.571821722037008 0 5 0 255
-57.899570382873833 -5.141166467230960 -20.903671169641179 0 5 0 255
-54.425068452361074 -2.886722351392010 -21.566587213058540 0 5 0 255
-59.111984850919725 -4.531869056312047 -20.684884564536347 0 4 0 255
-59.718015389793123 -4.231796817543682 -20.575562848502877 0 4 0 255
-56.147396010659605 -1.905082687849529 -21.257072721525795 0 5 0 255
-29.452459688653192 -17.126981292668020 -26.763155425980337 191 145 119 255
-31.234467128035618 -17.119230810001596 -26.426801457078533 191 144 118 255
-32.138236478208000 -16.793765403979947 -26.258392172210996 186 138 115 255
-32.554171610085263 -16.289901825606407 -26.183295278767815 179 131 109 255
-32.970022880590136 -15.788197403164105 -26.108225324721829 174 123 104 255
-33.190776184939068 -15.214263766418455 -26.070496028054229 162 111 92 255
-33.996467667186835 -14.866171955994432 -25.920856595561780 150 99 78 255
-34.899475983455346 -14.560116899777640 -25.752591407759979 132 84 62 255
-35.802294187261282 -14.258902100977664 -25.584357516343509 119 73 53 255
-36.022672438218166 -13.694621434226462 -25.546746828764377 101 59 39 255
-35.755743257448330 -12.938684646617375 -25.602445933429337 89 49 31 255
-35.488881995196806 -12.181095233471368 -25.658175681266030 65 33 14 255
-35.416953184111378 -11.500011042049692 -25.676625881429295 56 22 5 255
-35.734735551158394 -10.975749745254134 -25.620486932152438 43 16 0 255
-36.929153992376854 -10.809653876924457 -25.396483103907023 33 9 0 255
-39.486918756364872 -11.208467146506763 -24.911339189233971 30 4 0 255
-45.063195830818898 -12.866275485387774 -23.847914871345971 76 52 32 255
-47.132629297836729 -13.099267760865700 -23.456122342152888 67 50 32 255
-49.396352620683643 -13.424940903528551 -23.027055112218555 62 49 33 255
-51.756944498047403 -13.803940271934408 -22.579368356732665 18 9 1 255
-52.462140220095364 -13.494713802580335 -22.448859826421803 14 8 0 255
-52.777849496795568 -13.023138468816683 -22.393010344859540 6 1 0 255
-53.774773923553937 -12.845575662125086 -22.206609965476602 2 2 0 255
-54.187605845076149 -12.421007646337927 -22.132181176388428 1 4 0 255
-57.737222463961160 -12.770682439034417 -21.461076950172775 2 5 0 255
-58.635925054172958 -12.574183460906866 -21.293483666144461 0 4 0 255
-59.242628588245907 -12.253034554642340 -21.181898062917078 0 4 0 255
-58.584828081015729 -11.370743664330050 -21.312886024884129 1 3 0 255
-57.149191054542428 -10.135130811249326 -21.593173094915102 1 4 0 255
-57.172465781272507 -9.550462391929017 -21.593659235528520 0 3 0 255
-56.223470589150168 -8.523480514747931 -21.780761795356433 0 3 0 255
-57.219042333029591 -8.380697021260445 -21.594769817115264 0 4 0 255
-57.533963758482713 -7.929863696929559 -21.539423247174987 0 4 0 255
-58.432003469599493 -7.750674980042476 -21.372175782445296 0 3 0 255
-58.843935470653634 -7.349692581122440 -21.298263071663548 0 4 0 255
-59.741661208574982 -7.178565808898853 -21.131104539864211 0 4 0 255
-59.084593510629048 -6.278647429862374 -21.262534311724529 0 5 0 255
-57.650469997780874 -5.005827374882983 -21.543296879448455 0 6 0 255
-59.519492979887843 -5.301793731316934 -21.189690463514644 0 5 0 255
-58.959850275307303 -4.441436443040431 -21.302628546307282 0 5 0 255
-59.954267077693913 -4.328474935894434 -21.117054560326672 0 5 0 255
-56.675684236569339 -2.143899066979429 -21.752623249608362 0 5 0 255
-55.145618375379740 -0.795122026009906 -22.052371954418071 0 5 0 255
-31.841327622206762 -17.992110439142138 -26.969506195923280 193 147 121 255
-32.842480388220991 -17.701895019598865 -26.779679355895361 192 144 121 255
-33.453341705007233 -17.271564704504073 -26.665593640024561 186 138 115 255
-33.771549302424944 -16.734526328734049 -26.608319275296516 179 131 109 255
-33.699701597844978 -16.051426230006214 -26.626782919399041 171 120 101 255
-33.822852539632606 -15.442160862224597 -26.607418059669023 154 103 84 255
-34.335891688455462 -14.983265029159824 -26.512371961282760 136 85 66 255
-35.726021118852088 -14.866622439659537 -26.247011454729922 122 75 53 255
-36.433665758284405 -14.491520428183620 -26.114173914760634 107 62 41 255
-36.459050930919801 -13.852285710594828 -26.113856909096235 91 49 30 255
-35.802402019511675 -12.943244509020488 -26.246058540810566 77 40 21 255
-35.730446127447067 -12.263247883831042 -26.264730618337886 60 30 12 255
-35.755928115854431 -11.621752025203719 -26.264508974834150 50 21 4 255
-35.684012578587158 -10.940862412677546 -26.283247837714718 38 17 0 255
-35.222558905847620 -10.100904627023198 -26.377727283464488 32 14 0 255
-34.955977916146338 -9.337970966951374 -26.434389333850554 24 12 0 255
-49.050910795943167 -13.266168618571484 -23.708869707360115 36 25 6 255
-49.951014663883683 -13.029453923927406 -23.538566587884667 32 25 9 255
-50.753604476491262 -12.756283867089664 -23.387227619739598 19 16 2 255
-51.264080962574496 -12.362821733127134 -23.292706276681443 12 10 0 255
-51.385235966495600 -11.804849252610836 -23.273930164919157 3 5 0 255
-53.257674743611176 -12.004245211320651 -22.914515896950512 3 6 0 255
-55.226995507251900 -12.256135937590017 -22.536212556810028 2 6 0 255
-57.487711806039727 -12.646513505510441 -22.101165962410427 2 6 0 255
-58.483533448039765 -12.492008750925706 -21.912206036025175 2 6 0 255
-58.506634292931153 -11.911468017799464 -21.912557312827801 1 5 0 255
-57.751818705855186 -10.983576713525636 -22.064370994287962 0 5 0 255
-56.802724246492886 -9.963878838342794 -22.254087805453324 0 4 0 255
-55.659415989228222 -8.850742334256978 -22.481710542432189 0 3 0 255
-56.071707179295686 -8.438417281169151 -22.406538393401185 0 3 0 255
-56.095131762598214 -7.850163389962702 -22.407125411933244 0 3 0 255
-57.770739235625996 -8.022630769628364 -22.085976102386944 0 2 0 255
-58.474231220172527 -7.753864396788330 -21.954154881838427 0 2 0 255
-58.788922150789148 -7.307526563024439 -21.898096429092391 0 2 0 255
-57.451936565645354 -6.087939754752000 -22.163890054962103 0 2 0 255
-56.115264657461523 -4.860577052736232 -22.429746907715497 0 2 0 255
-56.624427067959232 -4.501578209575868 -22.335991855904965 0 3 0 255
-55.288178697580662 -3.263787355547933 -22.601972932056299 0 5 0 255
-58.030907254744847 -3.977744870407037 -22.072909215522408 0 4 0 255
-58.151337691019336 -3.439649285737573 -22.055033081217083 0 3 0 255
-54.485275837862503 -1.061100832224852 -22.775572587744072 0 3 0 255
-55.285661376431563 -0.845342990753707 -22.625301838597800 0 3 0 255
-31.375226292850073 -18.470558196148673 -27.720187436328892 198 152 123 255
-32.473862608563167 -18.212076325404453 -27.508398400031346 195 148 124 255
-33.767286050206081 -18.031760491821089 -27.258240026519289 193 145 122 255
-34.182932337437251 -17.531065694501734 -27.180904886399638 187 139 117 255
-34.988451920929265 -17.179125338375655 -27.026801520233171 176 128 106 255
-34.721537579737969 -16.425403290570998 -27.083914138322534 165 114 95 255
-34.942029163415981 -15.855995356229414 -27.045060395849866 147 96 77 255
-35.357394702308937 -15.362572220620862 -26.967839097213393 126 78 58 255
-36.454802350468242 -15.135388295171850 -26.756261121874104 113 65 45 255
-36.869927115474582 -14.648138456621083 -26.679103054482816 97 52 31 255
-36.797844340584447 -13.971684639203204 -26.697966626996283 81 42 21 255
-35.946472245040326 -12.986359268005998 -26.870444003843083 69 34 15 255
-35.874525406774296 -12.306601452900296 -26.889370915649337 58 28 11 255
-35.705211233725407 -11.587186082225827 -26.927529098037368 45 21 3 255
-35.243797970865813 -10.748602305480262 -27.023314234341591 35 17 0 255
-34.100896949701990 -9.629943059353948 -27.253516349502256 28 15 0 255
-32.179373181075562 -8.185643288169359 -27.637332841296818 17 19 0 255
-44.423172832423319 -11.316697102118795 -25.237512306965918 24 32 7 255
-46.978017287638409 -11.763422412631897 -24.738409182523704 24 24 3 255
-46.613100461410653 -10.986958443790613 -24.815264372764126 17 15 0 255
-49.361754845638075 -11.536531494262093 -24.277844801030959 16 16 2 255
-51.234244807532349 -11.725136376464107 -23.913240164405664 10 13 0 255
-52.717234261493331 -11.755719271540087 -23.625464525425251 7 10 0 255
-54.199908227697591 -11.794311904648850 -23.337728494999631 2 6 0 255
-56.849305277452515 -12.351994948022480 -22.819659194437307 3 7 0 255
-56.969825446694045 -11.809789290836861 -22.800771282844750 0 6 0 255
-57.770953696078720 -11.569927306570094 -22.647541091606165 0 5 0 255
-55.849732512211375 -10.119015275894171 -23.031903929513867 0 5 0 255
-56.359204035432981 -9.748964323983017 -22.936360043202292 0 4 0 255
-56.479779266752075 -9.205710165790734 -22.917656068964270 0 3 0 255
-57.377850723939275 -9.016567932194974 -22.745408578649595 0 3 0 255
-57.206781916872274 -8.342816071295019 -22.784396628253234 0 3 0 255
-56.549931125108230 -7.444044902014625 -22.919433397138626 0 3 0 255
-58.613615286616948 -7.802072146574048 -22.516931027163800 0 3 0 255
-57.762494380823767 -6.812373007803174 -22.690471129131076 0 3 0 255
-56.231636611379372 -5.498632756163502 -22.998474272285968 0 3 0 255
-54.409764633310715 -4.038507597183383 -23.364146720486232 0 3 0 255
-52.782541257804922 -2.660103021001788 -23.691487788519275 0 3 0 255
-55.816601092760209 -3.498664056208156 -23.097215329814894 0 4 0 255
-55.743079972591005 -2.860896568269325 -23.117444111328048 0 4 0 255
-53.533822577293677 -1.189989869830967 -23.560193010377667 0 3 0 255
-53.945957541898792 -0.780709737336494 -23.484537241833742 0 3 0 255
-54.746254715238592 -0.563250495052699 -23.332123054807056 0 4 0 255
-32.762154376879266 -19.622444266437014 -28.103661098796877 179 152 114 255
-34.153078050231613 -19.471410260249385 -27.830430712565182 194 146 123 255
-34.666186786008524 -19.005422201335321 -27.732467277068544 193 147 124 255
-35.374171974851777 -18.614355997405397 -27.595590067520490 188 140 118 255
-35.984528437224753 -18.190698573678148 -27.478211801863829 183 135 113 255
-36.497288532153789 -17.733635864008548 -27.380332502076349 178 130 108 255
-36.132813039574302 -16.947025346424894 -27.457710243486012 162 111 92 255
-36.255666758697458 -16.344178118393501 -27.437766695438562 142 92 72 255
-36.281064104612994 -15.704403196977481 -27.437321919605402 122 74 54 255
-36.891025073882872 -15.290967403321403 -27.320091988726467 106 60 39 255
-36.818947933908902 -14.614779236384734 -27.339178077037147 88 45 26 255
-36.552084844558379 -13.861493807040858 -27.397233393868852 76 39 20 255
-36.090500403084519 -13.029486280629143 -27.494258124355859 64 31 12 255
-36.115946642961035 -12.388772268999801 -27.493972287956232 51 24 6 255
-36.238770223879953 -11.787093362064880 -27.474252714260501 40 21 2 255
-35.485314601055080 -10.831795717125985 -27.629784886531418 31 17 0 255
-33.661166258081465 -9.436350615858785 -27.999504400578154 20 16 0 255
-30.766679652452325 -7.591839328318983 -28.583410660449694 23 33 5 255
-39.700010276383779 -9.326710890219871 -26.811612600236522 69 79 46 255
-40.989996549040313 -9.227543228308306 -26.558545344705152 52 45 22 255
-43.836306912364620 -9.795107905026327 -25.994027547681704 27 12 0 255
-46.973830367564091 -10.502780754345210 -25.371145115604946 13 6 0 255
-50.110672767433812 -11.227659773572299 -24.748301898585233 9 10 0 255
-51.204477737882797 -11.086738564873571 -24.534334214851036 7 8 0 255
-50.255922881643215 -10.062979803671126 -24.729247625364245 5 8 0 255
-51.738429578454969 -10.098420458624858 -24.437491710841762 2 6 0 255
-54.970631534981862 -10.913326522140679 -23.795338952578795 0 6 0 255
-54.994134384243694 -10.322686161655085 -23.795697997019381 0 5 0 255
-53.948431864323254 -9.254515901389979 -24.010264678368785 1 7 0 255
-55.138356101267021 -9.184693466125310 -23.777088456224668 0 6 0 255
-55.842132264458087 -8.901520708385206 -23.641303810632294 0 4 0 255
-56.934442528030900 -8.798844925878555 -23.427686085520385 0 3 0 255
-56.180520699897045 -7.856790660448794 -23.584045326415605 0 3 0 255
-57.466875632123134 -7.850087850902412 -23.331581891676088 0 4 0 255
-57.295912097498842 -7.174884822105497 -23.371223880630730 0 4 0 255
-56.833625204328143 -6.362537048068475 -23.469333880697711 0 4 0 255
-55.788767793712140 -5.273892883125001 -23.684330842681419 0 4 0 255
-54.549951405142394 -4.087417182545650 -23.938335883820436 0 4 0 255
-53.505614707088029 -2.985913256694303 -24.153464260894815 0 4 0 255
-55.665250305461200 -3.408837454281496 -23.726060060914158 0 4 0 255
-55.106415863965566 -2.537202566424071 -23.843944809927855 0 3 0 255
-54.838906872751721 -1.802866602399561 -23.903474496219125 0 3 0 255
-53.989176458198614 -0.783494002274821 -24.079914333674516 0 5 0 255
-34.954456342960384 -20.403931930906310 -28.320948266645978 192 152 120 255
-34.882475609223803 -19.725320051525969 -28.340035299436302 193 145 123 255
-34.810517543142197 -19.046181333757019 -28.359146061395059 191 144 124 255
-36.103182608638946 -18.871970261216731 -28.101901290707595 187 139 119 255
-37.103188665844868 -18.595660381831550 -27.903912599463261 179 131 111 255
-37.615732297848467 -18.141529738423131 -27.804660340864281 171 123 103 255
-37.056338591154883 -17.284040612916556 -27.922586301882525 154 103 82 255
-37.179076005866534 -16.683591901139380 -27.902354634096774 135 85 67 255
-37.009541022233464 -15.971308737410382 -27.941374077298100 119 71 53 255
-37.229680446875022 -15.408824241711230 -27.901462759809633 100 53 35 255
-36.865401531536548 -14.619434509666092 -27.980023699524111 84 43 23 255
-36.890754676908500 -13.980913814003671 -27.979656590123270 71 36 16 255
-36.623986527184798 -13.226759991010383 -28.038542156035405 59 28 9 255
-36.649379503336519 -12.587361272642397 -28.038242804760138 47 21 2 255
-36.188008981558397 -11.752551304381385 -28.136676344396314 31 14 0 255
-35.434721789065236 -10.796962054101613 -28.294363596673527 24 10 0 255
-33.416293879482566 -9.322016651761629 -28.708697923037967 19 16 3 255
-32.176892690517576 -8.154742504927427 -28.965154589373810 108 115 81 255
-32.300124817931192 -7.542541149792399 -28.945301747534948 86 95 58 255
-37.093736054565511 -8.871183230795083 -27.978011453638210 68 73 38 255
-38.578469818598307 -8.842610624337965 -27.681895269694230 65 46 20 255
-39.479217156708160 -8.576275569196682 -27.504256324920725 80 50 31 255
-41.157918994534725 -8.644600614640709 -27.168746992392293 52 30 12 255
-44.392373010716057 -9.386111130358927 -26.517453124272926 22 9 0 255
-45.972939720837417 -9.435180050065725 -26.201767576760396 10 7 0 255
-45.997402951953546 -8.820062280403604 -26.201954258725685 10 8 0 255
-45.438525787342542 -7.950938834309753 -26.320623619245858 6 7 0 255
-46.143566361382199 -7.632088365627453 -26.182726985409651 2 4 0 255
-55.888356361375173 -11.302658615675995 -24.209082707827875 2 6 0 255
-55.134225375019554 -10.369381569855378 -24.367361764910946 2 6 0 255
-54.769001619204545 -9.605243351605154 -24.446731402798783 0 5 0 255
-54.792556213686055 -9.013484601374017 -24.447190638168934 0 5 0 255
-55.399080277581760 -8.685227798491766 -24.329256929704584 0 4 0 255
-54.548245544842104 -7.696908513406541 -24.507482862612328 0 4 0 255
-55.251830421699793 -7.415272379738951 -24.369909063007107 0 4 0 255
-55.761019070105135 -7.047764083805802 -24.271866993385423 0 5 0 255
-56.658577821937797 -6.862896115673678 -24.094909036656993 0 5 0 255
-56.196467887525642 -6.048603402615214 -24.194388314090880 0 4 0 255
-56.219953585591099 -5.459251086436396 -24.195215171270100 0 3 0 255
-56.049281949696109 -4.778036471620652 -24.235584738561784 0 3 0 255
-55.975739180438296 -4.141651074332472 -24.256270893392617 0 3 0 255
-56.290481658080438 -3.690042991423283 -24.198042318358645 0 3 0 255
-55.537600041274658 -2.726681343646462 -24.357057456198731 0 3 0 255
-55.464192935052864 -2.087222498498235 -24.377929108711875 0 5 0 255
-54.032396756573320 -0.786256102671231 -24.675298310694600 0 5 0 255
-34.098281276728699 -20.736809665506897 -29.147382756904200 183 154 111 255
-36.073566763872122 -20.797136189027398 -28.746413470532552 196 151 125 255
-36.488853338612046 -20.299282727482648 -28.665687474446408 199 148 129 255
-36.611668005895609 -19.696104620189345 -28.645026614507842 191 144 124 255
-37.221721821129989 -19.273985061341534 -28.524329701568782 185 137 117 255
-37.734207782458498 -18.818736873814061 -28.423674649149696 171 123 103 255
-37.954297492438542 -18.256261882501221 -28.383085410343732 159 111 91 255
-37.589828607054102 -17.473390139920568 -28.462595917666484 145 94 73 255
-37.907310585330947 -16.948623488489588 -28.402053422707503 132 82 63 255
-37.737739842628031 -16.238203498630014 -28.441599108384175 111 62 45 255
-37.665602481135835 -15.564407493521827 -28.461164222371409 95 50 31 255
-37.009229024381710 -14.662097320345438 -28.600827018086470 81 42 21 255
-36.839839556840133 -13.947289210143339 -28.640466917342614 68 33 13 255
-36.573141415329957 -13.192836650152358 -28.700151283363901 56 26 8 255
-36.403856316163626 -12.475528390747556 -28.739859785236938 44 13 0 255
-36.429286281852058 -11.835241340507579 -28.739583521052346 28 2 0 255
-36.162751343073211 -11.076880192602260 -28.799375676165631 23 2 0 255
-35.604348349758681 -10.198008816733491 -28.919236509542081 102 90 63 255
-35.532587942405314 -9.515248855103508 -28.939085445274735 80 71 42 255
-37.698547165985218 -9.755390266829252 -28.498742925897481 66 55 24 255
-38.891237332989903 -9.603123252003940 -28.258544270605945 69 49 24 255
-39.013711238432734 -9.009645210763026 -28.238498930400723 79 50 28 255
-39.525205075884287 -8.580479452923470 -28.138456686129892 81 46 29 255
-40.231094166248482 -8.236396877822216 -27.998438396286922 71 43 27 255
-41.811975220513006 -8.269539486734885 -27.678373791066100 51 33 16 255
-42.517480781263060 -7.935269754856321 -27.538444958188329 26 19 4 255
-42.542332909694977 -7.310371621891832 -27.538633678265995 13 7 0 255
-41.011912638221247 -6.008326789614173 -27.859035931694201 8 6 0 255
-48.520910370019919 -8.657947950121709 -26.318516359623722 4 3 0 255
-56.148831006722730 -10.804208768766344 -24.758377264333184 0 4 0 255
-54.714798993879100 -9.565365811624488 -25.058954119106509 0 4 0 255
-53.864006233635990 -8.580275212156394 -25.239520168815403 0 4 0 255
-52.624855287558887 -7.414414964660267 -25.500187556363194 0 5 0 255
-55.174049096211462 -7.965536928591561 -24.980458356148269 0 4 0 255
-53.837939295283121 -6.751372586630850 -25.261247382823363 0 4 0 255
-55.803814829506820 -7.051009991497949 -24.861681762157652 0 4 0 255
-56.798296924120109 -6.911096481016031 -24.662284761009715 0 4 0 255
-56.627536925181857 -6.232907566500984 -24.703092685806944 0 3 0 255
-56.845133927255688 -5.735713255345516 -24.663905854695393 0 3 0 255
-56.092051426910842 -4.781053725073093 -24.824913490370925 0 3 0 255
-54.853884243950944 -3.591318163134773 -25.086058630988653 0 3 0 255
-56.139132864430167 -3.600179998564641 -24.826894568145576 0 3 0 255
-55.968628054153186 -2.916129416457224 -24.868007530540872 0 3 0 255
-55.507115412899111 -2.090006113196850 -24.969232585439990 0 5 0 255
-53.978607906471211 -0.741800525669746 -25.290706219494993 0 7 0 255
-33.560391833174066 -20.531743721945588 -29.917120558772915 198 153 123 255
-35.535348132865863 -20.590384163664012 -29.510707144932915 200 153 135 255
-37.314970060489401 -20.588718943774850 -29.144898212545066 198 151 133 255
-37.340236065389263 -19.951842785246512 -29.144231920060371 188 139 122 255
-37.560368030434120 -19.387173781740131 -29.103025006551015 174 125 108 255
-37.780459013161760 -18.823587621175093 -29.061846377162603 156 107 90 255
-37.805687767307063 -18.187800116296074 -29.061262816523843 140 91 74 255
-37.733518837596762 -17.515097096751887 -29.080991110086423 127 78 61 255
-37.856152546929280 -16.916204077253838 -29.060184122735016 113 64 46 255
-37.686631879407798 -16.205486802394063 -29.100255508532719 104 56 36 255
-37.517157174009014 -15.493670550672661 -29.140358224280007 90 45 26 255
-36.958300065016061 -14.628790854728081 -29.261620939406107 78 38 20 255
-37.081000285610259 -14.028462104371002 -29.240943718329937 61 26 6 255
-36.911675812372522 -13.313050011110363 -29.281146809315992 37 5 0 255
-36.645073410989511 -12.557719262379678 -29.341667074109488 31 1 0 255
-36.475854079256152 -11.839794644340472 -29.381942631941151 57 26 11 255
-36.987807164681584 -11.396122096215123 -29.280287693085704 83 50 31 255
-37.402365170676489 -10.915486172785947 -29.198954255264312 97 64 45 255
-38.789663393621680 -10.835756054350298 -28.914851297351859 95 63 44 255
-39.398495908083646 -10.442320951249968 -28.793039279831312 92 59 39 255
-39.909944831448314 -10.011637337413774 -28.691550890345162 93 58 38 255
-39.546043711699298 -9.217361495134796 -28.772634380604366 87 53 34 255
-39.668430582759186 -8.625648766546817 -28.752357278109137 78 46 27 255
-40.276944611028000 -8.240547284079184 -28.630720561176702 70 43 24 255
-41.274207249136225 -8.024604342791051 -28.428005638773080 67 44 23 255
-41.882434714606376 -7.646881078148326 -28.306461065752949 59 41 25 255
-41.907364040167181 -7.020042245418082 -28.306650587894502 38 24 8 255
-42.126672063029901 -6.477719223736955 -28.266326702308874 25 13 0 255
-42.054421523188495 -5.808610434418654 -28.286896652571237 13 4 0 255
-50.532618944665444 -8.910011039892595 -26.522743653501344 10 6 0 255
-52.596848897735981 -9.212129580531993 -26.097205582407618 7 7 0 255
-53.689212374815156 -9.091530075474694 -25.874529780920078 1 5 0 255
-52.450191513091625 -7.928758982394399 -26.138671793620887 1 5 0 255
-52.571150798341137 -7.373924126110737 -26.118920030839512 2 6 0 255
-53.468978019949475 -7.173145220349227 -25.936961068566667 0 6 0 255
-53.007233017943094 -6.354381312190327 -26.039012758998105 0 6 0 255
-55.555345814378711 -6.919994068512807 -25.512344064907367 0 4 0 255
-56.355511776933440 -6.689154249904519 -25.350818986124757 0 3 0 255
-56.670182229063300 -6.236016702857668 -25.290765397068945 0 3 0 255
-56.014239841467997 -5.328689491104427 -25.433611249177950 0 3 0 255
-54.679144818200882 -4.096530214134688 -25.718515831940735 0 3 0 255
-54.023605222966978 -3.179318239450396 -25.861497630096189 0 4 0 255
-54.435488209273075 -2.768256074394088 -25.781406234085395 0 2 0 255
-55.235348247726762 -2.545751335684002 -25.620229864323484 0 4 0 255
-54.677023073910703 -1.670475417849630 -25.743123693301648 0 6 0 255
-33.607466234271584 -20.536832840715903 -30.566733380749191 200 157 133 255
-35.387139908539950 -20.524830268881487 -30.195989607455473 200 155 138 255
-37.653599051738439 -20.700351672298495 -29.722507105678808 197 150 131 255
-38.165948751939538 -20.243399098074121 -29.619048863354116 186 137 120 255
-38.191130428054919 -19.608662640144544 -29.618392461943451 164 115 98 255
-38.118912237926963 -18.937560204248641 -29.638318063622542 143 94 77 255
-38.046717660273117 -18.265915572334350 -29.658271989146812 130 81 64 255
-37.974546941232518 -17.593724444464144 -29.678255272165330 113 64 47 255
-37.805030658956241 -16.883804499675477 -29.718822385908311 102 53 35 255
-37.635560173833795 -16.172789151945068 -29.759420514761409 83 36 16 255
-37.466135749950610 -15.460673766671420 -29.800050756186202 74 29 10 255
-37.394095176264358 -14.785441542177622 -29.820161389332576 40 0 0 255
-37.419406565327137 -14.147897711192030 -29.819754047539568 61 24 11 255
-37.542038024780140 -13.548847479055212 -29.798830281710906 89 54 35 255
-37.761957656242231 -12.989096043745519 -29.757391555979090 120 85 65 255
-38.079133554171648 -12.469448616521078 -29.695439243336303 110 75 55 255
-38.493533804700235 -11.990710443183715 -29.612974621231658 107 72 52 255
-38.810580147890789 -11.474470036245478 -29.551102927689804 104 72 51 255
-39.808404530715592 -11.238940238408020 -29.345409141908476 104 72 51 255
-40.417013083816244 -10.848153612196754 -29.221966246238765 101 69 48 255
-40.831016806676189 -10.379700852943969 -29.139670579735586 95 62 42 255
-40.272638610166581 -9.506442031514126 -29.262937504324334 90 58 37 255
-40.394932217910679 -8.916574235920351 -29.242386535536134 81 50 30 255
-40.614419923775642 -8.368388954377963 -29.201329866491044 70 43 22 255
-41.319861728035590 -8.028691917582549 -29.057560786958653 63 40 17 255
-41.442037086141454 -7.442057547876757 -29.037150966064537 55 34 13 255
-41.758551671838092 -6.939940385536985 -28.975686160181247 50 33 13 255
-41.103352628665476 -6.016219786600217 -29.119792601918178 46 35 12 255
-41.419862251249896 -5.514413577954315 -29.058429430844164 32 25 2 255
-42.902046341344629 -5.528337250520906 -28.750488918302160 14 17 0 255
-48.366386619561695 -7.318302422734462 -27.599940431731135 5 9 0 255
-49.944623797360720 -7.402691851908344 -27.271536310474339 1 3 0 255
-50.648518794345648 -7.102623110802043 -27.128156567159422 1 5 0 255
-51.546474799066573 -6.894071275372468 -26.943721887160223 1 8 0 255
-51.473343800377677 -6.248178676455908 -26.964873564357021 1 9 0 255
-52.176880842496047 -5.957405304663283 -26.821652067074211 0 7 0 255
-53.948033281433368 -6.162494823491087 -26.452388455425456 1 7 0 255
-55.039402642166522 -6.062035512685540 -26.227052658100277 0 5 0 255
-56.130545637296251 -5.967365139363167 -26.001768148555563 2 5 0 255
-55.377773078078434 -5.012798342248757 -26.167085227223843 1 4 0 255
-53.946007373842036 -3.732864300672318 -26.476360248539628 0 5 0 255
-52.999652030899512 -2.675112652939589 -26.682930783447752 0 4 0 255
-52.635549058683665 -1.889981762714768 -26.766235317459014 0 3 0 255
-53.823433734682993 -1.848833508513636 -26.520694944340029 0 4 0 255
-52.683500783974836 -0.687903025850900 -26.768593342123431 0 7 0 255
-34.408439869607264 -21.467138508737676 -31.050480377676429 200 157 132 255
-35.603251222691569 -21.242259918715277 -30.799770499678012 204 158 141 255
-36.213256574696004 -20.812163417301107 -30.674050963105145 201 154 139 255
-37.602449252602327 -20.669767194471618 -30.381753190466235 193 146 126 255
-37.822500422971217 -20.105029571298118 -30.339398627301939 178 128 111 255
-38.432082113131429 -19.685760563448653 -30.213771268334426 157 107 90 255
-38.359862059914860 -19.015171372929117 -30.233951585322707 137 88 71 255
-38.482408638374181 -18.417310720760085 -30.212511202593198 117 69 52 255
-38.118132557089837 -17.635453177090014 -30.295224882894708 105 56 39 255
-37.851295001869403 -16.888599566680114 -30.357143873815538 88 39 21 255
-37.681864091964741 -16.177555363756696 -30.398270032652917 65 18 1 255
-37.804465147551781 -15.578557808848373 -30.376957267969182 84 37 23 255
-37.927048319299644 -14.980074588218486 -30.355679677626711 120 79 59 255
-38.536149676637223 -14.573380949634597 -30.230320423780093 120 81 61 255
-39.145126451500488 -14.169892665420363 -30.104999968868910 118 81 61 255
-40.045836029024031 -13.885993480337177 -29.917249299649093 118 81 62 255
-39.779057294507083 -13.138115977285793 -29.979417314090746 113 76 57 255
-39.706876333727422 -12.467240286335382 -29.999978311168526 106 70 51 255
-39.731975539274089 -11.835375313424692 -29.999757007149320 107 72 52 255
-40.632265374863465 -11.562339503638583 -29.812171974941585 106 71 51 255
-40.948975374397293 -11.053219723703208 -29.749567717024163 101 66 46 255
-40.973963020108386 -10.424398428663167 -29.749475849950649 91 59 38 255
-40.707325258466994 -9.673437928603448 -29.811897107387843 90 58 37 255
-40.926757789538016 -9.125561055819873 -29.770250741561391 83 54 32 255
-41.146154298229902 -8.578676709578119 -29.728651485248854 76 50 27 255
-41.365515082912367 -8.032779184658651 -29.687100322269664 69 47 23 255
-41.390505270011204 -7.404325120427032 -29.687243943236261 62 47 21 255
-41.221189704102500 -6.691685849615112 -29.729083838434249 56 45 18 255
-40.857633275959103 -5.893232035120207 -29.812621767082852 57 48 19 255
-40.882712770490059 -5.262815586230928 -29.812920750197151 50 45 15 255
-41.490548443306636 -4.889378698774607 -29.688333746035134 49 55 21 255
-43.069401826030628 -4.950273435762611 -29.355564767332048 24 34 0 255
-46.784185836944062 -5.974324555456292 -28.564724214416536 0 6 0 255
-49.793925339090293 -4.848827847186953 -27.942361825761061 1 9 0 255
-51.564997273567002 -5.047055144368386 -27.568244141585460 1 10 0 255
-52.947538691257307 -5.074796234523006 -27.277476284058707 0 9 0 255
-53.941679389433432 -4.928793397806388 -27.070062508947693 2 9 0 255
-53.965449571463637 -4.332422419036462 -27.070965033249585 0 6 0 255
-53.213185647468407 -3.369200552010440 -27.238544020934967 0 4 0 255
-51.588152844311566 -1.986500574328304 -27.593639011421345 0 4 0 255
-50.642390418429130 -0.918983934601926 -27.803023345596500 0 4 0 255
-51.927244343766688 -0.918695148681607 -27.533438184833692 0 6 0 255
-36.988446500002254 -22.375611789362921 -31.149311569568631 201 153 133 255
-37.598246833669265 -21.947620897991939 -31.021924950985124 207 160 144 255
-37.915703715111022 -21.417034960610536 -30.957859333202940 199 151 135 255
-38.330492446273809 -20.923634951303299 -30.872724946428015 190 139 120 255
-38.550429225527068 -20.360755606661527 -30.829813495890441 174 123 106 255
-39.062444813853830 -19.907241748262479 -30.723642433549777 152 101 84 255
-39.184905241091315 -19.310972784182979 -30.701887596521765 128 79 62 255
-39.015291117810477 -18.605338207099663 -30.743450817422662 111 63 46 255
-38.456357996587855 -17.750999781939257 -30.869426321128373 91 44 26 255
-37.994886717892058 -16.930582060115157 -30.974335899479776 76 29 10 255
-38.409402879653555 -16.444441477564240 -30.889421055905018 136 89 69 255
-39.213072548562565 -16.111294777319685 -30.720163032611957 141 94 76 255
-39.627381365827006 -15.630506333381106 -30.635322276208377 129 86 67 255
-39.652458213296910 -14.998830938221374 -30.634897297717814 123 80 61 255
-39.872092828575717 -14.444167560710625 -30.592321167895371 121 80 60 255
-40.772551523413540 -14.162102776473660 -30.402125085959035 115 77 58 255
-40.603012994645525 -13.455146543949212 -30.444005186717007 111 73 54 255
-40.725256223858111 -12.865061999779897 -30.422643603716523 107 70 51 255
-40.458547699646488 -12.117042986906966 -30.485699066728188 107 70 51 255
-41.066917543081473 -11.726214299513700 -30.358953170484909 103 68 48 255
-41.189102313136800 -11.137835966010826 -30.337720188364898 98 63 43 255
-41.116868389407898 -10.469095060105900 -30.358719379101281 91 59 38 255
-40.753089577888602 -9.677678826471421 -30.443045276148524 89 58 37 255
-41.069664849552709 -9.170707116263756 -30.379762963519148 86 58 34 255
-41.094674378934002 -8.541588993446410 -30.379809676315851 82 57 31 255
-41.119691303931916 -7.912375122594952 -30.379905715779522 76 56 29 255
-40.950420061879043 -7.199525352535517 -30.422239683211814 70 53 29 255
-41.169748638691175 -6.653635812322975 -30.380250323787301 69 53 27 255
-40.709157587421714 -5.812557582157211 -30.485970813019783 67 52 25 255
-40.540029880718777 -5.096388838226531 -30.528464351823182 62 52 19 255
-39.982534765300898 -4.207612937817672 -30.655390546764082 52 53 14 255
-49.279974209240692 -3.976418838250282 -28.676550100036579 0 7 0 255
-50.759521970455637 -4.042586746951358 -28.360918531411180 0 7 0 255
-51.947734035438771 -3.980844604693033 -28.108629089647984 0 5 0 255
-51.971735285844034 -3.378712246046334 -28.109559996287025 0 4 0 255
-51.801776824615501 -2.684721747262600 -28.152751345436791 0 5 0 255
-51.050022781889140 -1.712826948396199 -28.322599608121642 0 5 0 255
-50.104526481093018 -0.643626251719894 -28.534720907852055 0 9 0 255
-38.008913471644149 -22.728127091383342 -31.575910076568682 208 163 143 255
-38.910677991762043 -22.407833145867173 -31.382777561519696 206 158 140 255
-39.227936538355834 -21.880724971554699 -31.317886115805756 198 149 132 255
-39.350382256399314 -21.284144677378279 -31.295759127921720 190 139 120 255
-39.472808293412811 -20.688111498369224 -31.273660523483798 163 112 95 255
-39.692568501781807 -20.128713105599971 -31.230224037843172 145 94 77 255
-39.717602256196926 -19.497670344161676 -31.229552453155591 117 68 51 255
-39.450641875309714 -18.756727153768040 -31.293011788116537 93 45 28 255
-38.989105514103841 -17.940350753402512 -31.399234308050858 94 47 29 255
-38.819611556742927 -17.232775484914299 -31.441388755127093 151 104 86 255
-39.331264025065309 -16.786194492850058 -31.334014655888858 135 88 70 255
-39.940102119258597 -16.380002889698801 -31.205312185633410 137 90 70 255
-40.256979475924908 -15.863078539403858 -31.140744961520177 132 87 66 255
-40.281992826445673 -15.232986217413995 -31.140312108241936 126 81 60 255
-40.598781933992598 -14.718423132195767 -31.075821917422488 121 79 57 255
-41.207250546713112 -14.321815345269883 -30.947276848908054 119 81 60 255
-41.134945244446641 -13.654965459593669 -30.968328055765518 116 78 57 255
-41.257116448858397 -13.066188233774071 -30.946690812725940 113 77 55 255
-41.184843055187145 -12.398688618512168 -30.967825606805683 110 74 52 255
-41.501410861521492 -11.890077604854255 -30.903545389552512 105 70 48 255
-41.331956301490976 -11.182304168724940 -30.946132950214000 100 68 45 255
-40.968186870093035 -10.392549300633348 -31.031495111872509 94 62 41 255
-40.798852540476361 -9.681920228287282 -31.074175076354607 93 63 39 255
-40.823889186781372 -9.052032804083950 -31.074174230011842 90 62 38 255
-41.043232652835741 -8.504503204469628 -31.031493719662528 87 63 35 255
-40.873984428032657 -7.791978874716108 -31.074321702586580 82 62 33 255
-40.801915370878447 -7.120035025209361 -31.095836941180288 76 60 30 255
-40.729876016898658 -6.447440909634309 -31.117405170052820 73 63 28 255
-40.172332823395266 -5.562658180574289 -31.245851660807972 68 65 27 255
-47.893418064929762 -2.695317582684240 -29.606396820664692 0 9 0 255
-49.372686865383116 -2.761215491649338 -29.286784683354732 0 7 0 255
-49.978848061234345 -2.425038916711060 -29.159539446012957 0 9 0 255
-50.100059896307755 -1.862772504489286 -29.139199047322805 0 10 0 255
-37.445524037435774 -23.161848625761408 -32.344142943235589 202 161 138 255
-38.931596345995871 -23.045877358743482 -32.018685373708756 208 159 142 255
-39.248826638239876 -22.517912088396898 -31.952937580872764 205 156 141 255
-40.052824642206872 -22.167978233374285 -31.779022583573486 197 145 130 255
-40.077809619965166 -21.537978887944931 -31.778250650125706 183 130 113 255
-40.492175217033775 -21.051263734483214 -31.690953139227084 158 109 89 255
-40.419787244410855 -20.386262981573594 -31.711878327801152 129 80 61 255
-40.639392817861420 -19.829798924316506 -31.667919680345797 96 48 29 255
-40.275082700203257 -19.054630845246265 -31.753819213101458 98 53 32 255
-40.397370323210737 -18.461790376323734 -31.731562447394090 151 107 86 255
-40.325057289287514 -17.795135599760556 -31.752613977465558 142 98 77 255
-40.641890647771618 -17.277680543298573 -31.687152337488513 135 89 69 255
-40.375045067411179 -16.535562723169846 -31.751547568736200 130 84 64 255
-40.594562510074496 -15.981695606793664 -31.707796297823208 127 83 64 255
-40.619544644476093 -15.352375415447796 -31.707356223268093 123 80 60 255
-40.839006201000018 -14.800057353957399 -31.663683075603622 120 78 59 255
-40.961202685379448 -14.209986394581861 -31.641686607253185 119 78 59 255
-40.986166550385263 -13.581347165345889 -31.641367415110231 116 79 57 255
-41.205546308138992 -13.031315901369211 -31.597819261405171 112 78 56 255
-41.327694008770521 -12.442706132157312 -31.575950519433597 111 78 55 255
-41.644193777007757 -11.934315103325261 -31.510855561289581 106 74 51 255
-41.766288908703132 -11.347193849099625 -31.489077458506756 106 72 50 255
-41.499719320523582 -10.598892247811960 -31.553887655091550 100 68 45 255
-41.136069206529783 -9.808206598325214 -31.640380958730681 97 65 41 255
-40.772512057102603 -9.015272013015561 -31.726923372459339 93 67 38 255
-40.797568879793772 -8.384972791167797 -31.726974854547265 87 67 36 255
-40.531275130699100 -7.630096086379751 -31.791984187240239 83 67 35 255
-40.070836596746773 -6.789965032278531 -31.900317677103374 76 69 32 255
-39.416318200494203 -5.862949819418390 -32.051977262122243 75 78 33 255
-38.660376557487695 -23.580605127486365 -32.720341273886596 208 163 142 255
-39.464450400473510 -23.224656166796379 -32.544183129619626 208 158 142 255
-39.684210970298352 -22.663001111098126 -32.499519105960246 206 154 140 255
-40.390662600851101 -22.278825616483232 -32.345333240490966 192 143 128 255
-40.610287091835232 -21.720702877584912 -32.300728622723476 177 124 108 255
-40.927195721984106 -21.199482714638592 -32.234244905132996 154 106 86 255
-40.757470446824669 -20.499446466696625 -32.277338423296165 107 60 40 255
-41.074308628960296 -19.980114474060585 -32.210917951325861 111 64 44 255
-41.099206367630302 -19.352512779375928 -32.210256802152777 155 111 90 255
-41.318671416376645 -18.798694763241215 -32.165812420955085 144 103 81 255
-41.246282227030605 -18.134437998447765 -32.187127229357948 139 97 75 255
-41.173917855099916 -17.469620710540283 -32.208476908720804 134 89 68 255
-40.907078436534619 -16.728822625021948 -32.273677596651176 131 88 67 255
-41.029264630506219 -16.138286134853018 -32.251285475845833 128 87 67 255
-41.248662188586820 -15.586503533973385 -32.207025395841349 123 82 62 255
-41.565239206379744 -15.074280408308780 -32.140898949994188 119 81 60 255
-41.492927915543675 -14.408480722195833 -32.162441449569293 119 80 61 255
-41.517839534586045 -13.781150095592508 -32.162119073092548 116 80 59 255
-41.445570741102244 -13.114436523563825 -32.183746384118599 114 79 57 255
-41.567678961823418 -12.526320839623551 -32.161605012971840 111 76 54 255
-41.689771600002189 -11.938680793779881 -32.139509303100390 107 72 50 255
-41.714695443657149 -11.311371612027997 -32.139366613241471 108 74 50 255
-41.253911959929809 -10.481937991077771 -32.248802802363180 103 72 45 255
