ply
format ascii 1.0
element vertex 658
property float x
property float y
property float z
property uchar red
property uchar green
property uchar blue
property uchar alpha
end_header
-41.764040638070554 -12.751504497836720 -49.305569808940881 179 128 109 255
-39.621469872168149 -8.372411093140073 -48.576310384869331 164 123 97 255
-35.792869071701091 -1.449426906913004 -47.226796732544216 114 108 65 255
38.816812865245254 -18.000444738698206 -14.238644592878984 164 127 103 255
40.360186340025706 -15.208565262746532 -13.703286420340277 152 117 91 255
40.296675432551609 -13.980797422503713 -13.796232609660564 143 112 84 255
40.370438344491646 -12.612860651777225 -13.835833790193703 136 108 78 255
41.273321102511886 -10.413163552220453 -13.552525766942040 131 105 75 255
42.931391749042149 -7.442803156180474 -12.975791019871167 118 98 69 255
42.856330616716832 -6.195457710599783 -13.074824422457013 117 96 69 255
42.091107725563916 -5.642572396897037 -13.442512545256506 61 33 9 255
40.983379186196856 -5.441294394781551 -13.943151617018572 113 81 58 255
40.015329435469766 -5.103930197687419 -14.389168290133483 133 99 77 255
39.323087706576587 -4.488357492929367 -14.727841677133142 140 105 83 255
39.383374008439091 -3.097603595851353 -14.774504968229962 128 98 76 255
-38.270219433156541 -14.203215020068171 -48.535824012837260 188 149 123 255
-39.663493695398216 -15.010035195294307 -49.109837549300011 194 149 126 255
-40.221894671648784 -14.621569096059943 -49.377586471370016 192 146 123 255
-40.365257199449815 -13.631380022618799 -49.493490384511269 186 141 117 255
-40.391611918042315 -12.466586199361643 -49.566863330744894 174 126 104 255
-39.241246320007662 -9.567142593764487 -49.211207515996982 164 117 93 255
-36.099118984569571 -3.704087816070341 -48.130804579099774 132 106 73 255
37.512889816312622 -23.490133331801132 -15.580504793917171 179 136 117 255
36.920933306780427 -21.550616702606618 -15.946312641401903 164 128 106 255
43.374886669787543 -12.705117067887898 -13.589697930288764 140 108 81 255
42.749925389418451 -12.017521272312052 -13.901847551486128 134 105 76 255
41.917023110405268 -11.537346460242162 -14.294128646771952 129 103 72 255
43.305843568093309 -8.851057780717326 -13.829527846991638 126 103 70 255
44.202782580027218 -6.637384222026100 -13.555478657260210 112 91 62 255
44.126818161468009 -5.387371514652244 -13.656772078004764 72 46 21 255
42.393707521839133 -5.807491240281024 -14.395836423841246 98 66 43 255
41.629396741488819 -5.257000323275633 -14.761711795681123 131 96 74 255
40.797517783058964 -4.778618916580399 -15.153361131460741 140 107 84 255
40.447147551838356 -3.810026730418031 -15.359947361888857 136 104 81 255
40.712390351664624 -2.205269469474217 -15.330444409611076 117 91 66 255
-33.601710821533516 -6.803737663859295 -47.744653972124858 165 158 112 255
-35.540175263541272 -8.369645368170438 -48.512059178880214 175 153 113 255
-36.107855313108843 -7.966018822964884 -48.783807224458513 173 148 109 255
-36.970619444296034 -7.995481872627806 -49.161782460496219 159 134 95 255
-35.115615801187431 -4.045462856352628 -48.561098344219438 130 115 72 255
39.627276987785535 -21.896486666988977 -15.798548704877987 173 134 113 255
39.785658813539698 -20.482090710366975 -15.808493728267365 168 132 110 255
40.152227359948142 -18.860121536013594 -15.739070758517727 156 122 100 255
45.140187913945795 -11.432168360783663 -13.975179824745496 136 105 77 255
45.628775487752847 -9.643362208974224 -13.861725144522609 130 103 74 255
45.278048047501272 -8.673751720432392 -14.069147832868765 125 101 67 255
45.343895691269154 -7.289325230537202 -14.117746085626237 120 97 63 255
44.922090538266247 -6.386074035400497 -14.352480766705284 108 84 56 255
43.738482758298318 -6.246605423887104 -14.877327664377702 74 46 22 255
43.041356637163261 -5.623992843400515 -15.216629595071851 147 112 90 255
42.414084338307816 -4.932972931773747 -15.529223013319694 144 109 87 255
41.925104130658468 -4.102725127064502 -15.789167212552712 144 111 88 255
41.642321221461259 -3.061523794407890 -15.970804830463351 128 99 75 255
43.593888020339335 -17.260034552156725 -15.401577744554828 156 123 102 255
45.291021789203143 -14.337759665941718 -14.832716628643468 148 117 93 255
45.646938377277621 -12.695393799795795 -14.772584146225626 136 108 80 255
47.050105986252078 -10.022889844171885 -14.316961275671730 135 105 77 255
47.397768431676155 -8.366531889260330 -14.261180998096222 129 102 72 255
47.742307410217990 -6.704881779127504 -14.207043534243724 122 99 67 255
46.969726914209872 -6.141981316229788 -14.574753081151783 115 90 61 255
44.669483202777656 -7.104079014045112 -15.518056520018746 77 52 22 255
43.624702010586503 -6.827904169765873 -15.987435671071069 120 89 62 255
43.758955954959134 -5.370909013845676 -16.012769729685687 150 114 90 255
44.029074416405194 -3.770171270639025 -15.987361942195236 143 109 84 255
43.330929953360140 -3.146488132104082 -16.326171297196296 133 105 78 255
43.115441645388955 -2.031786967615403 -16.483634025416492 111 93 64 255
46.549439814547640 -17.444241530157854 -15.189914519543095 166 126 107 255
49.319315562395815 -10.902178589797700 -14.381128918707091 143 115 92 255
48.826499821622889 -10.065415585894442 -14.643116474144819 133 107 81 255
48.754633477796261 -8.818902407223788 -14.747661874064093 131 105 77 255
49.031302905047113 -7.227103165384875 -14.722201494131838 127 102 74 255
48.955723645692757 -5.974310024534702 -14.828682606005060 120 97 68 255
47.413979514470014 -6.167850952899073 -15.482320080491618 120 94 69 255
45.319426351880878 -6.922111568696891 -16.341342149896107 83 56 31 255
44.134306086197427 -6.784108562139977 -16.860659706094765 148 118 92 255
45.101622364768161 -4.490861490211557 -16.578551524292607 150 117 92 255
45.440516747118323 -2.817366149849590 -16.530965083306043 145 111 84 255
45.914449976276018 -0.998333230009621 -16.433692899976265 119 99 68 255
51.456937462100569 -10.615188603547608 -14.579606578849877 149 119 98 255
51.596548844087039 -9.163743261315119 -14.607661318030097 143 115 93 255
52.156226927328959 -7.299868302324683 -14.480596991491097 134 108 83 255
51.517465331836007 -6.590586548554995 -14.797341750467041 131 107 79 255
51.159844106931104 -5.608216317639176 -15.010085169490537 125 104 75 255
49.401798787758963 -6.000325524396601 -15.739910503555095 122 98 70 255
47.508907285633057 -6.538715422941834 -16.518666009960072 96 68 44 255
46.667407229506040 -6.048089168995006 -16.909006615990336 142 111 87 255
46.175312822679331 -5.212668563905595 -17.170426007230873 155 121 96 255
46.864201987167775 -3.193043021195706 -16.997273215263434 140 111 83 255
47.063318155918779 -1.655129277053163 -17.004889249997518 127 109 75 255
52.043057555672277 -11.818995360462310 -15.356499035099347 149 120 95 255
53.672035845209365 -8.950605920844339 -14.840772459371479 145 118 92 255
54.021329932722750 -7.290024382466527 -14.795106217092439 143 116 90 255
53.168672097050631 -6.781421937068956 -15.189857226087142 137 111 82 255
53.302824509025271 -5.319007647161925 -15.223483303286727 130 109 78 255
52.380871688972462 -4.880585468152162 -15.643351842457079 126 107 74 255
50.829532418199591 -5.063824026658665 -16.292686056431307 123 103 71 255
49.352261440318017 -5.185025585819119 -16.914304642830942 84 60 30 255
48.926582275436004 -4.274598410670649 -17.152038062548854 150 124 95 255
49.407054948243996 -2.461219649338432 -17.059845526686360 140 115 84 255
49.535949359562522 -0.989954506998060 -17.096146202218861 120 111 72 255
55.826784215541494 -8.677722610187317 -15.053654553293939 146 119 90 255
55.254978316178409 -7.894953443371548 -15.345481585203800 143 116 89 255
54.683514973927089 -7.112780754675725 -15.637103204269209 139 114 84 255
54.889425847066576 -5.582457281567713 -15.647303758781803 137 113 82 255
54.881226655460438 -4.252630009890595 -15.735341690199775 127 112 75 255
54.237887268023059 -3.536468455161867 -16.053118044243064 126 116 78 255
52.822535198949794 -3.577587670561002 -16.649423564800188 126 115 77 255
51.691153509362636 -3.348847827284544 -17.142697349490248 81 66 32 255
52.241577210604220 -1.463512093425265 -17.029577156257460 141 136 93 255
57.694073647008764 -6.028282786081377 -15.552411331763182 139 119 83 255
60.379803906318813 -2.119392254705133 -14.677743831519962 126 117 77 255
58.878794335384129 -2.205843324869647 -15.303258862301391 107 114 64 255
46.237601847068561 -2.425008843745900 31.966054509412629 166 129 103 255
44.017550959364769 -3.815041069435210 33.399678122558157 157 118 93 255
43.719225721810119 -2.894915717637730 33.645275381192164 150 108 86 255
43.913569706996554 -1.372674129378026 33.586767371571739 143 106 82 255
43.428833123955656 -0.675328830740000 33.947654265826031 135 100 75 255
42.269047077293209 -0.810237658062420 34.724862403485218 127 94 66 255
46.563722521501120 -2.601791348933148 30.620129601445541 172 133 105 255
42.922667399343595 -5.695618455108161 32.949094675431894 170 124 106 255
41.577066446830912 -6.048882507900430 33.846248416177616 161 115 97 255
41.405053315621672 -4.985414843117098 34.012080515224426 153 109 90 255
41.600811222315059 -3.469386145890894 33.949127616421606 146 106 85 255
41.426204377286467 -2.401198623156688 34.116924076048520 136 94 74 255
40.577401779747646 -2.162820911054723 34.704101025596344 127 87 63 255
40.463363943536478 -1.017885999616283 34.834315807107089 123 87 60 255
42.694118113133470 -6.530264866091102 31.962991745772285 174 127 105 255
41.349470283057713 -6.879782694864559 32.864503938913998 169 122 106 255
40.746605562021898 -6.339938398172023 33.299638138462598 163 114 97 255
40.390055454518546 -5.501919072260137 33.580028629071762 157 110 92 255
40.033307924746907 -4.663548899202624 33.860560844475003 146 103 84 255
39.798642537482436 -3.674129542650007 34.064540269427198 137 92 73 255
39.258205342249227 -3.061322522150988 34.460311982010154 137 93 74 255
39.509943511230233 -1.464170043768718 34.359569107462050 149 108 86 255
48.139367799544175 -1.862368335799943 27.324404605235657 169 139 113 255
42.527219129326625 -7.291057680349638 30.937629736634165 170 131 108 255
41.060279620993612 -7.785028609001699 31.921614226458871 172 123 106 255
40.519132786866606 -7.170135165363178 32.318660381696020 167 118 101 255
39.917203658362496 -6.630892986140452 32.754106032556109 163 115 97 255
39.254859215241851 -6.167969978440169 33.227673149682914 155 108 90 255
38.532466318477930 -5.782033797793247 33.739083826512257 150 105 86 255
38.055145920255796 -5.097106960237397 34.095352359916433 146 101 82 255
37.638946621004720 -4.337167720835680 34.412944103869961 154 111 90 255
37.890568550733718 -2.743796398547090 34.308588237068250 152 107 86 255
37.715461711977355 -1.677596085440030 34.474077928044466 140 95 72 255
37.176653064860886 -1.067026281713481 34.869289498951332 150 110 85 255
41.263148374173170 -8.098161814033602 30.664779661476786 168 125 107 255
40.107506681275737 -8.223049608030209 31.455128792347125 170 124 103 255
39.751104060163442 -7.385970963207370 31.734784396985731 166 118 100 255
39.027732151301791 -6.996387928644623 32.248665593615442 161 114 96 255
38.427642040464150 -6.459408052412186 32.683723469842221 157 110 92 255
37.523911111037819 -6.299296135422367 33.312317329726483 152 105 87 255
36.804468992837201 -5.916920666458026 33.823169993610662 156 109 91 255
36.146936631934750 -5.461337492936309 34.294406016556735 162 117 96 255
36.216645041348812 -4.098567027222771 34.302270769338691 149 104 83 255
35.620095005232628 -3.568082301701850 34.734598266667149 143 98 75 255
34.964053312304543 -3.115226360527458 35.204691773950856 151 110 86 255
34.910554857919436 -1.900001118955402 35.291311951133849 131 95 69 255
46.255272969367383 -3.963219848581730 26.266142949805811 175 138 115 255
41.956478435857122 -7.825016547735629 29.087106820841882 177 127 116 255
40.370614237741762 -8.461186561054092 30.158782418624668 168 122 107 255
39.707204021149124 -7.993324461812364 30.635937258714762 166 118 98 255
38.861631841625211 -7.750542935484816 31.230198846727546 164 117 99 255
38.139697161087383 -7.361745142828568 31.744687991994454 160 113 95 255
37.540667258289915 -6.825590913878500 32.179965941719047 158 111 93 255
36.760331658473945 -6.516074357005124 32.731703137515979 150 103 85 255
35.739216485014083 -6.510490917688344 33.437991104565754 164 117 99 255
34.660141332396876 -6.584976177924915 34.181207011797113 170 124 104 255
34.428410720316407 -5.604160219966502 34.379939216017192 133 88 67 255
33.774547093398127 -5.153810145681462 34.849734304657431 159 114 91 255
33.602390234422927 -4.095881500206872 35.010298405794686 159 117 93 255
33.549232861647340 -2.883450077808732 35.094645862161627 141 102 76 255
33.973388757680681 -1.055413215598207 34.873119325579211 133 98 70 255
41.850065730052734 -8.514619059456095 28.018935082127683 179 132 116 255
39.285340297605984 -10.324945024453399 29.732720975894182 176 126 115 255
38.868336473029984 -9.563392738186678 30.051060172841062 166 120 106 255
38.634365598606763 -8.579480478397983 30.250580292767410 163 118 99 255
37.912721979037201 -8.189356859556312 30.766568942942058 162 116 98 255
37.192347746609158 -7.801567033252155 31.281574108316448 160 113 95 255
36.473243234144974 -7.416109465927320 31.795597519768535 155 108 90 255
35.694901892929892 -7.108029757094812 32.347856387409593 155 108 90 255
35.159613931329545 -6.501644122536703 32.742461729268712 166 119 101 255
34.263288179944141 -6.349207028952094 33.370824126949628 168 121 102 255
33.669668192296768 -5.821852193598772 33.802973695029834 124 77 57 255
32.776738642661627 -5.675624592763313 34.428736782660849 176 131 108 255
32.604568374692860 -4.619111591061937 34.587976185660580 157 112 89 255
32.610794786226336 -3.331751313444556 34.631954662803309 152 108 85 255
32.913624353737561 -1.658321111232851 34.484385794185755 141 100 74 255
38.997143096140860 -11.227008049742693 28.793705022920790 179 131 115 255
37.908657681300895 -11.276136110957680 29.551679498224701 172 122 109 255
37.614983681089512 -10.369424385522109 29.789166045994250 165 116 103 255
37.685708140977454 -9.017113995019486 29.788279168762415 158 115 98 255
37.329733002004559 -8.181846573359849 30.066653177761850 160 115 96 255
36.549624816813775 -7.868307176998854 30.622330726823066 160 113 95 255
35.771031149288120 -7.557547545627642 31.176839232014288 158 111 93 255
35.235224599959338 -6.949455524447274 31.572544312942227 156 109 91 255
34.639760014044185 -6.417606275073553 32.007145530650575 164 115 98 255
33.924930236061414 -6.038140900961139 32.519587610172607 163 115 95 255
33.031516387907629 -5.888092102070232 33.148442637631007 133 86 66 255
32.199936000908792 -5.665786270140586 33.736728882991713 174 128 105 255
31.967191088055529 -4.685270543928482 33.934240045318347 156 111 88 255
31.674179108096439 -3.779874723639637 34.171122125236764 157 112 89 255
31.380730047662979 -2.873677690271393 34.408340647811769 149 104 80 255
31.383551513364182 -1.582622794350073 34.452579137563134 133 96 70 255
39.808960150958910 -10.810739493188862 27.128790952550730 182 139 119 255
37.987273139942801 -11.734628752161512 28.374653875858343 171 125 108 255
36.962465884220023 -11.711195916474708 29.094055789886852 169 121 104 255
36.608291445826637 -10.879517921215722 29.370776229514888 165 116 101 255
36.314537754935031 -9.973384455840403 29.607652688970774 161 115 98 255
36.020343110490813 -9.066464061015893 29.844848751000256 159 114 95 255
35.423840094257372 -8.531565342004342 30.281311515169904 159 114 95 255
34.767867500868022 -8.072893823602641 30.756860013381754 158 112 94 255
34.413568006575758 -7.241069174367510 31.033600161220164 159 112 94 255
33.879052485111686 -6.634592757356870 31.429007598122809 162 113 96 255
33.225305491293426 -6.180016261322777 31.902828785386674 141 92 74 255
32.154245027690138 -6.257060863315303 32.651121550744676 157 108 89 255
31.563048398356301 -5.731907461570586 33.083482882278247 174 127 106 255
31.091672835032483 -5.055940794415847 33.436971182318644 167 120 99 255
30.679989382746697 -4.304167397062542 33.751190826005171 160 113 91 255
30.149807909083648 -3.705622593303701 34.143274308597398 157 110 88 255
29.915929731754233 -2.724101752300783 34.340663853103791 139 99 75 255
29.740401985101812 -1.664317572750065 34.499814877648390 125 90 64 255
40.679510496121253 -10.329920879918291 25.413282643981688 177 142 118 255
37.882425573551984 -12.415325531742837 27.316192049540405 176 133 114 255
36.857999810283246 -12.388892418755347 28.038729657345812 168 121 103 255
36.564147986169985 -11.483238423775163 28.275070460450479 166 117 100 255
36.027648960710081 -10.872291436371142 28.672778339222418 162 115 97 255
35.431257303307859 -10.336441002690890 29.110226800495184 159 114 95 255
35.016567993523694 -9.579078913436547 29.426833106271488 158 113 94 255
34.662112317123388 -8.747280413138299 29.703403851917358 158 113 94 255
34.187336359794131 -8.064671252627534 30.059888936704169 157 112 93 255
33.772795044515703 -7.307623517206935 30.376341404667272 162 115 97 255
33.059212040264498 -6.926735400325072 30.891261112815727 158 109 92 255
32.167811975110340 -6.774481681187467 31.524031706877736 125 74 57 255
31.218842231470319 -6.701552447369238 32.194782857398565 169 118 101 255
30.747738013742833 -6.025691424719895 32.548425431942150 180 129 112 255
30.276929302631288 -5.350372359717710 32.901840295683513 173 122 105 255
29.569584326757365 -4.980897978631390 33.411977939301465 163 112 95 255
28.981683445274143 -4.460646914440360 33.842858265324509 159 108 91 255
28.866278172212219 -3.327649257481198 33.960736810412584 146 103 81 255
28.573179082205996 -2.423496166630628 34.196385974248273 132 95 71 255
38.203226914946839 -12.586445324209478 25.970572159144155 174 134 112 255
36.813952332075331 -12.994545581095394 26.941321613511519 169 126 107 255
35.852884589884269 -12.896055376451073 27.624522104195989 170 123 105 255
35.619880730626022 -11.918134475626914 27.819387307933681 165 116 99 255
35.084378490056309 -11.308249780735594 28.217036952606065 161 116 97 255
34.489172879161060 -10.773443061787532 28.654620309594122 160 115 96 255
34.075103559581351 -10.017184633826616 28.970779822782333 156 112 93 255
33.661083489739383 -9.261033121405433 29.286886005433416 153 110 91 255
33.067491669356059 -8.729224688357704 29.723190029033901 152 109 90 255
32.414931208467863 -8.273828166522748 30.198874163884568 157 110 92 255
32.001916682434256 -7.519552098961185 30.514176499448524 160 111 94 255
31.231908297687028 -7.217866983837638 31.068252940622187 111 60 43 255
30.522801744905451 -6.843320420528016 31.581454961951550 176 125 108 255
29.814967544996051 -6.471102329654485 32.093681186460827 184 133 116 255
29.226688253440102 -5.949043495157923 32.525885517486870 179 128 111 255
28.639193218367978 -5.428417590616050 32.957490516557840 170 119 102 255
28.229174031590674 -4.679634590924820 33.270485052835056 164 113 96 255
28.289408394287278 -3.316926133213883 33.269486680557350 155 107 87 255
27.878517921752575 -2.566542809373800 33.583154826028306 138 97 75 255
28.345647746760335 -0.658281573961176 33.310915876815500 121 87 62 255
39.556125395981240 -11.525926230023458 23.920587304344338 172 138 111 255
37.194097497261566 -13.091247738456588 25.554821725626368 175 129 110 255
35.687504930873729 -13.646682696516564 26.609995165227019 168 123 104 255
34.849958937256247 -13.403010681864686 27.212542127280017 167 120 102 255
34.436242633668627 -12.647303322545042 27.528518936255523 162 117 98 255
34.203095326126373 -11.670205840730432 27.722487541407503 159 114 95 255
33.909211955661817 -10.765935732410469 27.957516225968561 157 114 95 255
33.375171837642739 -10.158001574211795 28.354716783773455 154 111 92 255
32.961284429900331 -9.402062033490523 28.670749781336326 153 110 91 255
32.547447268574871 -8.646229567427810 28.986730227229259 151 108 89 255
31.835846501883310 -8.265248891158762 29.503578122984266 154 109 90 255
31.244399561258263 -7.736258917757311 29.939263124226500 153 106 88 255
30.416462135884018 -7.510291067381218 30.534329836663602 107 56 39 255
29.945465065673659 -6.833837758049185 30.888621021279050 177 126 109 255
28.943093780147308 -6.840500473272527 31.600978873826335 186 135 118 255
28.120073183070389 -6.623528086881237 32.192277157342062 183 132 115 255
27.357643909646924 -6.333485970076367 32.742605487087758 178 127 110 255
27.183815025497267 -5.281115639972370 32.896463228741624 169 118 101 255
27.243408010797111 -3.920125455862888 32.893275969893693 160 113 95 255
27.242637458469460 -2.632617102956829 32.930888382350872 146 103 84 255
27.531924054989531 -0.956188794582715 32.773511111474988 127 90 66 255
37.815246678553819 -12.902200897367379 23.997123851728134 174 131 111 255
35.642892748561337 -14.252131243166247 25.512251926645774 174 127 109 255
35.046813935887343 -13.713381718080740 25.952678482548208 167 120 102 255
33.909452812091388 -13.836391941388172 26.761758896149502 165 120 101 255
33.436249932318987 -13.155375464210408 27.118229734350933 161 116 97 255
33.203279088423784 -12.179661341571375 27.311080044670433 155 112 93 255
32.909761503952296 -11.276755884120348 27.545183741650305 152 109 90 255
32.376843083614801 -10.670108772562173 27.942233828968767 153 110 91 255
32.142554889609471 -9.692046441090383 28.136036408165751 150 107 88 255
32.026576757631091 -8.563340691651234 28.249404113614048 147 104 85 255
31.256314422348311 -8.256736239402812 28.807804514636729 147 102 83 255
30.546821017759385 -7.877761682898381 29.324751518114169 147 100 82 255
29.956860156819459 -7.350370647674737 29.760335614708907 104 53 36 255
29.426691750460861 -6.748822047564033 30.155215620557158 180 129 112 255
28.072665121829800 -7.209767421505433 31.109741326465297 187 136 119 255
27.075178462880245 -7.221679689761345 31.821773103391905 186 135 118 255
26.373393048074234 -6.856811257951335 32.332808579206670 181 130 113 255
26.316595498840144 -5.652876123488738 32.405897016853885 171 120 103 255
26.375181812344096 -4.292935340718032 32.400801361904144 158 111 93 255
26.198767213770282 -3.237265173863989 32.555314606344211 148 105 86 255
26.370351513657766 -1.716952528214563 32.473864583003149 132 96 74 255
26.307423605938880 -0.501798758682639 32.551654309700609 122 89 64 255
36.201903109491099 -14.132442811646257 23.997525906474522 174 130 113 255
35.061833840576810 -14.246037324759186 24.812817156600943 172 124 108 255
34.045070842802943 -14.218858096881490 25.543168530202223 166 117 100 255
32.970759975468127 -14.269606903961431 26.312815174321372 162 117 98 255
32.678121617471561 -13.368957785926426 26.545644547321842 157 114 95 255
32.624226957439873 -12.172351256324220 26.614637801631119 154 111 92 255
32.210873244034531 -11.417282790841995 26.930359395294943 153 110 91 255
31.618915030846864 -10.885047292547426 27.368577643426818 153 111 91 255
31.443746193461777 -9.833014762957447 27.520876841238135 148 107 87 255
31.267651358344210 -8.779306651422843 27.673868556668481 142 101 81 255
30.913075779261533 -7.948651939839721 27.949267620532225 146 101 82 255
30.262993013512954 -7.493322999172904 28.427192002956417 147 100 82 255
29.672880452650105 -6.964528167042772 28.863936355825558 96 45 28 255
28.848277792396203 -6.739491307489487 29.461239578854901 178 127 110 255
27.497166046571579 -7.199895203906152 30.418976444874829 192 141 124 255
26.325737248073096 -7.439459343851809 31.253371406261635 190 139 122 255
25.625156096659794 -7.074936642735679 31.765205707820485 185 134 117 255
25.509155159475057 -5.948034879805164 31.876880006387267 174 123 106 255
25.566613539919473 -4.588920295477635 31.869970147713332 161 113 96 255
25.622173620097357 -3.226334608085040 31.864513464281401 153 108 89 255
25.849730060057169 -1.628859933390345 31.741593558242016 141 102 81 255
35.793684603787511 -15.178217365552598 23.143779849499992 176 133 109 255
34.353654092339525 -15.652719159577572 24.170821860552621 175 128 110 255
33.518785963741067 -15.406117739796144 24.778573183202155 171 124 106 255
32.685676806443212 -15.162758679187164 25.384953866216620 164 118 100 255
31.914178412351049 -14.849312712357829 25.948547175235461 160 115 96 255
31.801216354441351 -13.729595373935609 26.056386334750016 158 113 94 255
31.746688617927418 -12.533984470809344 26.123868277645897 156 112 93 255
31.452805436748520 -11.631799047394708 26.356964733337094 152 109 90 255
31.099121557710106 -10.803054078530295 26.631422345599930 151 110 88 255
31.041446973441879 -9.601753851349002 26.701253188554972 146 106 82 255
30.627648305750114 -8.845889867244040 27.017298628072609 140 100 77 255
30.331894300558247 -7.940354965004587 27.251761056844828 142 99 77 255
29.859082115912287 -7.259376159044365 27.608560106931577 144 97 79 255
29.327815099409321 -6.654286889371804 28.005701044354566 88 37 22 255
28.445309964263373 -6.503550925025110 28.645332138062059 175 122 108 255
27.096748162955976 -6.962744025478912 29.606561399232135 185 132 116 255
26.160846480297039 -6.897137253822365 30.282671072705512 193 142 125 255
25.227194984985374 -6.835642992669364 30.957060077644599 189 137 121 255
24.935353466560883 -5.937299533439671 31.188492835459641 178 127 113 255
24.759117365819236 -4.884814151730325 31.340219838641588 166 119 101 255
24.466163611347611 -3.984434254046619 31.572506511997403 156 110 92 255
24.461655437437543 -2.697660261751139 31.605964276779105 148 107 85 255
24.397840121279813 -1.485201022366823 31.680431499638871 135 97 74 255
33.766794143728617 -16.910871513146105 23.449229569555200 179 134 111 255
32.993118641958176 -16.591133699506202 24.016631613155596 174 128 109 255
32.280864420482089 -16.201331549950424 24.541049246381476 171 124 106 255
31.749234577067881 -15.594623877624116 24.939353137665222 165 119 100 255
31.277804680816615 -14.915616731471175 25.295609318946958 159 114 95 255
31.223450121563957 -13.722449600405781 25.360986959639973 156 111 92 255
31.167679078758795 -12.526718047122301 25.427425149330077 154 111 92 255
31.110492404474400 -11.328421974263335 25.494924770221871 151 108 89 255
30.815196089727124 -10.424366271334009 25.728441450931257 148 107 85 255
30.578514494606651 -9.445106275523131 25.921129663498391 142 102 77 255
29.928646372885908 -8.987151985520569 26.401687121959014 137 98 74 255
29.867881042532360 -7.782387280978497 26.471856680449321 139 97 75 255
29.277536702509593 -7.250898234317333 26.910883016408718 142 95 77 255
28.687978427316523 -6.720855755682919 27.349299059327933 82 31 16 255
27.807001127049290 -6.569956253166339 27.990501790357087 163 110 96 255
26.928030759282166 -6.422729489161782 28.630165407732704 178 124 108 255
26.051067190554988 -6.279173243479050 29.268291845422198 191 137 121 255
24.827660585484836 -6.596535259442931 30.147279819960715 192 138 123 255
24.245206770566483 -6.079494246728984 30.580247351806349 183 131 117 255
23.894862917188476 -5.257272168318536 30.851762936265374 169 121 104 255
23.659747343683307 -4.280947025759190 31.043186215755213 161 113 96 255
23.423954368465132 -3.303379546711767 31.235131472123186 155 110 91 255
23.244949225628091 -2.247245657571284 31.387666785619388 145 104 82 255
23.294395724055164 -0.879240276684300 31.381551638422394 126 91 66 255
34.262208468205159 -16.867208151074266 21.969941314590699 180 141 111 255
31.988368429655509 -18.353071989014609 23.594776684853429 180 134 111 255
31.278000660642562 -17.964821171832625 24.119509667989917 175 130 110 255
30.748056819085036 -17.360395331520124 24.517265461709741 172 125 107 255
30.814607193662710 -16.026325809380410 24.495590557050036 165 118 100 255
30.819777525033345 -14.762088231293319 24.517153806869487 158 113 94 255
30.941989251295269 -13.347816824601978 24.456537960444109 155 110 91 255
30.706677463404333 -12.372053917921562 24.647257702399997 151 108 89 255
30.707111410520298 -11.099233313369353 24.672374784567722 149 106 87 255
30.469947831143458 -10.120129173142004 24.864470546389896 145 103 81 255
30.349828943974700 -8.990990640475218 24.974390799304899 139 99 74 255
29.758617756559232 -8.456756798852297 25.415155740277527 133 95 70 255
29.461284460754996 -7.549719034914119 25.649543380486847 133 91 69 255
29.046523940137376 -6.792047980885570 25.966369895206043 137 89 72 255
28.456694935750249 -6.260377636588089 26.406043263913745 81 30 16 255
27.925904872466191 -5.654633743555905 26.804234310243430 134 82 68 255
26.814356827143797 -5.807317517961451 27.609800687421540 176 118 105 255
25.821808520088979 -5.813525151341196 28.331710340372837 190 132 118 255
24.600211261389688 -6.129048767001137 29.214084121284941 197 139 127 255
23.901961191028136 -5.763210096934074 29.729304885898756 190 133 122 255
23.262627775842304 -5.323064793013998 30.203145728494519 171 120 105 255
22.739365037726088 -4.731085065081004 30.595574309004633 164 115 98 255
22.503635526640835 -3.754692309218854 30.786489638959779 159 111 94 255
22.152676716198641 -2.931661899069923 31.058182937456650 151 109 87 255
22.087300208270392 -1.720650676555920 31.129856868146192 136 96 74 255
33.740504402279015 -16.789888978789264 21.226677600814781 183 138 111 255
31.651610335592977 -18.057545646219580 22.730622497882024 180 133 112 255
30.881936612004040 -17.740657128789678 23.299102828112382 175 129 109 255
29.935191302751264 -17.645034658063537 23.992957040389967 171 124 106 255
30.178829121831996 -16.092637034864595 23.843199656319115 163 116 98 255
30.360543166717207 -14.608712592891578 23.737434565510284 157 112 93 255
30.539863454957072 -13.120439543297181 23.633475553762565 154 109 90 255
29.949269679580141 -12.586119977873523 24.074893809881928 148 105 86 255
30.007557928701686 -11.239930149008899 24.056774632039264 147 104 85 255
29.946352357829312 -10.038608832613221 24.123343150501029 142 101 79 255
29.707713028674618 -9.057879902459717 24.315573381450463 134 94 69 255
29.175636753295805 -8.448967332367545 24.715506173300867 130 92 67 255
28.819391009567568 -7.616566690086586 24.990971299313941 132 90 68 255
28.462955306951102 -6.783832101274470 25.266569420880757 134 87 69 255
28.222700539493076 -5.800207890135709 25.459981972970297 80 33 18 255
27.691452397749970 -5.192856863815791 25.859236995499657 102 51 39 255
26.465453918248045 -5.495184641077117 26.749751985794489 163 107 93 255
25.127289377303612 -5.955753232908080 27.719369958070615 186 127 113 255
23.966175890211247 -6.195052018699727 28.563598449747673 196 138 126 255
23.268890464310516 -5.829112865431455 29.079808945726938 191 135 123 255
22.630333146713099 -5.388887953135907 29.554444924939077 176 124 110 255
22.222131416946127 -4.643194189017152 29.866265119457211 168 116 102 255
21.871194073628430 -3.820536903997777 30.137632501123306 161 112 95 255
21.577155322103863 -2.920245903431351 30.368828321229785 157 111 92 255
21.396614820925208 -1.864145365964475 30.519905681482129 145 103 84 255
32.561193224456360 -17.506140505762886 20.951804629007256 182 138 113 255
31.074548365903581 -18.051675743504461 22.034695027531598 180 133 113 255
30.424823229558342 -17.589265998122983 22.519515381117628 174 127 107 255
29.657445056388553 -17.274368056532239 23.088284139066275 168 121 103 255
29.602195355111263 -16.085958050844454 23.148420159233552 164 118 99 255
29.841006595509526 -14.528740226456506 22.998644814407555 158 113 94 255
29.546420800611457 -13.627981160049558 23.229766060413169 153 108 89 255
29.133695649166327 -12.873838572107076 23.545213625674791 148 105 86 255
29.249583087489981 -11.454542073446333 23.483377697711830 147 104 85 255
29.187504165416783 -10.253771427821107 23.548624034578495 140 99 77 255
28.831589693644304 -9.422265753139243 23.823567468248569 132 92 67 255
28.533847394568483 -8.515840658664416 24.057007044873103 128 89 65 255
28.235670995812967 -7.608637537876319 24.290764341610839 127 85 63 255
28.227652719166286 -6.325482537862115 24.317605008153151 129 81 64 255
28.275976847117590 -4.964059883431560 24.304344796807641 80 37 21 255
27.917284056158309 -4.127544728767930 24.581349475711960 88 40 27 255
26.172350549228469 -5.107578499010913 25.846507573701558 148 93 79 255
24.894127482117767 -5.490563402896498 26.778735815919219 176 116 105 255
23.562112320729113 -5.956490508557437 27.749102234876801 188 130 119 255
22.693146034206393 -5.818675630106611 28.389339764076226 189 133 122 255
21.997979595137593 -5.454742894006131 28.905659896696193 181 132 117 255
21.646941842759361 -4.632231201532818 29.176798995787721 171 121 107 255
21.295715774369967 -3.809371916251109 29.448085266860687 169 120 105 255
20.887403021616166 -3.063426466667181 29.760035571717708 162 116 98 255
20.706251740890963 -2.007630885385879 29.910262563285073 151 108 89 255
20.637489964956387 -0.794728246475870 29.980543312816451 136 99 77 255
31.385208188708532 -18.222073708708336 20.680318209181451 182 137 114 255
30.081265445045716 -18.552234454128268 21.637606823731915 181 134 114 255
29.433043252506224 -18.091065275327225 22.122674140621939 174 125 105 255
29.140753526863421 -17.195106432057116 22.351479885755680 164 117 99 255
29.261225446726172 -15.787330434597152 22.283226038722859 162 116 98 255
29.085016103598036 -14.741801689761246 22.428529436751205 157 112 93 255
28.378822386826585 -14.355681348324083 22.955167139274039 153 108 89 255
28.084537045408808 -13.456179797860386 23.185401983471309 147 104 85 255
28.141055123825197 -12.112507522164947 23.163303868307167 146 103 84 255
28.312507547334633 -10.617136611249293 23.058611458220298 138 97 75 255
27.898614674582092 -9.860875894361385 23.374937091524885 131 91 66 255
27.659296721574123 -8.881025106457258 23.565722579435828 126 86 62 255
27.593455233246402 -7.675575499243081 23.631808978744004 125 83 61 255
27.931709434358083 -5.942459265793758 23.407472933361021 125 78 60 255
28.440267448320668 -3.977944134658230 23.060865379897251 77 37 18 255
28.195067857237859 -2.987397586084228 23.256098649920006 57 18 4 255
26.394985890777861 -4.039088736177916 24.568594750704904 127 76 62 255
24.888023485077355 -4.722056393580147 25.670226354374563 169 111 99 255
23.271115232752692 -5.565860981391666 26.850618040035187 184 126 114 255
22.231358880415229 -5.655606153945882 27.616233560030480 189 135 123 255
21.137266698830274 -5.826932163362812 28.420743803859750 186 137 122 255
20.900457020958072 -4.851734591572040 28.609547294108950 182 133 118 255
20.321983370259090 -4.337424783305323 29.043682489008290 177 128 113 255
20.027844457415313 -3.438330389138287 29.273676016422201 168 121 104 255
19.563511036261190 -2.770839167221141 29.625853292043928 156 113 94 255
19.551202604310475 -1.482374090724363 29.653628667534718 147 106 85 255
31.516260025732663 -18.612662384582222 19.449954603337119 182 140 115 255
29.678593769772363 -19.586524248490974 20.799662096313455 186 135 118 255
28.912557957620209 -19.269542723622408 21.371609894481196 179 131 111 255
28.679794616933577 -18.302506558441394 21.556609010346904 173 125 105 255
28.918042130406150 -16.752146062015555 21.399953289583664 166 119 101 255
29.153651388812619 -15.196992149435204 21.245288715560719 163 116 98 255
28.388427933095755 -14.881612190373033 21.816506981756561 158 113 94 255
27.273151613424659 -15.009630942339754 22.641471431822993 155 110 91 255
27.037955479327650 -14.038282414543971 22.828206746638500 146 103 84 255
27.385588157905829 -12.326917452977256 22.592425115623570 147 104 85 255
27.613641272793416 -10.758073201757554 22.443427788568613 137 95 76 255
27.490422197452489 -9.630392853116547 22.549114905634042 129 91 68 255
27.076114332573951 -8.873343777840830 22.865785595902167 125 84 62 255
27.066898703942712 -7.593006183199066 22.888901782229055 122 80 58 255
27.806654191244320 -5.334723766140655 22.369414133099554 124 80 61 255
29.175384651460007 -2.240234747104125 21.394445094408781 58 35 11 255
29.099199145663363 -1.018064255758816 21.466416726107809 33 21 0 255
27.070883285645237 -2.365912757727187 22.952331941198054 109 67 50 255
24.992205432646074 -3.802244108387924 24.474437519500384 147 92 79 255
23.092051215347198 -5.023282923599879 25.866981658899419 175 116 105 255
21.882395784335017 -5.340023834811461 26.759326388098032 187 135 121 255
20.733098231464595 -5.586552984555397 27.607834985031701 190 141 126 255
20.154671246016164 -5.071193049307624 28.042986971209956 189 137 123 255
19.520389744079665 -4.634271193223185 28.518535326842255 182 133 118 255
19.113221865745345 -3.890333751563446 28.829688405635579 174 125 110 255
18.875306013748030 -2.914152492656456 29.018375594727758 162 114 98 255
18.749268442835131 -1.781390492598234 29.126153514636769 155 111 92 255
30.520765898513105 -19.110720495452881 19.053129133514801 188 143 121 255
28.984082737232200 -19.725060677904565 20.190751239889153 184 137 119 255
28.219318090055310 -19.408162010798179 20.763803716270161 178 131 113 255
28.162809463609136 -18.223827800516290 20.818991558725088 174 125 108 255
28.104884453934574 -17.036934463369562 20.875235134879972 166 119 101 255
28.045544010728548 -15.847482344814580 20.932535007208088 162 115 97 255
27.458034234703689 -15.314182142503086 21.375874782885944 156 111 92 255
26.754497829431102 -14.929169725539396 21.903955328005395 153 108 89 255
26.635075823219950 -13.810144430185971 22.005148801415885 147 104 85 255
26.747133129606624 -12.393567261457235 21.937232268940875 144 101 82 255
27.147244576094351 -10.602676660782492 21.658924798039067 133 96 75 255
27.138568503135531 -9.325799778008928 21.679334556995144 127 91 67 255
27.012647474447107 -8.194976187896913 21.785423982200939 121 82 59 255
26.770214734699209 -7.211544180215895 21.976634055802094 118 77 55 255
27.505478268027275 -4.952307624429750 21.453855804672060 117 76 56 255
29.901365094824200 -0.503509683678487 19.718620231345625 37 31 3 255
27.623654298025428 -0.844969600138825 21.410554177834968 76 55 32 255
24.977286611149964 -3.034715732159725 23.356827978280933 123 76 62 255
22.909904245256342 -4.481056423369296 24.880153952080661 156 98 87 255
21.701942628836605 -4.795735074437971 25.775984614252366 177 124 111 255
20.554150273290560 -5.040223078114707 26.627784262207399 188 138 123 255
19.805612960564702 -4.753296630139630 27.188136387406985 193 141 127 255
19.002142093287972 -4.546126537476709 27.788518889582775 186 137 122 255
18.651087068294174 -3.724540501321371 28.058783894807902 180 133 117 255
18.299844823614620 -2.902606375767505 28.329197551309164 168 122 106 255
18.060590900073606 -1.925022905334345 28.517940854771609 160 117 98 255
17.820662142378495 -0.946196574906025 28.707209006794528 153 108 89 255
32.425985583249997 -17.354976433741797 16.510752474259220 186 145 118 255
29.468393801074370 -19.680410623920949 18.702057683518092 187 145 123 255
28.054075131196953 -20.151810020475352 19.755873325450011 187 139 122 255
27.585211999501752 -19.474504641710269 20.112937726096050 180 132 113 255
27.703701951414416 -18.072767655025928 20.037243861449952 176 126 109 255
27.351373894384295 -17.248920407724825 20.308421684195764 163 116 98 255
26.998853148309337 -16.424749149231047 20.579720755361677 158 111 93 255
26.471122745049200 -15.819764469838276 20.980051845395565 151 106 87 255
26.293236286481999 -14.775433450668686 21.122686214242663 151 106 87 255
26.114426078141520 -13.729437644307012 21.266005183845465 150 107 88 255
26.224556532452965 -12.312576375174388 21.196561087666964 139 98 78 255
26.506095205542124 -10.669627976929519 21.000948213283522 130 94 73 255
26.784758498943916 -9.021443526075814 20.807516393477925 123 87 65 255
26.714908998867202 -7.815080939237021 20.870723838019785 115 79 55 255
26.816104032532536 -6.381962059710560 20.808044760680161 116 75 55 255
28.062404209128204 -3.445831359089198 19.902529708809027 103 69 47 255
25.413143146757761 -1.660878159461049 21.900061619245093 93 68 46 255
23.008435746956479 -3.558830253434678 23.681350871527115 132 85 71 255
21.405147597027451 -4.404385567425379 24.872778911722037 163 107 96 255
20.485138760535079 -4.341212758649363 25.561404011680679 182 129 115 255
19.680155018829964 -4.128677512428794 26.165353618565064 192 138 125 255
18.876935485840846 -3.919364102718191 26.767956477268967 190 138 124 255
18.075479738542526 -3.713269957921511 27.369214578360413 188 138 123 255
17.555890866044479 -3.123356361290632 27.763142624395471 176 128 113 255
17.148643941301884 -2.379170107468724 28.074452870721217 164 121 101 255
16.741453600192585 -1.635078006239212 28.385728433645824 158 113 94 255
-10.167793801578540 -0.626904201249317 48.534492982800373 173 134 99 255
31.367183425080867 -17.923740921649880 16.154562633737044 185 148 122 255
28.713013209786652 -19.890814771622928 18.134972384109432 187 145 123 255
27.302169963433840 -20.362301647556023 19.191937166908701 189 141 121 255
26.423283891503758 -20.191199837335830 19.853810177269565 183 132 113 255
26.248604789108043 -19.154032881022772 19.992784872099236 174 127 107 255
25.839421351316730 -18.406016951348533 20.305845156920697 166 119 101 255
25.430289990912598 -17.658124175582316 20.618839687158754 161 114 96 255
25.195661635345772 -16.690902658040159 20.802277179073144 154 109 90 255
25.192465275632856 -15.428968327145469 20.813929011551153 153 108 89 255
25.419235764531834 -13.869641681618674 20.654917176029585 147 104 85 255
25.296671923955643 -12.748447376091718 20.755201043889571 140 99 79 255
25.576572688454462 -11.106837539922367 20.556825032381369 130 94 75 255
25.796059253673405 -9.534259077987969 20.403326968908061 120 84 62 255
26.357420165120175 -7.509952924086235 19.996201776948340 114 78 56 255
26.742801789356236 -5.702319973444503 19.719723052854363 110 73 51 255
29.183058545244336 -1.190864606757373 17.918788844888468 90 66 42 255
24.176695192895608 -1.192190634441317 21.680353316464050 89 68 45 255
22.009087359680933 -2.792932541578466 23.297439576933300 144 99 84 255
20.806526469540586 -3.107159383224939 24.198708746704568 168 117 102 255
20.000819370923125 -2.890696623907900 24.805626649787598 187 135 121 255
18.860424215771332 -3.139109617172494 25.660663340201097 189 137 123 255
17.667302427736047 -3.470581116200265 26.554720691431385 192 139 125 255
16.700977448507643 -3.498838618386628 27.280564408664873 183 133 118 255
16.071405963939696 -3.065986346648856 27.756718173703518 168 123 105 255
15.554042100597371 -2.479344824574468 28.149681193922248 163 117 98 255
15.425485667256112 -1.347298566853112 28.254454499322208 148 106 87 255
-10.954545064819115 -1.028068457212441 48.091462032699297 173 149 108 255
-15.433050615030197 -0.729605466121086 51.466402856612717 192 154 122 255
-16.257937823329200 -0.835258144019008 52.086945410862171 192 145 119 255
-17.182085296071136 -1.118297620109104 52.780838805917995 190 143 117 255
31.375059710231028 -18.467785004454498 14.997505093831847 184 161 126 255
28.899358008349594 -20.209864986810175 16.857294850299155 189 151 125 255
27.606150970314332 -20.531921387005440 17.832074106092307 191 144 124 255
26.433805960265289 -20.716782508541115 18.716324618973488 188 142 119 255
25.556938941123633 -20.546394366196409 19.379412700100204 182 132 110 255
25.265354388338949 -19.655100663040429 19.604549502345463 174 127 106 255
25.031538197303377 -18.690353299601782 19.786448435635720 165 118 100 255
24.913207669654753 -17.578574684986734 19.881939051072976 161 114 96 255
24.272059883070114 -17.122862641427986 20.368523162421354 155 110 91 255
24.326008885981423 -15.788811988703713 20.335118430002524 153 109 90 255
24.320341234339281 -14.524888857963504 20.346316845667502 145 102 83 255
24.485802307985040 -13.036561001595317 20.229527199229864 137 96 76 255
24.763821489960776 -11.395843406790192 20.028575286313924 128 91 72 255
25.268367743412114 -9.452903474397630 19.658239810753514 118 82 60 255
25.826292421674054 -7.428474251487245 19.248034893274507 112 77 55 255
27.065398274099209 -4.500262229787950 18.328492838777265 105 69 47 255
21.345953292030742 -1.567909181692698 22.661498002928170 146 100 84 255
19.642902803636190 -2.573819942134151 23.941597493119133 171 122 107 255
18.169064159339541 -3.282395233630609 25.050278883579381 182 134 118 255
16.867208993831952 -3.768103213410257 26.030341551678106 190 141 126 255
16.014453104928577 -3.642097067672239 26.674699684899167 189 139 124 255
15.552350434563408 -2.976619485477443 27.027083781130614 175 128 109 255
15.145947688449638 -2.233870414121043 27.337846448222621 168 119 102 255
14.850156391912122 -1.335143949662438 27.565963115162333 155 109 91 255
-11.379249006957934 -0.834588212334779 47.381012147063814 172 160 115 255
-12.060593742729168 -0.662497154608161 47.897369366640817 180 136 107 255
-15.076642930594829 -0.516639216925228 50.179869500927339 190 156 123 255
-16.410044581617910 -1.480393237624583 51.182541290265419 199 155 129 255
-16.776302977292005 -0.809336928788298 51.464160280791361 195 149 125 255
-17.597393121471441 -0.918570866644473 52.084912354370971 195 149 125 255
29.672207805094160 -19.819309430091295 15.132327946473282 192 157 128 255
27.439854549742279 -21.278508812180547 16.820439876130905 194 151 131 255
26.677759485090434 -20.957442283979276 17.399837005347479 191 147 128 255
25.508502229095114 -21.143140631117490 18.286181360492009 189 142 124 255
24.692038050015128 -20.901472402298708 18.906465386186312 182 134 115 255
24.168028684790528 -20.300854289156575 19.306207391179782 174 125 108 255
24.398770765134145 -18.756620470105929 19.136896608873229 166 119 101 255
24.105831816387052 -17.863584434874468 19.362389628511494 163 116 98 255
23.696914335929108 -17.116001300157450 19.675295926645589 157 110 92 255
23.461000191183302 -16.148539568331614 19.857761009980294 154 108 90 255
23.627100677080392 -14.664959044601630 19.737165110899127 148 103 84 255
23.848219523584191 -13.103255938335622 19.575103227297575 137 94 75 255
24.123991373190165 -11.462761042719819 19.371856101104129 127 91 69 255
24.739856849672350 -9.371669440669308 18.912278387616738 118 84 59 255
25.522502289971726 -7.049316000498067 18.327026879089175 109 74 50 255
26.926166855622455 -3.896306513166792 17.273754320552428 97 66 43 255
19.506319830338299 -1.950461502992880 22.907305981220759 158 115 96 255
17.645122239282045 -3.194973091602606 24.314300175239282 175 124 107 255
16.401651899316875 -3.602793969623121 25.255807537864172 186 135 118 255
15.494617735190388 -3.553310460358375 25.943802602190146 189 143 127 255
14.811162050697902 -3.197652315732626 26.463337131142055 181 133 117 255
14.294612311718680 -2.610938133325874 26.857124191429278 176 126 111 255
14.054048347433081 -1.635129795854539 27.043004413656405 159 112 96 255
13.592944646059948 -0.971032631729713 27.395037418379786 142 102 84 255
-11.805107236525913 -0.641240272313780 46.669366769352195 139 149 94 255
-13.151234727419620 -1.575096911053095 47.687924001196123 203 158 127 255
-13.420109207829881 -0.724962899567799 47.896015568248401 180 137 105 255
-14.925119707270198 -0.652049363741980 49.040052777878074 204 164 135 255
-16.004508577861145 -1.179647876304500 49.858018603506849 195 150 125 255
-16.878120946817859 -1.368449209058838 50.521217420363584 194 148 125 255
-17.194122070742281 -0.610532446693355 50.765044830631439 196 151 128 255
28.151776108335213 -20.956252779668517 15.140551537780027 194 155 130 255
26.336206561019054 -21.917479141021630 16.522509318471464 196 153 134 255
25.576242175241788 -21.598058765653860 17.102360899574080 195 150 131 255
24.817795881179364 -21.281447584965605 17.681019478767212 189 142 124 255
24.467367947863011 -20.462262909667800 17.949641385438014 181 132 115 255
23.942900412752493 -19.860019999138075 18.350463655443832 174 125 108 255
23.881590623347222 -18.677641958057080 18.399375783318021 165 118 100 255
23.472639500578936 -17.929915121417679 18.712384017548061 162 115 97 255
23.236490648710799 -16.963040392194785 18.894086828712148 157 110 92 255
23.286966229227602 -15.628378536573649 18.858020282429948 152 107 88 255
23.392881516886888 -14.216730963060741 18.779825551867020 146 101 82 255
23.668303505336610 -12.579906262569750 18.572851149289249 136 93 74 255
