ply
format ascii 1.0
element vertex 645
property float x
property float y
property float z
property uchar red
property uchar green
property uchar blue
property uchar alpha
end_header
-27.647429225627207 -12.258121265822254 -21.462236855534343 176 135 117 255
-25.055703987097218 -12.551411901134344 -23.202258574115831 168 132 110 255
-23.897997063696664 -12.283887397249998 -23.985335847534827 159 125 103 255
-22.993250206227145 -11.921141801506721 -24.599587853527680 150 118 93 255
-22.932350614177977 -11.219154088433655 -24.650878516256000 144 114 87 255
-22.702638410017812 -10.587194435498105 -24.814809037641027 141 110 82 255
-22.641736830758788 -9.886668006490638 -24.866165050824776 135 103 75 255
-22.243135033872733 -9.327882532998700 -25.142785898293738 129 95 67 255
-21.591165727322220 -8.878482360394827 -25.588383680483872 120 89 60 255
-21.192418948350905 -8.325712563157964 -25.865103771865620 113 82 53 255
-20.962520127647736 -7.703266295981607 -26.029244189810100 131 100 71 255
-20.225826450606689 -7.300750716542410 -26.531318051722081 155 126 96 255
-19.320064566546250 -6.976327751907505 -27.146088820667757 167 133 105 255
-18.921017664748888 -6.436047496434298 -27.423016056050585 167 132 104 255
-19.197819474601204 -5.600598242982613 -27.249427594003095 160 124 97 255
-18.967724636091646 -4.988297101722011 -27.413795559015199 150 115 87 255
-18.906621285527621 -4.301944794620269 -27.465558960409481 137 102 74 255
-18.845534022541671 -3.615966155682614 -27.517359669741296 122 89 61 255
-19.207079317107485 -2.738853375637490 -27.287561155393263 105 75 47 255
-19.399666377014171 -1.936529103197685 -27.170442694771822 91 66 37 255
-19.507784129088833 -1.171768037448487 -27.109684276561239 76 56 29 255
-43.654795545527662 -16.831023681953425 -9.650874073016041 178 171 130 255
-41.578078369018613 -16.773824413243787 -11.057096662063401 115 77 54 255
-40.510068924881011 -16.367830420794263 -11.785619633824808 186 141 122 255
-39.105443698244983 -16.090740066270428 -12.740157569044754 180 135 114 255
-37.027658869811148 -16.068726702011901 -14.146688035063534 190 142 119 255
-35.790652149796585 -15.750185236431591 -14.988430331307427 187 137 115 255
-35.058169997471481 -15.252104933186857 -15.491296066271360 178 127 106 255
-34.914502922337419 -14.538073048773143 -15.598756682117028 154 103 82 255
-34.602529151090806 -13.888745314089462 -15.819237973409315 133 80 62 255
-34.038044738587246 -13.337821419015498 -16.209250023142374 125 73 55 255
-32.968487771325954 -12.984791836680230 -16.938310385189055 128 79 59 255
-30.804511754327393 -13.062889895856259 -18.401966663240074 114 67 49 255
-26.283097839133120 -14.076076866463310 -21.447848959228537 125 85 65 255
-23.697090083416526 -14.355595309393209 -23.194327514240456 175 138 116 255
-22.205119751378902 -14.217156700641127 -24.206347750050043 180 144 124 255
-20.965474858412961 -13.987278194850958 -25.048930562134274 173 138 116 255
-20.988793783157803 -13.255808131741162 -25.043924949490730 164 133 110 255
-21.096356873403522 -12.490029976903685 -24.982430936152042 155 125 99 255
-21.288190753436254 -11.689126113132460 -24.864443620796806 146 116 89 255
-21.480082834505737 -10.887065599370018 -24.746474859964707 141 111 83 255
-21.503538074217886 -10.153955747211342 -24.741562327334719 133 102 74 255
-21.442761912876506 -9.456083613702333 -24.793197180498481 129 95 67 255
-20.707872382989166 -9.043439254058214 -25.297040109656791 118 87 58 255
-20.478496901701021 -8.420347090536325 -25.461800070800678 111 80 51 255
-19.996248842953776 -7.907182563242330 -25.796176398255199 133 102 73 255
-19.092467993058165 -7.579191865100597 -26.413240261493314 152 123 93 255
-18.272824424855429 -7.220346361015288 -26.973843333792644 161 127 99 255
-17.874579677939380 -6.682025419758759 -27.251857056677466 160 126 98 255
-18.235135049893074 -5.811277451114876 -27.021125330222418 154 119 91 255
-18.089834049096652 -5.163165738652879 -27.129617366278325 144 109 81 255
-17.944529840854102 -4.515978593987853 -27.238148329863037 132 98 70 255
-17.799223169570780 -3.869707935419271 -27.346718769797434 119 87 59 255
-18.075677343754990 -3.032822877493700 -27.172632221434213 103 74 46 255
-18.520941088789471 -2.116976988538880 -26.885487478579023 89 65 36 255
-18.881957867823814 -1.237074149033631 -26.654903537525144 75 56 28 255
-42.306460482421329 -17.112601956192677 -9.585037481675215 98 76 42 255
-40.905272298672060 -16.818819663339511 -10.543066487663907 141 104 80 255
-39.587729079995967 -16.504051979448192 -11.444481716663404 144 97 77 255
-37.934201272023358 -16.319829258772955 -12.572771457843231 180 132 112 255
-36.112466120557144 -16.207908063061922 -13.814557768285169 188 140 117 255
-34.961954937448269 -15.859807586951703 -14.602826250129112 188 137 116 255
-34.314959859140828 -15.331598651455550 -15.050940127797446 163 112 91 255
-34.171635456439702 -14.618413465427750 -15.158865330220351 143 92 71 255
-33.860345230421331 -13.969943119182560 -15.380234762786102 128 75 57 255
-33.129090957613187 -13.484072173497452 -15.885191048453095 115 65 46 255
-24.862201148558825 -15.169906117928932 -21.489103594847109 114 71 52 255
-21.693603145476288 -15.674542087797320 -23.639138312753715 174 137 116 255
-20.456757904644149 -15.436752124243455 -24.484828621076360 189 154 132 255
-19.135648479764484 -15.240466385345769 -25.387316450611394 183 148 128 255
-18.738658100036929 -14.681959403213853 -25.665950158837575 175 140 118 255
-18.929900887785209 -13.888233128766274 -25.547562341522735 165 135 111 255
-19.289302097271872 -13.024862950559154 -25.315740575607634 158 128 102 255
-19.816914312480748 -12.090220444602949 -24.970474549691005 149 119 91 255
-20.008378666603789 -11.291427602290455 -24.852126584737903 142 112 84 255
-20.452132921597695 -10.386285669010419 -24.563605168091669 137 105 77 255
-20.391482629188204 -9.690346371795769 -24.615485938762419 133 99 71 255
-19.910367138674388 -9.172865789186503 -24.951067597173136 124 93 64 255
-19.260966734662105 -8.730273024729172 -25.400169579786450 123 92 63 255
-18.443229841578955 -8.364183958400858 -25.962802867391616 140 110 81 255
-17.793587414735754 -7.930558090073148 -26.412020619541465 151 122 92 255
-17.143833435177044 -7.501135238822357 -26.861294981156988 154 123 94 255
-16.998797015013707 -6.854176547724137 -26.970168899901978 152 120 91 255
-17.106195388257760 -6.096481565473866 -26.908845587911316 146 112 84 255
-17.297796822181169 -5.300599544108096 -26.790802841646894 138 105 77 255
-17.236971063122411 -4.616779623109466 -26.843028288567666 123 92 63 255
-17.344505589421601 -3.857258941077518 -26.781789227702291 113 82 54 255
-17.452090082706405 -3.097022152806929 -26.720578947258815 100 73 44 255
-18.064869486693397 -2.104579419369699 -26.318879841056201 86 63 33 255
-18.593606760540411 -1.147001377312364 -25.973945713693212 72 55 27 255
-42.552473141789193 -16.830716227946624 -8.442215051147343 148 156 104 255
-40.735581732901153 -16.684280166699665 -9.688411148008953 125 107 73 255
-39.420836923157310 -16.368534437151325 -10.593254103298790 138 97 71 255
-37.268228129136162 -16.366200144861367 -12.067285498819246 192 148 123 255
-35.366494319560388 -16.285696928917233 -13.370695198736115 191 143 120 255
-33.799490264245691 -16.093573297875793 -14.446551275817995 184 134 112 255
-33.070035015106129 -15.598874362719826 -14.953330638401667 148 97 76 255
-33.345975202077398 -14.730381870292874 -14.777139307798478 129 78 57 255
-33.286769918144273 -13.987563518026874 -14.828637872329324 116 64 45 255
-32.138011429209314 -13.662508769514488 -15.620151159955157 131 83 63 255
-25.540709463118446 -15.448727403010380 -20.111815295939323 152 108 86 255
-20.618645210942873 -16.624898424430299 -23.465272618293000 164 124 103 255
-18.965246453470598 -16.549610019444472 -24.598778061489554 200 164 142 255
-18.317674790877277 -16.086987985576471 -25.049220163197759 191 156 135 255
-17.921548077559720 -15.528311451529262 -25.328917902497039 186 151 131 255
-17.525354371542278 -14.972290093879224 -25.608655721075650 177 142 120 255
-17.883942019084202 -14.113044292887977 -25.376015648580960 167 134 111 255
-18.074858047186865 -13.320089589022231 -25.257258096420458 158 128 102 255
-18.601386912647030 -12.387882062206828 -24.910760525866721 148 118 91 255
-18.708552011725857 -11.626341327946378 -24.848969218726580 142 112 84 255
-18.899663706294035 -10.829112593212812 -24.730256155328078 137 105 77 255
-19.174748745513142 -9.995377617623163 -24.554616560412143 135 101 73 255
-18.778518667986503 -9.444786539858228 -24.834561252238160 132 101 72 255
-18.550091843238420 -8.825040843360838 -25.000653901104130 137 106 77 255
-17.566166696581689 -8.532144206195895 -25.679331004504945 143 112 83 255
-17.001808953717187 -8.063526928429226 -26.073320035460114 145 116 86 255
-16.521314843551806 -7.561882885494057 -26.410407850081924 144 115 85 255
-16.208678542163909 -6.989433381169391 -26.633634717389157 145 114 85 255
-16.147929242887415 -6.307316813105047 -26.686034109822771 139 108 79 255
-16.255161377361304 -5.550590899290128 -26.624549451768758 133 102 73 255
-16.278447127215344 -4.830939520493047 -26.620051159420029 119 88 59 255
-16.805778336102662 -3.882865753311933 -26.273813043511808 110 82 53 255
-16.997201277989404 -3.084623709785120 -26.155439243710134 97 72 42 255
-17.692811994480593 -2.053606928871190 -25.695300260434550 84 61 31 255
-18.304567848122616 -1.056918463304314 -25.292133781481283 68 52 24 255
-38.751066833277974 -16.414281781251631 -10.083026800285381 136 122 83 255
-36.686502781138358 -16.382160101194245 -11.505496507091408 176 137 107 255
-34.537925133627283 -16.394312307445688 -12.985203279048022 191 141 118 255
-33.141374636736430 -16.141347694205351 -13.950882445925004 176 122 101 255
-32.664313500276933 -15.553388691920190 -14.288225143526631 126 75 54 255
-32.939777747688481 -14.684635827896187 -14.111431038848281 118 68 48 255
-32.629882037000641 -14.037066916805784 -14.334573044673448 106 59 41 255
-21.553738754457527 -16.794619581171190 -21.923014143449905 184 146 127 255
-18.565549544321584 -17.231730018062336 -23.974917208710764 198 161 142 255
-17.417426052182577 -16.964237536147010 -24.769890002871563 198 163 143 255
-17.356858506544995 -16.272931433378901 -24.822088492992549 192 159 138 255
-17.128923584946875 -15.649027155282667 -24.988598649036845 182 150 129 255
-16.900955400537612 -15.026698114011438 -25.155140627701513 177 143 119 255
-17.007759607726030 -14.269974818972827 -25.093124988927372 166 133 109 255
-17.030890993102673 -13.546913381188091 -25.088276856650879 158 127 100 255
-17.388917097681087 -12.685661572573522 -24.854846754065619 150 119 91 255
-17.244670319580194 -12.030984212740051 -24.964342484713171 140 111 81 255
-17.267882522710266 -11.307165002584924 -24.959559488184084 137 107 78 255
-17.374861843967153 -10.547917182866129 -24.897644023411459 138 108 79 255
-17.398128541413968 -9.823647293708589 -24.892907744415993 139 108 79 255
-17.086371441178301 -9.242807439724885 -25.116836403701797 140 109 80 255
-16.523257466769593 -8.772482012732567 -25.512289807067106 141 110 81 255
-16.127605601772188 -8.232979569276765 -25.793466733625991 140 110 80 255
-15.564316382647689 -7.769447128753853 -26.189017896053315 139 109 80 255
-15.587509307798740 -7.050817745904681 -26.184451828446726 138 107 78 255
-15.275507391228331 -6.480991120303159 -26.408587758554120 131 100 71 255
-15.550163726400115 -5.650640169622505 -26.232573146685496 125 94 65 255
-15.573432259464226 -4.931840236370618 -26.228093001280058 115 86 56 255
-16.351217038278890 -3.870448009709520 -25.709078914348765 103 77 46 255
-16.793827828955614 -2.957282070702078 -25.418765953196811 93 69 39 255
-17.236557870953931 -2.041225382659377 -25.128466838448759 81 61 30 255
-17.847124614823599 -1.044547190621259 -24.723825027414904 67 52 23 255
-35.771420191431929 -16.520116320679946 -11.173446102122398 141 128 86 255
-33.710698936402366 -16.503015408785913 -12.601382219115436 190 146 118 255
-32.650790943505598 -16.127139945315804 -13.341357706207447 163 105 83 255
-32.007894903123372 -15.601822655649030 -13.794693114643081 124 66 46 255
-32.199405004061447 -14.765183451544331 -13.674645512955777 108 60 40 255
-31.305963489486430 -14.341311669258488 -14.300091817366024 99 56 37 255
-18.833274736418872 -17.655341829853697 -22.891783751856451 205 168 149 255
-17.019848518729844 -17.642917051765551 -24.148499846183626 203 167 148 255
-16.541995356024472 -17.115709499122389 -24.487678973271528 199 164 144 255
-16.398073831132905 -16.458970219410773 -24.597482685249474 191 159 138 255
-16.671701297571474 -15.635996289557951 -24.420533500755226 183 151 130 255
-16.360745078871815 -15.047434767062825 -24.645097782082161 177 143 118 255
-16.133268727401543 -14.426987475997308 -24.812337506781546 167 136 108 255
-15.822220364290331 -13.842369137832677 -25.036970426709217 160 129 101 255
-16.012409609165815 -13.052631586816091 -24.917460165969288 152 121 93 255
-16.035540832818640 -12.331354210061491 -24.912694629535054 145 116 86 255
-15.975127901926044 -11.645074940066763 -24.965318303109854 143 114 84 255
-16.081867088654292 -10.888557007395562 -24.903231497854335 144 115 85 255
-16.355811194974422 -10.060171257680011 -24.726424139015450 142 113 83 255
-16.462648041613477 -9.301838272941836 -24.664374305040866 139 108 79 255
-16.067926226477596 -8.759804675381616 -24.946588051749728 137 106 77 255
-15.422315656556691 -8.329645627949631 -25.400970649379389 136 105 76 255
-14.943825486244975 -7.830293820956399 -25.740651942186929 134 103 74 255
-14.799760945748034 -7.186180194519338 -25.850864101366398 130 101 71 255
-14.822957718296095 -6.468530650849829 -25.846348282174461 126 97 67 255
-15.180756345638940 -5.600691874505301 -25.612330161844312 118 91 61 255
-15.120390858208424 -4.919440504513275 -25.665246057696919 109 84 53 255
-15.645665009406144 -3.972201741632574 -25.316493671060698 99 74 42 255
-15.920064065899169 -3.136510780929427 -25.139911924866738 92 69 37 255
-16.529261407454271 -2.144637649335138 -24.733793541415395 82 62 31 255
-17.138613189741022 -1.148781170124167 -24.327681971634377 65 48 21 255
-33.717380280804520 -16.304213922741084 -11.643736493479565 158 150 105 255
-33.076099667034441 -15.771656861972644 -12.098740823484007 156 111 82 255
-32.434694248417287 -15.243430336328018 -12.553791233670978 118 62 41 255
-31.709882360794325 -14.751097981799887 -13.066443321423463 101 56 35 255
-20.763705727122186 -17.441505671486340 -20.653618447174352 210 174 152 255
-17.871481944331777 -17.836394562369321 -22.663213160597707 206 170 148 255
-16.894952096360356 -17.499223451378086 -23.349013862801513 205 170 148 255
-16.418182164194491 -16.970989296709647 -23.689489748004149 199 164 142 255
-16.191326284373588 -16.346394499014153 -23.857307060736190 191 159 136 255
-15.964435137711860 -15.723382428969316 -24.025154056521416 184 152 129 255
-15.737509288527178 -15.101946859622316 -24.193031146750229 178 144 119 255
-15.260469829261979 -14.584082873175461 -24.533653790342129 170 139 111 255
-14.950081818976145 -14.000862442090025 -24.759171152310785 162 131 103 255
-14.889774918219501 -13.316117188842355 -24.811997612552204 156 125 97 255
-14.829470272531381 -12.631841769557923 -24.864848676110938 152 123 93 255
-14.935957520870829 -11.877866629536697 -24.802567197683373 151 122 92 255
-14.708870256928350 -11.264672869355152 -24.970626449859367 148 119 89 255
-15.065635621727466 -10.403655484871294 -24.735642517521228 145 116 86 255
-15.088810442199360 -9.683945465629918 -24.731003828828705 140 111 81 255
-15.028578863250829 -9.000291528024093 -24.783974418176001 136 105 76 255
-14.551163251053310 -8.499230150258441 -25.124910009793354 133 102 73 255
-14.157113895386516 -7.964589088308784 -25.408301429097435 129 100 70 255
-14.347190612942313 -7.173704432370670 -25.288598274216383 124 96 66 255
-14.453863642868384 -6.418845007975875 -25.226506331266307 118 91 61 255
-15.061418632234250 -5.438206119216716 -24.818870988400732 112 87 56 255
-15.084750878604268 -4.718126802063935 -24.814410542854858 103 80 48 255
-15.442073249423402 -3.845657241497179 -24.579586428413478 92 69 37 255
-15.715995140459739 -3.009177744488412 -24.402375875062120 85 63 31 255
-16.157015532264893 -2.093695521342468 -24.109981567027404 75 57 28 255
-16.848705153048144 -1.058705638893102 -23.644791708457376 58 44 17 255
-33.497628411960079 -15.416114203240141 -10.851429829454133 143 137 93 255
-32.442200656350224 -15.041499376248296 -11.597024261779552 102 73 44 255
-24.512313864378967 -16.542454854280933 -17.132256668883372 216 184 161 255
-18.883577760051395 -17.974104552311658 -21.055584940582463 206 171 149 255
-16.994857731956216 -17.985162644492291 -22.379395368763426 203 168 146 255
-16.186651132399419 -17.584114060251608 -22.952234303909677 200 165 143 255
-15.710904577282662 -17.056742973427959 -23.294020360585392 197 162 140 255
-15.401395930609283 -16.466192141743647 -23.520288907380149 193 158 136 255
-15.008662228740860 -15.911229884809714 -23.804370102708305 187 152 130 255
-14.615858475904730 -15.358925289638819 -24.088487697030899 179 145 120 255
-14.306174283353499 -14.775266872051589 -24.314858243454864 169 138 110 255
-14.079636168926214 -14.159437847083680 -24.483476747170272 163 132 104 255
-14.352302886320302 -13.337892949655242 -24.305401493239629 159 128 100 255
-14.208964941485618 -12.688736233376289 -24.416281388229692 155 126 96 255
-14.315283170565863 -11.935325263588226 -24.353816321926075 154 125 96 255
-14.255173908285002 -11.252002656303475 -24.406954095697728 151 121 93 255
-14.611274059965581 -10.390995962103233 -24.171145060839763 145 115 86 255
-14.551215724470893 -9.707213424406305 -24.224324695119577 142 113 83 255
-14.241386135498772 -9.132368074216231 -24.450923795458039 135 106 75 255
-13.764974742084092 -8.632448465567094 -24.793158715406236 131 102 70 255
-13.704862439757846 -7.952111623563255 -24.846431282663502 128 99 69 255
-13.894611235368131 -7.161250464560780 -24.726322233022557 122 93 63 255
-14.251006977979500 -6.294671450753981 -24.490621451244664 116 89 59 255
-14.607498255428851 -5.425782611811329 -24.254932041368647 106 81 50 255
-14.714152425996446 -4.667947494229722 -24.192678592932054 99 74 43 255
-15.237450749117983 -3.719101149064912 -23.841399391867242 88 66 34 255
-15.594224772170946 -2.843499347982032 -23.605749356560665 80 60 29 255
-16.201110271751020 -1.849741103907320 -23.196674250585573 68 52 22 255
-16.558109317847254 -0.968623547831001 -22.961047511382731 53 40 14 255
-20.718648492310734 -17.802854239660618 -18.860495972066587 211 184 157 255
-17.092196539595420 -18.474793045917906 -21.406762479776347 204 171 147 255
-16.036957496044010 -18.166410909939287 -22.155664918941625 206 172 148 255
-15.396382844595280 -17.701734343042702 -22.614695690090741 200 166 142 255
-14.838667751556272 -17.208424959579986 -23.015783003247662 196 162 139 255
-14.363838618171684 -16.685666612374305 -23.358921748495590 192 157 134 255
-14.054922910348580 -16.099173195758453 -23.586114494789342 185 150 128 255
-13.662944003517708 -15.548537770785956 -23.871333273353116 178 144 119 255
-13.270894772223158 -15.000554430340358 -24.156587852640229 170 139 111 255
-13.293910913788039 -14.283815647469126 -24.151890119150636 165 134 106 255
-13.566051720735089 -13.463363193064978 -23.973212854904830 162 131 103 255
-13.589129539761473 -12.745682273615003 -23.968547945904476 158 129 99 255
-13.363066783899626 -12.133197870158781 -24.137911639695858 156 127 98 255
-13.303094791270382 -11.451529562923795 -24.191296553853562 151 121 93 255
-13.658477946584924 -10.592154246052658 -23.954673362610038 146 116 87 255
-13.515476010477329 -9.945929492800246 -24.066106348953980 140 111 81 255
-13.372460431790842 -9.300681127967678 -24.177567716687349 132 106 73 255
-12.980141706534994 -8.765729679014640 -24.463092623511073 127 101 68 255
-13.252601625620997 -7.939658027373852 -24.284550629064597 123 96 66 255
-13.442023005371794 -7.148819061786298 -24.164036252274030 117 91 60 255
-13.631503264456029 -6.356761915474706 -24.043538416261356 111 87 56 255
-13.571647949097297 -5.676052556486624 -24.097112642910133 103 80 48 255
-13.927502832080847 -4.806754744819031 -23.860614421301705 95 74 41 255
-14.532901821871206 -3.820931600339236 -23.450062662465882 85 65 33 255
-15.304766832989600 -2.754473622507476 -22.923466431670960 76 58 28 255
-15.744150207438679 -1.837392862642460 -22.628966228335145 65 51 23 255
-16.266825728122257 -0.878535725820996 -22.276449473466471 48 39 12 255
-18.594196966913387 -18.426604010256952 -19.441817642650676 205 179 152 255
-16.796429492459680 -18.397443997654435 -20.717191199296167 204 170 145 255
-15.246681172860036 -18.282971387882867 -21.818067147856112 201 167 142 255
-14.441855859210449 -17.884763751958957 -22.395234456064372 196 162 137 255
-13.719683932038805 -17.458999240032725 -22.914252358844067 193 159 134 255
-13.245834995807485 -16.938452719938354 -23.258710279446348 188 154 129 255
-12.854726912968573 -16.387636728140222 -23.545001461195142 180 146 121 255
-12.629225113312657 -15.771990128241043 -23.714914605464742 174 140 115 255
-12.569382148742193 -15.089885967958551 -23.768439429338031 168 137 109 255
-12.675250646128717 -14.339696972620160 -23.705565727980172 165 134 106 255
-12.615423315971555 -13.658016345073705 -23.759129611533297 163 132 104 255
-12.472722283181923 -13.011633019066792 -23.870928690971965 159 130 100 255
-12.330004412363138 -12.366255214328774 -23.982753537941790 156 126 98 255
-12.353052483180193 -11.651144272136122 -23.978170978495882 150 120 92 255
-12.790618849388665 -10.757762868752906 -23.682515543374137 145 116 87 255
-12.565023817782219 -10.148833663982060 -23.852624724953216 135 108 78 255
-12.422314104675081 -9.505245437537894 -23.964542749100616 128 103 70 255
-12.113738409325919 -8.935521724424646 -24.192935752054609 123 99 64 255
-12.717396905662184 -7.963946810554901 -23.780885106567467 118 97 65 255
-12.823539065892390 -7.210387524565604 -23.718194637301849 111 90 58 255
-13.095626321287540 -6.381634203821505 -23.539065674780744 104 85 52 255
-12.704101258658142 -5.851349424408596 -23.825792175094563 96 78 45 255
-13.142211256027537 -4.945618388166665 -23.530238308172159 89 73 39 255
-13.580434127366118 -4.037020227227544 -23.234691469079053 81 64 32 255
-14.682670338009331 -2.818812388352470 -22.473269826810196 72 57 26 255
-15.370180741633902 -1.786447073076616 -22.003014928852963 61 49 20 255
-16.140864629917786 -0.710676117365992 -21.474520595457619 47 39 13 255
-16.641775790425271 -18.986875325775287 -19.914796961386969 200 172 144 255
-15.425951946321447 -18.737798299559728 -20.786053187015568 198 164 140 255
-14.209880406956785 -18.496811241369699 -21.657377444714768 196 160 138 255
-13.158828509269057 -18.198570092887692 -22.411947200741707 191 157 132 255
-13.016628082819096 -17.544995406846326 -22.524033840588714 188 154 129 255
-12.461152175865891 -17.058518509491066 -22.928217305613032 182 149 123 255
-12.153547283857847 -16.475349142072133 -23.157191176554846 175 144 116 255
-11.928555583169612 -15.860549447592419 -23.327776710747742 169 137 112 255
-11.868880503372168 -15.179283186979092 -23.381548783198696 166 135 107 255
-11.974574707551199 -14.429923146396263 -23.318497236842006 164 133 105 255
-11.666831031735740 -13.852761551325628 -23.547577677591221 160 130 102 255
-11.441737356561447 -13.242863445995994 -23.718264128887199 158 129 99 255
-11.216608628715761 -12.634511992090466 -23.888978854779907 151 124 94 255
-11.156886183346359 -11.956959176992669 -23.942864479069726 145 118 88 255
-11.428081158309681 -11.137294613077501 -23.763049904229860 141 115 84 255
-11.368396010010287 -10.459557247682625 -23.816973253259562 133 109 74 255
-11.474206145966235 -9.709894049733407 -23.754051521049973 126 104 67 255
-11.580053935397729 -8.959579225414060 -23.691146279364801 119 97 60 255
-12.265288747188066 -7.951547813335594 -23.219196448404148 112 94 57 255
-12.371275106566998 -7.198012782851706 -23.156313739757394 107 89 52 255
-12.560082752938484 -6.406538498880792 -23.035008171514420 100 84 47 255
-12.417786593350058 -5.763975402460730 -23.147487033877240 92 78 43 255
-12.937872352627068 -4.819905785323613 -22.792442390413328 87 74 39 255
-13.209663713245732 -3.986654606908203 -22.612737450455910 77 63 31 255
-13.895616739713802 -2.959879254339100 -22.140809110317576 66 52 23 255
-14.498910656604636 -1.967210354539802 -21.727327032211548 59 46 20 255
-15.599361089656981 -0.737234072818737 -20.963142892150756 47 38 14 255
-15.826199605397989 -19.831181996098579 -19.579573432775049 196 180 146 255
-14.777924276624304 -19.515502750819607 -20.336779914200179 194 163 135 255
-14.636333697486634 -18.853366266571385 -20.449226093141903 193 158 135 255
-13.752633455212617 -18.483934631867953 -21.089288844270129 190 154 132 255
-12.868754309429733 -18.120427247526067 -21.729404496309598 185 151 126 255
-11.984696632658654 -17.762838377844886 -22.369573245408787 180 146 121 255
-11.430381043480651 -17.278305736117417 -22.775287016471935 175 143 116 255
-11.205912125725604 -16.663582570822456 -22.946524930287239 170 139 111 255
-10.733912525428650 -16.151701921450979 -23.293680243802925 167 135 110 255
-10.921871931402393 -15.370819889725169 -23.171813497280368 164 133 105 255
-11.027366109816114 -14.623098129312382 -23.108589729159917 162 131 103 255
-10.802798903000877 -14.013034508592341 -23.279921901018668 156 126 98 255
-10.083001823609834 -13.613534204414378 -23.803106133466088 154 125 95 255
-10.105933016006446 -12.902877674067682 -23.798585240721962 147 120 91 255
-10.293980577675711 -12.121389702961807 -23.676799783518987 142 115 85 255
-10.564639042353690 -11.303087167113304 -23.496382554045312 137 113 80 255
-10.339965061840843 -10.698563296673868 -23.667839303131558 129 106 70 255
-10.610712834486037 -9.878441147632444 -23.487448467630969 122 101 64 255
-10.798947766407736 -9.093043344269276 -23.365714104834666 115 95 58 255
-11.400204817334355 -8.122810421990977 -22.950745296444182 110 92 54 255
-11.505991983142337 -7.370650769098049 -22.887679197817334 104 89 50 255
-12.024872790208576 -6.431475457547307 -22.531366223394770 99 84 45 255
-12.296021571302390 -5.601527308498902 -22.351017065854251 90 76 41 255
-12.897759842730267 -4.618567250995099 -21.936054848023133 84 71 36 255
-13.169095088693638 -3.783978614425266 -21.755721752206028 75 61 30 255
-13.523153242990333 -2.909246520494051 -21.516741403663701 64 50 21 255
-13.959961499063411 -1.993549199520473 -21.219109414745162 56 44 17 255
-14.975530030847352 -0.802708704322370 -20.510846227660409 45 36 13 255
-14.459580765570621 -20.165757413533001 -19.652956283759295 195 171 140 255
-13.084396749511882 -19.980602871380938 -20.648300475176598 194 162 133 255
-12.943046392414857 -19.322544024523268 -20.761234033881436 191 155 131 255
-12.966238493028868 -18.600737425975325 -20.756519491410756 188 152 130 255
-12.166522734047959 -18.205702513974956 -21.340175531297660 182 148 123 255
-11.202043801536064 -17.881944072278728 -22.041555141676042 177 143 118 255
-10.401987055462740 -17.498201065259593 -22.625312027588222 173 141 114 255
-10.095676905882698 -16.918891400252718 -22.856071933584559 169 138 110 255
-9.542330238035561 -16.442979255157653 -23.263388305729109 168 136 111 255
-9.647558340521243 -15.698568488626577 -23.199987969761509 161 130 102 255
-9.670473863056458 -14.987863698089356 -23.195445389381035 156 126 98 255
-9.858109619296499 -14.207960304452058 -23.073222377540901 152 122 94 255
-9.304541693632018 -13.740466436093797 -23.480654829863937 150 121 91 255
-9.574569828800378 -12.925583767187774 -23.299614008669295 144 117 88 255
-9.762287598895171 -12.144379659793927 -23.177432419674489 138 113 82 255
-10.032444846059661 -11.326356863486268 -22.996406109595824 133 110 76 255
-9.643500163087424 -10.793982735904962 -23.286238164718128 125 105 68 255
-9.831322474559414 -10.010873133875961 -23.164097890266873 119 101 63 255
-10.348854255487709 -9.080727217252857 -22.806529679685440 113 95 57 255
-10.784087574324502 -8.183950906984776 -22.507821135830170 108 93 54 255
-11.054565298392788 -7.358349286034283 -22.326840844940705 105 90 51 255
-11.160235439985058 -6.605536850504521 -22.263599212079527 99 85 46 255
-11.925536928343519 -5.551694891160878 -21.729442464393685 92 78 43 255
-12.361186776931959 -4.644087800654930 -21.430748231164216 85 72 37 255
-12.796946964689454 -3.733615190223460 -21.132057954289508 76 63 32 255
-12.655489593647701 -3.088755790386557 -21.245471271216388 65 51 22 255
-13.421348338636960 -2.019914251986407 -20.711310020897685 55 44 17 255
-14.434869856351213 -0.829320054444707 -20.000517706951797 42 34 11 255
-14.714997679543757 -20.597754922092307 -18.554936146129677 195 173 142 255
-12.440013946871318 -20.753313884854720 -20.203319120703497 191 161 133 255
-12.134834376664713 -20.159032344271878 -20.434787362893729 190 156 129 255
-11.747491287665184 -19.599050326999418 -20.725325907026786 188 152 128 255
-11.606408687507411 -18.944518113183847 -20.838755447584418 185 149 127 255
-11.218938619142136 -18.389101000901832 -21.129348249976630 180 146 121 255
-10.338613903594762 -18.034084297071828 -21.774269363835032 177 143 118 255
-9.540247839355686 -17.651757430020353 -22.360190283387396 174 142 115 255
-8.823866886122147 -17.241304438571760 -22.887105979894955 170 139 111 255
-8.435965251184001 -16.700617822676975 -23.177846791482551 164 133 108 255
-8.376647870082479 -16.026450488261474 -23.232392259551091 158 128 100 255
-8.481673119861853 -15.284162888538233 -23.168838696415065 155 125 97 255
-8.668911777742437 -14.506701829948526 -23.046236190645430 149 122 93 255
-8.363055012658407 -13.937160410672718 -23.278012128841112 147 120 90 255
-8.714739550056265 -13.088791667441498 -23.037309372706801 143 118 88 255
-8.984301208063243 -12.273566437874365 -22.855673706941701 135 112 80 255
-9.500582421834139 -11.349667959012820 -22.496843350074244 128 108 73 255
-9.359179093380504 -10.709834482921863 -22.610556987764227 120 104 65 255
-9.546696016377609 -9.926198222066802 -22.488013252732856 115 100 61 255
-9.980995610229826 -9.031973465077172 -22.188264274223798 109 95 56 255
-10.168645012487502 -8.245137185447859 -22.065736449932473 106 92 53 255
-10.356348427097345 -7.457094405841204 -21.943219668081440 102 88 49 255
-10.297297550770310 -6.779669177869408 -21.997944700575232 100 86 47 255
-11.061033525191448 -5.727164434340423 -21.461907046220091 95 81 46 255
-11.413512420336843 -4.858732582302807 -21.221259061040598 87 74 39 255
-12.012971289644184 -3.873709594784145 -20.803372129577099 74 62 30 255
-12.118746365096371 -3.114889909965825 -20.739981939878788 65 52 23 255
-13.376953540646355 -1.814520979471737 -19.849419537228727 55 45 17 255
-14.388481478661049 -0.622546314439560 -19.136088917423280 43 36 12 255
-12.042004286704298 -21.430967725127843 -19.581345049225462 198 168 142 255
-11.000333079653871 -21.119842655019099 -20.346959287266770 188 157 129 255
-10.941534930531532 -20.433201021406944 -20.401570255968153 185 149 123 255
-10.473064036937103 -19.907837015011182 -20.752479311754286 182 146 124 255
-10.004498317194418 -19.385703849496963 -21.103420618651967 180 144 122 255
-9.945589611318297 -18.703354213499537 -21.158093562412375 176 142 117 255
-9.640796948847168 -18.120398591001148 -21.390567622307429 174 140 115 255
-8.926106998494475 -17.705718207133913 -21.919385839991747 172 140 113 255
-8.211271566389996 -17.295865648977241 -22.448247554448244 168 137 109 255
-7.988201829251864 -16.688223828360151 -22.621550635291726 160 130 104 255
-7.765092010880863 -16.082156963757981 -22.794877063353113 156 126 98 255
-7.623945145470600 -15.443350026883820 -22.908956639044533 153 123 95 255
-7.564787882631236 -14.770986236237988 -22.963784531258227 147 120 91 255
-7.505626848985798 -14.099097606175619 -23.018629795255663 145 118 88 255
-7.774577739530059 -13.287200511275174 -22.836390559097140 139 114 84 255
-8.043595838025226 -12.473603267570894 -22.654155832721074 132 109 77 255
-8.476774325142969 -11.586979140952181 -22.353368182140315 123 104 69 255
-8.417725812753218 -10.913138726312084 -22.408262516268508 117 102 63 255
-8.604867617582300 -10.131137243063009 -22.285329089045632 111 98 59 255
-9.202424435878839 -9.165592724459955 -21.865985491539590 106 94 54 255
-9.635958840127103 -8.269628702965761 -21.565206115576785 102 90 50 255
-9.823328624876950 -7.481870730241752 -21.442288481994154 98 86 46 255
-9.600257365562754 -6.879308808661065 -21.615825426892371 96 84 45 255
-10.198230210521331 -5.902703989563207 -21.196484863810923 94 81 46 255
-10.385763234592616 -5.111278353808032 -21.073599614481509 87 73 38 255
-10.983978891737650 -4.128143573353540 -20.654257357337286 73 62 32 255
-11.253802191783109 -3.294511396707463 -20.472092167817607 63 52 22 255
-12.837988986166749 -1.840912829998118 -19.341185270497334 54 44 16 255
-14.093926420317587 -0.532462681153035 -18.447430841195256 41 35 11 255
-11.585093713461049 -21.418227437422061 -19.013680256038981 191 158 137 255
-9.809972506893246 -21.391695208212980 -20.317282138679133 185 150 127 255
-9.751296838905319 -20.707502897339964 -20.372158789918331 180 145 122 255
-9.038515876964283 -20.281071397950768 -20.902800902727620 178 143 121 255
-8.816211687547536 -19.664953036677773 -21.076660719783433 177 143 121 255
-8.266746720360402 -19.181212268849492 -21.488431367187502 176 142 118 255
-8.207898683044164 -18.503452785711474 -21.543392631522721 171 139 114 255
-7.740058920887293 -17.992372427471565 -21.895747877432086 167 136 111 255
-7.272125182505562 -17.484500018854007 -22.248135366934861 165 134 108 255
-7.131355295535940 -16.844736593842413 -22.362638422371987 160 130 104 255
-6.581446610885621 -16.376225104641819 -22.774565146457633 152 124 97 255
-6.686082298513639 -15.636936077981048 -22.710667257081809 147 120 91 255
-6.790747973299887 -14.897048896131722 -22.646778825079735 144 117 88 255
-6.977293451372162 -14.121703095810517 -22.523414178198578 140 115 84 255
-6.918313212899477 -13.450576864685999 -22.578519210005794 138 115 83 255
-7.023063105283740 -12.709124438457096 -22.514662659311568 128 110 75 255
-7.455347370780515 -11.824388703380436 -22.212852825159558 120 104 68 255
-7.887734320346397 -10.936857568041788 -21.911040700773611 114 100 61 255
-8.074545153788733 -10.155137997082917 -21.787709586925587 108 97 57 255
-8.425211027061010 -9.299278621167971 -21.545394929629936 102 93 52 255
-8.694053121546716 -8.477886296110526 -21.362580001741975 100 88 48 255
-8.881045666582338 -7.691764076245775 -21.239270088168951 96 84 44 255
-9.068091155759674 -6.904428483178336 -21.115969572296223 94 82 42 255
-9.419064381406685 -6.040756779137581 -20.873673808612267 91 78 43 255
-9.524289239172333 -5.288255879112867 -20.809893990287321 87 73 38 255
-10.203234369225839 -4.268368009557591 -20.329587763521658 76 62 33 255
-10.718413662017014 -3.320722074771538 -19.968287711532952 63 52 22 255
-12.217388531322911 -1.905972688886209 -18.892878872232075 53 44 15 255
-13.552740618979868 -0.559110844176999 -17.936451671375607 40 36 10 255
-12.654455398363496 -21.537073316260091 -17.316797504831669 198 169 147 255
-10.475648677257652 -21.656318689785934 -18.923408908183177 184 149 129 255
-8.867395310728284 -21.568828710300934 -20.112378212182875 180 145 123 255
-8.808868380007937 -20.886274780393791 -20.167515497522572 176 142 120 255
-8.179193535612569 -20.429362139789333 -20.640434378892138 175 143 120 255
-7.712587438265160 -19.911905586254633 -20.994024818002799 175 143 120 255
-6.756233567071206 -19.593861534450440 -21.705753673624514 174 142 119 255
-6.697470637625287 -18.919632111752549 -21.760984392389332 168 138 114 255
-6.393821542190068 -18.345630186464987 -21.995293270363277 163 133 109 255
-6.498286838837089 -17.606217080411199 -21.931178149658223 160 130 106 255
-6.194562200607038 -17.035115276586154 -22.165527863019889 157 127 103 255
-6.135735533003611 -16.363985408453885 -22.220823323453402 149 121 97 255
-6.076902754869849 -15.693344753017087 -22.276133903974568 145 119 92 255
-6.099734133415296 -14.988598584384732 -22.271763426071516 140 117 86 255
-6.449292112967811 -14.144354700633713 -22.028612821307576 135 114 83 255
-6.553870945007503 -13.403264184776887 -21.964560762852386 132 112 79 255
-6.576784478942528 -12.696954060776179 -21.960219666663932 123 108 69 255
-6.599711773470432 -11.990558889381376 -21.955891701834162 116 104 62 255
-6.786080615027231 -11.212192951232353 -21.832167668976609 112 99 57 255
-7.054221760414947 -10.396436673483947 -21.648744353917380 107 94 55 255
-7.485893327428386 -9.505991401204980 -21.345909123106452 102 90 52 255
-7.754188591166752 -8.686228110825937 -21.162491123338526 100 86 49 255
-8.349548232293131 -7.716636452153224 -20.740232776630648 97 83 46 255
-8.699775173989281 -6.855001026146425 -20.497105298675876 92 78 41 255
-8.968323627764391 -6.028624020815357 -20.313694597912587 88 73 40 255
-8.991617245126491 -5.313973201484671 -20.309438141119699 83 68 35 255
-9.750986138060910 -4.256239019615336 -19.767737791363288 79 65 36 255
-10.428740244410079 -3.231841320673510 -19.285744083495047 62 51 21 255
-11.761069591199316 -1.893781082576936 -18.325973821038559 51 44 14 255
-13.011891868171944 -0.585786108275045 -17.425892074043020 35 33 5 255
-12.008009785626314 -22.313100569739930 -16.869409892060446 207 185 158 255
-9.996831392869552 -22.363556783836160 -18.361969113662212 196 162 142 255
-8.961953615579574 -22.051298067298418 -19.135962092941611 186 149 129 255
-7.682647032523931 -21.840935309190641 -20.089678294694608 180 143 120 255
-7.624242828443528 -21.160828891866217 -20.145081483262402 174 141 116 255
-7.240147152085285 -20.609909739801211 -20.440071002999787 173 140 118 255
-6.693113820341779 -20.126547368252133 -20.854877123826526 167 135 112 255
-5.494463842459254 -19.908571013895752 -21.748891255388372 166 134 111 255
-5.354365699844749 -19.270033033852371 -21.864284887138268 163 133 109 255
-5.295696897888035 -18.599307026200236 -21.919795018030356 160 130 106 255
-5.481412167110108 -17.828551738134649 -21.795613036908293 156 126 102 255
-5.178335497581628 -17.259374150411190 -22.030856247821674 154 124 100 255
-5.282606834451769 -16.522049510768852 -21.966597326586168 150 122 98 255
-5.223925784747365 -15.852779780240354 -22.022159841171884 145 119 92 255
-5.491234625112469 -15.045621614768905 -21.838102579170425 138 115 84 255
-5.758607655489072 -14.236778946965174 -21.654046807512742 132 111 80 255
-5.944528774867223 -13.461377974031834 -21.529904706066532 130 110 76 255
-5.885921421556247 -12.791028931543906 -21.585508595708035 122 107 68 255
-5.745775381493928 -12.156809371403739 -21.701043195463740 116 104 62 255
-6.257951173783397 -11.236027912346231 -21.337262241570812 111 98 56 255
-6.280936050217321 -10.529189090032773 -21.332985152460594 105 93 53 255
-6.874859037738219 -9.566851832198026 -20.909280439025110 101 89 51 255
-7.142642917057969 -8.747634715195161 -20.725253105404164 98 86 48 255
-7.981542028319552 -7.667495257574473 -20.121766254630700 95 83 45 255
-8.331111774881663 -6.805591043325450 -19.877810654978617 90 77 40 255
-8.517577147263523 -6.016516611049497 -19.753709455988087 85 72 38 255
-8.704094956494657 -5.226212740444311 -19.629616279527824 78 65 31 255
-9.461959689678793 -4.167917427430723 -19.086023069569052 73 62 32 255
-10.546490772166152 -2.951071909454626 -18.302690746372093 60 51 20 255
-11.712901778722255 -1.688363837851114 -17.459399521565274 46 41 12 255
-11.849392613452324 -22.904833018290319 -16.062203368394393 216 193 169 255
-9.436737832910865 -23.101653986656387 -17.860541115840931 197 164 143 255
-7.998139608663337 -22.941649374626948 -18.937800829291547 196 156 138 255
-7.209019264569037 -22.540521870684813 -19.534324129372862 188 147 126 255
-6.419730398598915 -22.144803134301299 -20.130889291989888 181 140 118 255
-6.280199488415803 -21.499310479793934 -20.246664158405338 174 138 115 255
-6.059390992867066 -20.887062746501641 -20.422559919191940 165 130 108 255
-5.513504306851502 -20.406175782353884 -20.838904027868551 163 128 106 255
-4.967502849487488 -19.929055340339929 -21.255280494041898 163 131 108 255
-4.746489934334136 -19.323787017349062 -21.431246456570932 164 132 109 255
-4.688001920439177 -18.653619160813705 -21.487006867502060 162 130 107 255
-4.710798462898026 -17.950442835589456 -21.482666009317740 157 127 103 255
-4.489698207321965 -17.348590916537560 -21.658682125325328 153 123 99 255
-4.593798102406879 -16.612086231129339 -21.594248480296869 150 122 98 255
-4.453966978371227 -15.977973609324707 -21.710178886490439 144 118 91 255
-4.476767871370896 -15.275689680843129 -21.705884843055060 137 114 83 255
-4.906265066659756 -14.399004085680275 -21.400989564248334 131 110 79 255
-5.173169679113244 -13.589822591117155 -21.216336712619807 127 107 73 255
-5.440138801933614 -12.778942934882451 -21.031685115012493 119 104 65 255
-5.300355794287128 -12.144749105507429 -21.147671469882653 112 100 58 255
-5.730155895992453 -11.259905284927200 -20.842773514030199 110 97 55 255
-5.753152088737551 -10.553353961565776 -20.838523812188896 105 92 52 255
-6.345890702069937 -9.591272372494913 -20.413361032581804 100 88 50 255
-7.020165416438374 -8.588532161671949 -19.928054140710913 98 86 48 255
-7.613188387938152 -7.618373295905712 -19.502869420504851 95 83 45 255
-7.880685003804388 -6.793499459418129 -19.318223040153498 89 77 40 255
-7.985400147413429 -6.042005973666704 -19.253857366691193 83 70 36 255
-8.578752715455522 -5.062775371961919 -18.828660699515126 75 62 29 255
-9.253688543190322 -4.041488528664956 -18.343313586677453 67 57 27 255
-10.173138010604447 -2.900557820860854 -17.677524875804750 57 50 20 255
-11.418641909123806 -1.598882505127094 -16.771135757452498 44 40 13 255
-8.633852754526856 -23.930926833644165 -17.540370864834642 205 172 150 255
-7.603655454284905 -23.613108060751557 -18.319914765909829 202 161 144 255
-6.735323168981893 -23.240145454829971 -18.978886880540813 195 152 135 255
-6.028908645084442 -22.810413561297906 -19.517277236791358 184 143 122 255
-5.484464652273743 -22.322286957214629 -19.935075893005745 179 137 113 255
-5.102043986155309 -21.774140212217432 -20.232272939358296 175 135 113 255
-4.881699471022074 -21.164347848160006 -20.408858499409945 164 129 107 255
-4.499134333529184 -20.621051594748835 -20.706101348419566 160 125 103 255
-4.440873372593472 -19.949594825739212 -20.762083738491327 167 132 110 255
-4.301497424521500 -19.311640879401125 -20.878400793201962 166 134 111 255
-4.162094266716082 -18.674742046154350 -20.994733044588941 164 132 109 255
-4.022664272932076 -18.038892342033435 -21.111080678811049 160 128 105 255
-3.883207820583294 -17.404085683975552 -21.227443881968810 154 124 100 255
-3.906005267012517 -16.702191889763441 -21.223163666737747 148 120 96 255
-3.685365831639473 -16.103244593885861 -21.399886509301865 143 117 90 255
-3.870471253572134 -15.332850731501395 -21.274964417703444 137 114 83 255
-4.055622031250778 -14.561313535338940 -21.150045556279508 129 108 77 255
-4.078468385296702 -13.858911033469241 -21.145802431852331 124 104 70 255
-4.426061442009740 -13.014781360807945 -20.900218453968648 115 100 61 255
-4.692543684820720 -12.204089260728793 -20.714971291947279 109 97 55 255
-5.283896704065995 -11.247872334246182 -20.288361019366988 107 94 52 255
-5.550544207462877 -10.432666781851722 -20.103109497930291 102 90 50 255
-5.898476601993110 -9.579239606378422 -19.857515185387882 99 87 49 255
-6.490176695133954 -8.613243520616891 -19.430881826212527 94 82 44 255
-6.432120138785052 -7.939616343640694 -19.487017177081128 91 79 41 255
-6.942779342193035 -7.005265453284522 -19.120724234429872 87 74 37 255
-7.209796144516417 -6.180257280912897 -18.935476121183939 83 70 36 255
-8.452040278516819 -4.899326438089389 -18.026004027186218 77 64 31 255
-9.125660957169259 -3.876939165700620 -17.538973607737915 65 57 25 255
-9.880720620375200 -2.811669459652904 -16.991575339399219 53 47 18 255
-11.367564850141605 -1.393429333909708 -15.900949113263550 38 35 10 255
-8.640796227710723 -24.455271436415188 -16.616610983459481 206 180 156 255
-7.289595274993331 -24.254593443893370 -17.641000221705809 204 168 149 255
-6.423284946022989 -23.878161859366969 -18.302320802414386 209 166 150 255
-5.961150311251288 -23.352207648238675 -18.661066423377520 198 155 138 255
-5.256270875715728 -22.923607547682906 -19.201414509320642 182 141 120 255
-4.551238950061901 -22.499876602774762 -19.741799312007117 177 134 111 255
-4.007852895170544 -22.017196371803109 -20.161163740121793 173 131 110 255
-3.545257784863850 -21.506117895824900 -20.520028231643806 166 131 109 255
-3.406229899582058 -20.868486208771458 -20.636792224210637 166 131 109 255
-3.671800087301079 -20.068339226686049 -20.450902495783566 168 133 111 255
-3.694627477196377 -19.365512957221540 -20.446616168226740 167 133 110 255
-3.474633513542841 -18.762431535491771 -20.623948247498959 164 132 109 255
-3.092691237937686 -18.227992637419533 -20.922375194224458 160 128 105 255
-3.115471287294895 -17.527234499000770 -20.918126092112431 154 124 100 255
-2.976321297824171 -16.894566607234850 -21.034968905655120 147 119 95 255
-3.080078892492907 -16.159919524852867 -20.970196639791197 139 113 86 255
-3.021889655222225 -15.493890003779057 -21.026519919750996 132 109 78 255
-3.449665798992982 -14.619076686751939 -20.719575527693365 126 105 74 255
-3.391513658540703 -13.952375121726192 -20.775913659747857 118 99 64 255
-3.657406958509512 -13.144468685761709 -20.590064838419153 110 95 56 255
-3.761319932602532 -12.406232734448039 -20.525318858617368 103 91 49 255
-4.270415637719992 -11.487577331482242 -20.157813864512349 102 89 47 255
-4.941707933833413 -10.493124840642494 -19.669190106611666 98 86 46 255
-5.288959786555068 -9.640235112600664 -19.422776113344383 96 84 46 255
-5.636294805623209 -8.785069240357956 -19.176359704494899 89 80 41 255
-5.578383199243575 -8.112814472965198 -19.232738645556765 86 77 38 255
-6.087991691346645 -7.179804601249273 -18.865203896314938 82 73 35 255
-6.759887670851640 -6.168251374033346 -18.376535743526233 77 67 32 255
-7.675217332678073 -5.038671623029330 -17.706160712561456 70 60 26 255
-8.671858079497866 -3.864862573781863 -16.975196589362554 57 50 19 255
-9.506506313679921 -2.761177587553462 -16.365341232788154 48 43 14 255
-11.477015784295418 -1.110626751948104 -14.907500760029137 34 32 9 255
-6.732716092153396 -24.988074623073857 -17.143347374881643 210 175 155 255
-5.787718914166504 -24.639538688179826 -17.867755968587829 213 176 157 255
-5.084594327528009 -24.205014643943457 -18.410007079938083 209 173 151 255
-4.704123348845030 -23.650965959828824 -18.709349987792905 200 164 142 255
-4.323569014931394 -23.099632020354903 -19.008715431830126 187 150 128 255
-3.942931630832305 -22.551007479366788 -19.308103542532535 179 143 121 255
-3.562211503550401 -22.005086918354436 -19.607514449454584 173 136 114 255
-3.181408942033045 -21.461864846813668 -19.906948281222981 171 135 113 255
-2.881269964675425 -20.888884588765592 -20.145660995290768 170 135 113 255
-2.904084676417085 -20.187167198376798 -20.141410394839568 170 135 113 255
-2.926905701691140 -19.485431367930275 -20.137166774353148 170 135 113 255
-2.465101097320201 -18.983237916554870 -20.497424711389499 162 130 107 255
-2.326321432845646 -18.350129767598148 -20.614706704843655 159 127 104 255
-2.106724364828779 -17.751866490940031 -20.792754978351724 151 121 95 255
-2.291074366288967 -16.984824666370869 -20.667050896256484 144 117 89 255
-2.313853227289343 -16.285336173033613 -20.662859242278415 137 112 82 255
-2.498272593354898 -15.516569347184657 -20.537161193218594 131 108 76 255
-2.844385656728946 -14.676896870822787 -20.289947243916743 121 101 68 255
-3.109744808631774 -13.870145987220738 -20.103489117375005 113 97 59 255
-3.051796784014073 -13.203385533288483 -20.160077845425633 107 92 53 255
