ply
format ascii 1.0
element vertex 641
property float x
property float y
property float z
property uchar red
property uchar green
property uchar blue
property uchar alpha
end_header
-13.855418263701701 -16.496026911793592 -23.004000511196665 186 150 129 255
-13.776246281044081 -15.807369916355640 -23.540407231865089 183 148 126 255
-13.797955160768005 -14.661555166254516 -23.681411249910525 181 148 123 255
-13.936896013349077 -12.978333868728129 -23.364271684070417 179 147 122 255
-13.974604542092209 -11.749557325704728 -23.444643871392799 173 143 117 255
-14.011967874682632 -10.517939334445629 -23.527227366998517 168 138 110 255
-14.032270072716265 -9.360544240524916 -23.677243606327011 161 130 101 255
-14.035585180281224 -8.278009231479956 -23.894196355939300 151 124 95 255
-14.038655088287094 -7.193483246503149 -24.112698199534123 146 121 91 255
-14.141341039830976 -5.640766371586039 -23.944391617707794 139 115 84 255
-14.343204116656416 -3.616041712972276 -23.392249643199079 129 107 76 255
-14.594021748183479 -1.349866029964005 -22.652432021230481 109 97 66 255
-28.747026687549983 -1.882628714814700 52.275427158750148 198 164 128 255
-28.440268699567348 -1.838366163261924 50.737422381827258 189 153 120 255
-28.275154702876598 -1.266370757773075 49.790583213712665 169 140 104 255
-16.385944131599956 -23.727049165500830 -4.500866829259934 216 184 163 255
-15.792183824619308 -25.159918542824755 -7.143146973901821 219 186 167 255
-15.455716276041436 -25.529564213821857 -8.734436487922665 221 188 169 255
-15.358415236880582 -24.898348110088108 -9.351438150652200 225 188 172 255
-15.142085359905444 -24.772851837592214 -10.451458461625634 224 187 171 255
-15.011046013567828 -24.288975898197947 -11.204240442791985 221 186 167 255
-14.727498387469602 -24.459845738865738 -12.574515132011271 222 187 168 255
-14.647741064935957 -23.762259543380992 -13.117923264362929 222 187 168 255
-14.432680221723778 -23.648956318396927 -14.208432269986048 220 185 166 255
-14.251766601129404 -23.392715305290324 -15.159721669167169 217 182 163 255
-13.953095396796748 -23.653274404059857 -16.585398823598695 217 181 159 255
-13.688719343441306 -23.772173184027565 -17.870861440442496 214 178 156 255
-13.576186977834077 -23.231031739468136 -18.542949414708943 213 177 155 255
-13.413372513405307 -22.913119474926191 -19.416986875135649 208 172 150 255
-13.267554763365347 -22.523162437488168 -20.221861972255255 206 170 148 255
-13.105180835401818 -22.209542717154932 -21.092550338498256 201 165 143 255
-13.009904041410145 -21.599285215205128 -21.693186553065459 198 163 143 255
-12.948049492587529 -20.839709084091226 -22.159574210145678 195 160 140 255
-12.919471564502238 -19.929539275190962 -22.492706567949710 193 158 138 255
-12.957309972056187 -18.716780329315299 -22.560422743858425 189 154 134 255
-12.978181211532750 -17.576747547221373 -22.696765415541819 187 152 132 255
-12.948971431122622 -16.661650248815761 -23.033729019806430 186 151 129 255
-12.952748370320897 -15.593412256729380 -23.239421545365616 182 147 125 255
-12.989366327681637 -14.370759840358431 -23.314835199817765 179 146 121 255
-13.058679588447760 -12.992419676371043 -23.260961867219322 176 144 119 255
-13.127549918890921 -11.610388493064391 -23.209961581795028 172 142 115 255
-13.163034355423733 -10.378361521407896 -23.292671385016320 165 138 109 255
-13.198174964865302 -9.143494464071523 -23.377591562444792 155 126 96 255
-13.249395518047869 -7.828516496027163 -23.399633337537011 144 118 88 255
-13.316623534199820 -6.432791773954904 -23.359292044548397 136 113 82 255
-13.514405968619016 -4.411814476801680 -22.803757711478596 125 105 75 255
-13.842157739310736 -1.760495756648425 -21.736994125013297 110 99 66 255
-28.896488331929568 -0.951249318431508 58.303449494172895 197 171 138 255
-28.276607996921747 -2.071277584882068 55.416458723955230 196 164 136 255
-27.902301371589751 -2.280611174469016 53.574403987685599 195 160 132 255
-27.563555539599612 -2.364486932683519 51.885246847856109 195 159 131 255
-27.555904726088961 -1.192845559079103 51.598963371768747 152 122 88 255
-15.885691401025746 -23.104346753695779 -2.510198322361646 216 183 163 255
-15.298893112319767 -24.526492010759512 -5.161691719357748 225 188 170 255
-14.864836449392264 -25.317826230378159 -7.176784930665093 223 188 169 255
-14.549291657630292 -25.616066787588011 -8.698818157445118 227 191 175 255
-14.351749140930615 -25.416736805521538 -9.731279050064359 226 189 173 255
-14.204744443677058 -25.004015789917901 -10.554035490638483 222 186 170 255
-14.108059432825840 -24.375986673552632 -11.168580953253041 221 184 166 255
-13.827816048856924 -24.546991287938994 -12.539095816646125 222 186 168 255
-13.564806013647221 -24.650425503341154 -13.836933999020943 222 185 167 255
-13.269033278471177 -24.904697910098832 -15.267888010288942 218 182 164 255
-13.156665224262738 -24.359111660709686 -15.943508992606354 217 181 163 255
-12.978010061768579 -24.108266239297336 -16.890767595712617 217 181 161 255
-12.832770292315132 -23.712789428096698 -17.700069396988994 213 177 155 255
-12.753888307997265 -23.023669815064977 -18.236872475285594 210 174 152 255
-12.608916355562407 -22.630995783576964 -19.043985433526274 202 166 144 255
-12.414642731253601 -22.463028208393297 -20.051982273062237 198 162 140 255
-12.270112211541097 -22.074648039437648 -20.855745188409514 195 159 137 255
-12.207999020362159 -21.314504587404230 -21.322554442186856 196 159 140 255
-12.162250153751081 -20.479132260036067 -21.722653533713640 193 158 138 255
-12.083600253999180 -19.793324484511402 -22.256861362974774 192 157 137 255
-12.021316117863243 -19.032289139243119 -22.724358148312405 188 153 133 255
-12.024371956339181 -17.968683458718232 -22.926310916599050 185 152 131 255
-12.043502379211390 -16.827301378455900 -23.063538162319531 181 147 125 255
-12.111235135437418 -15.455519597249292 -23.004311389634580 176 141 119 255
-12.129697134008566 -14.308662599084926 -23.145799049999340 172 140 115 255
-12.164113886443630 -13.082969985549965 -23.223386432901322 171 141 115 255
-12.279320664704649 -11.471283648714831 -22.975105401883440 166 136 110 255
-12.393939598044796 -9.854634221067158 -22.730688395889558 158 131 102 255
-12.459436957434640 -8.464188019112925 -22.685990253659526 149 124 93 255
-12.589109288821426 -6.760985787497589 -22.383682536160137 133 114 82 255
-12.766535247090324 -4.819961926149233 -21.890702346326009 119 104 71 255
-13.104230818400815 -2.095368739683693 -20.755008864496659 101 91 58 255
-27.916283975415332 -1.822996934130401 59.095858516909715 200 168 136 255
-27.252186055388997 -3.132977278016824 55.979960181974576 205 161 136 255
-26.813168475782327 -3.602358435406302 53.838660640370875 208 161 139 255
-26.615465152498736 -3.156833215196286 52.739412776919920 204 160 136 255
-26.640918907903803 -1.853600310632146 52.601433026064598 180 151 122 255
-14.977138493265741 -24.191244976622670 -2.194790285233211 217 182 157 255
-14.464249175137645 -25.323410217416097 -4.571680250789711 220 187 167 255
-14.118263617669832 -25.753712327418356 -6.241924987912483 227 191 173 255
-13.905370401019105 -25.618792974293314 -7.349759467610994 230 193 177 255
-13.610258631072178 -25.846064233117374 -8.802140287372282 228 191 175 255
-13.431213152630683 -25.575370471722096 -9.765057620478615 223 186 170 255
-13.170096652910452 -25.668147473255431 -11.071524199760347 216 183 166 255
-13.057499897140509 -25.114379245126628 -11.753592983576937 220 183 165 255
-12.830041675507566 -25.069680260755121 -12.916468451019114 223 186 168 255
-12.570213624172844 -25.174532789186628 -14.213518719272628 223 186 168 255
-12.294534237137675 -25.357203545175707 -15.575284854801936 221 184 166 255
-12.117508805011177 -25.105760747020668 -16.523187011610474 221 184 166 255
-11.940762030946011 -24.856995480354300 -17.469000532320280 221 184 165 255
-11.764294691665469 -24.610908110121500 -18.412725209782849 213 177 155 255
-11.767125084654765 -23.555006273148791 -18.608560710819461 205 169 147 255
-11.704700877287145 -22.793404492089934 -19.076490836687384 198 162 140 255
-11.609766199248874 -22.180080197649943 -19.679588735857635 192 156 134 255
-11.482467887045232 -21.716310564591822 -20.416859595584953 191 155 133 255
-11.371483520460863 -21.179230539864704 -21.085897518453663 191 154 135 255
-11.309045831178004 -20.418349455959202 -21.553256170430217 190 153 134 255
-11.149782674770215 -20.108006410397081 -22.421679216897701 188 153 133 255
-11.087379077352836 -19.347807882137346 -22.888501557089427 186 154 133 255
-11.073158825824301 -18.360621032451860 -23.156127564287374 183 151 130 255
-11.139013444282902 -16.992980763818423 -23.093427817622853 178 145 123 255
-11.204424545495158 -15.621646831962323 -23.033603147817104 171 139 115 255
-11.269392805260459 -14.246620543965037 -22.976652591915922 168 137 110 255
-11.254009125854687 -13.249972326895374 -23.251640276026933 167 137 109 255
-11.382045958428925 -11.562121912995792 -22.937017891999602 160 133 104 255
-11.493513816622333 -9.945722672694444 -22.692072289058132 152 127 96 255
-11.731666007376454 -7.707956926993717 -21.928453669447691 136 117 84 255
-12.032380402303403 -5.152784768631136 -20.910734588198181 118 107 71 255
-12.395365213593450 -2.277662574656176 -19.640896384114797 103 98 61 255
-27.275796462656125 -1.392790418100390 61.381437810527501 192 163 131 255
-26.415717116806697 -3.475010992290038 57.361748345511813 190 151 124 255
-26.015385885936276 -3.807138246980799 55.363687887294788 201 158 134 255
-25.818979488477645 -3.358057910068396 54.261491876626877 201 159 133 255
-25.943940029921684 -1.658340645761200 54.567050641937868 190 159 130 255
-14.414577521250301 -23.792262977448246 -0.404420572918809 218 185 162 255
-13.760640347195611 -25.553091911162738 -3.420636489312528 224 188 167 255
-13.385832909057278 -26.120455057167476 -5.235308132921546 227 188 171 255
-13.125954265357755 -26.196494115892165 -6.555144047360784 229 191 173 255
-12.964223371446472 -25.848246191566375 -7.453290209561914 228 191 174 255
-12.770221098985850 -25.645701994565087 -8.488665036666561 227 190 174 255
-12.592764655075861 -25.374316618154182 -9.452296193319029 224 188 172 255
-12.350785616775262 -25.394225394816743 -10.690476415425451 220 184 168 255
-12.157801133000696 -25.201411066100889 -11.718261901322393 219 182 164 255
-11.932839992523370 -25.156861141173863 -12.881281532208448 222 185 167 255
-11.708301541052514 -25.116266363151851 -14.041217071260036 226 189 171 255
-11.371472383715286 -25.590675760826798 -15.677534664924423 226 189 171 255
-11.099718844514349 -25.779142372146197 -17.035128394132869 225 188 170 255
-10.989070228630304 -25.238513568627923 -17.707008576397328 222 187 168 255
-10.830419781873509 -24.919796967264205 -18.582119264010089 216 181 162 255
-10.848053366569026 -23.790889278632392 -18.709322389766584 206 171 151 255
-10.769502019807895 -23.103981283941238 -19.244410816411232 194 159 139 255
-10.706896833792740 -22.342915515679465 -19.711897971854484 189 154 134 255
-10.596438621778638 -21.805041861818779 -20.381618861177742 187 152 132 255
-10.517884012900296 -21.118727811290341 -20.916237145913129 189 154 132 255
-10.455204616905185 -20.357620075919471 -21.383749708328793 188 153 131 255
-10.281458654992974 -20.122159279253253 -22.319354556642992 186 151 129 255
-10.187170104874824 -19.512642326997707 -22.919508724708834 184 152 129 255
-10.187784400246478 -18.450321351843513 -23.120189075078002 180 148 125 255
-10.298649511022582 -16.855599711272220 -22.858033608047151 175 144 118 255
-10.393164503864782 -15.331894899194054 -22.665921450390215 166 138 109 255
-10.408455434507225 -14.184634267457739 -22.807395576608911 164 137 107 255
-10.439163665044454 -12.958547795853747 -22.884905287700832 162 134 104 255
-10.563657817469860 -11.269890383871314 -22.570549423436631 152 128 95 255
-10.703180918978049 -9.499012263861232 -22.194873668859401 140 120 87 255
-11.076613397269576 -6.566630015945577 -20.843491326829678 124 112 74 255
-11.448632908479958 -3.622073886545536 -19.501590024455254 108 105 64 255
-26.608494252154607 -1.036376293030855 63.600267466821862 179 172 128 255
-25.775816222685187 -3.039490755681982 59.643063012917963 193 151 125 255
-25.312679654283166 -3.624563469616135 57.339940111307186 202 156 133 255
-25.100745847424513 -3.236176248106119 56.159448570225919 185 154 125 255
-25.272174441036448 -1.338761128557451 56.687551939157828 118 114 73 255
-13.246573619755175 -24.938133790508886 -1.422392613047322 227 192 172 255
-12.811485991929509 -25.780868346012738 -3.524653174022518 229 190 172 255
-12.554005467145593 -25.851173774401644 -4.849275971684449 228 189 172 255
-12.297039529538516 -25.926284019072085 -6.170152248389087 229 190 173 255
-12.152605549238622 -25.505624301729597 -6.999457859540058 226 189 171 255
-11.912479514865517 -25.517129372731119 -8.244479738807399 225 188 170 255
-11.752591056805777 -25.173328875789565 -9.139301425253592 222 186 170 255
-11.481422459725756 -25.336829712386702 -10.516704039403521 219 183 167 255
-11.274442114741426 -25.216110581081523 -11.613926941088067 218 181 163 255
-11.083716520155072 -25.026344152465811 -12.639538659568103 222 185 167 255
-10.829890337544491 -25.130839301563469 -13.937501500526736 225 188 170 255
-10.529088289982688 -25.459149949509111 -15.437297046483479 227 190 172 255
-10.181529930637403 -26.013192667439597 -17.137432364790328 229 192 174 255
-9.992623364173348 -25.840314367949532 -18.149876771144193 227 192 173 255
-9.835564730361504 -25.523257794706780 -19.023841464878103 221 186 167 255
-9.836089694285612 -24.469913285548387 -19.217412210742737 208 173 154 255
-9.804940011537873 -23.562699919087180 -19.547936169933479 198 163 143 255
-9.757948702769944 -22.728616060837140 -19.946885711271960 191 156 136 255
-9.679527253235840 -22.042793423071885 -20.481129271995400 187 152 132 255
-9.585460094301311 -21.431804003497518 -21.082471371070909 188 153 131 255
-9.553888297618364 -20.521697800770824 -21.415239213120657 187 152 130 255
-9.459807366315921 -19.910966615548119 -22.016375607893394 184 150 128 255
-9.396898861249234 -19.150104775056008 -22.483669626882630 183 151 128 255
-9.427179390753082 -17.935615821705738 -22.551961014854186 179 147 124 255
-9.503663137342890 -16.490979238706814 -22.423347214849002 171 141 115 255
-9.595148095743660 -14.966244872681727 -22.231731416592567 164 137 108 255
-9.701561897497932 -13.360776969577756 -21.977608895518699 161 136 104 255
-9.745616506984909 -12.055965440306011 -21.990857132833440 153 129 95 255
-9.881792599353069 -10.288185487969969 -21.612379515031165 141 120 86 255
-10.048074909917254 -8.360935859643831 -21.107334627417885 131 114 80 255
-10.459499682105751 -5.194357649834785 -19.561387527619502 115 104 69 255
-10.915404209255961 -1.782570911910341 -17.830267273729447 102 102 63 255
-25.488441027085038 -1.185467035994066 63.579879800859345 190 158 122 255
-24.898110518275764 -2.277413905453329 60.667575898507295 183 148 117 255
-24.637841827479015 -2.076053718698176 59.256295242158359 162 143 108 255
-12.754670343742852 -24.190777110492292 0.724664905420667 222 192 166 255
-12.134583961598231 -25.871936276124472 -2.230188710283699 227 188 171 255
-11.832231816118394 -26.150387117751706 -3.769259818366635 227 184 169 255
-11.593663688042092 -26.150603743599362 -5.023374163517531 226 187 170 255
-11.339805465136926 -26.226491940448284 -6.343961245953523 227 188 171 255
-11.165126000862585 -25.949654743498087 -7.312196140319543 223 186 168 255
-11.022137363395437 -25.532052720684277 -8.139234855721014 221 184 166 255
-10.863642648458800 -25.188205640919193 -9.034239660720090 219 184 165 255
-10.736694633105792 -24.702316680995438 -9.789043288548612 216 181 162 255
-10.547335543113185 -24.507261507212576 -10.818981726596917 218 181 163 255
-10.420747004228083 -24.025022275183801 -11.570936209630901 221 184 166 255
-10.076073902119774 -24.563173410330364 -13.283944300546466 224 187 169 255
-9.701088513214934 -25.254685680797280 -15.128329784460334 227 190 172 255
-9.342552447391782 -25.881203201391259 -16.897919010554659 231 194 176 255
-9.031421774939943 -26.295238343707354 -18.456756308141053 229 193 177 255
-8.860417147692779 -26.053053341108210 -19.397967588077762 224 189 170 255
-8.813417812955258 -25.222750193316500 -19.793925810562627 208 173 154 255
-8.812635483554317 -24.169533978872551 -19.987257878027577 196 161 142 255
-8.811601530052407 -23.114316541073009 -20.182146470758738 190 155 135 255
-8.733353914787607 -22.429539035865702 -20.715581593501071 187 152 132 255
-8.701203682453063 -21.520788003105395 -21.047216813154819 187 152 130 255
-8.668900953759419 -20.610890135002080 -21.379743155330715 185 151 129 255
-8.682405152462010 -19.474468682328279 -21.512456162280159 182 150 127 255
-8.665021686358834 -18.486303767071661 -21.780523825304670 180 148 125 255
-8.723793819046264 -17.118814746074548 -21.716961142552350 176 145 121 255
-8.812617487828447 -15.596105634665605 -21.523464102503368 167 137 112 255
-8.885680436369775 -14.144830965823871 -21.399741903191057 160 134 105 255
-8.958254259908365 -12.689441202244097 -21.279223339270374 156 133 100 255
-9.075860643871856 -11.000735614471296 -20.964182714839723 148 127 91 255
-9.268580062460821 -8.923578536672238 -20.324621931255678 135 119 83 255
-9.520923303654577 -6.531612638662352 -19.428597654316604 118 107 72 255
-9.923203466051895 -3.360067812653881 -17.885619341698003 108 104 67 255
-24.434171765577851 -1.075047602086272 63.859049395597737 179 137 102 255
-24.224214439776780 -0.669284020807368 62.664606024423250 137 127 82 255
-11.624474963568311 -25.192339887996781 -0.155555620953777 218 182 160 255
-11.107303113179896 -26.452414480933641 -2.686686703622854 222 180 164 255
-10.871106434958733 -26.449035648144985 -3.943893876292094 222 180 165 255
-10.728443378303446 -26.023584186320420 -4.777175531562335 222 183 166 255
-10.524009058905456 -25.885105835305694 -5.888712872218093 225 186 169 255
-10.397259384701975 -25.392645801952625 -6.648734921155409 222 185 167 255
-10.162569972912145 -25.403585562090910 -7.894774521189731 222 185 167 255
-9.912936002561587 -25.490834745840061 -9.206818591919784 218 183 163 255
-9.709990808512458 -25.366468203857551 -10.307350018528552 216 181 161 255
-9.614979585588124 -24.739150575434081 -10.921508369343968 219 182 163 255
-9.489320729872873 -24.257514902897839 -11.673083016850995 222 185 166 255
-9.195306115187449 -24.577865361921909 -13.179887270699822 224 187 169 255
-8.794908917443230 -25.415258058465668 -15.162081560806229 227 190 174 255
-8.517668829210926 -25.676067539406404 -16.589809847608677 230 193 177 255
-8.103850417320032 -26.603312461434541 -18.627456360444171 231 195 179 255
-7.919391206363265 -26.435564793398754 -19.636309272906942 227 191 175 255
-7.811241595234456 -25.901696293948618 -20.303104440429621 209 173 156 255
-7.854895362117489 -24.628224901646803 -20.291521103708902 191 156 137 255
-7.883005410226325 -23.425746413412213 -20.350084631185126 188 153 134 255
-7.835153611603928 -22.592834798203540 -20.748016640771823 185 150 131 255
-7.787197980491079 -21.759201081820436 -21.146508922743266 181 149 126 255
-7.739139145540392 -20.924846175134689 -21.545560822592222 180 148 125 255
-7.781277795821815 -19.639042120462449 -21.543573397940179 179 147 124 255
-7.868100051705461 -18.123965478156890 -21.343829160082606 176 146 122 255
-7.984386410707593 -16.453251457703516 -21.014418981633327 173 143 119 255
-8.100037450536128 -14.777144973340427 -20.689207472507093 163 135 111 255
-8.140289737132200 -13.475505532115847 -20.699547592008059 157 132 102 255
-8.210007964079161 -12.018233630375022 -20.580218073971992 149 129 94 255
-8.383567956138997 -10.022074708863386 -20.002510707307636 138 120 82 255
-8.690219774130433 -7.329353938922651 -18.838348675925147 123 111 74 255
-9.025318693750293 -4.472088077965623 -17.551459817069826 107 100 64 255
-9.433213423347354 -1.217907305822735 -15.946502027636029 96 98 61 255
-10.731441689519635 -25.137353961881303 0.022606992483844 213 177 155 255
-10.298293628131340 -26.043842288014361 -2.157361320239829 219 178 160 255
-10.095223862944174 -25.897398274469225 -3.275342571073168 222 182 165 255
-9.862041832208469 -25.896620897772834 -4.530808422102183 224 185 168 255
-9.644544786883834 -25.828939343915636 -5.712908122554154 224 186 169 255
-9.457853641065462 -25.622217358665040 -6.752354805373983 225 188 170 255
-9.271486568371266 -25.418597010738637 -7.789382157998261 224 187 168 255
-9.024866874846659 -25.505773461360860 -9.101800105573716 217 182 162 255
-8.778766632468802 -25.597758504273145 -10.410469055904599 217 182 162 255
-8.653953546415018 -25.115753506201258 -11.162424596440019 220 183 164 255
-8.484058591355243 -24.852837009249015 -12.120150588881359 223 186 167 255
-8.239205978959511 -24.956479510636797 -13.419729629207922 224 187 169 255
-7.904737141610916 -25.502865856730409 -15.127294741105544 226 189 173 255
-7.676074528956427 -25.544203633453094 -16.349922544434207 230 193 177 255
-7.343065203156492 -26.103829420979650 -18.047168662009142 231 195 179 255
-7.085623302924716 -26.302680020822606 -19.398050832319740 231 195 179 255
-6.948163724675503 -25.916039476321117 -20.201179825092623 211 175 159 255
-6.930104684642757 -24.938799621934891 -20.460535053064206 190 155 136 255
-7.015986772212258 -23.440120411729765 -20.247722060237976 183 148 129 255
-6.997355534639475 -22.458242074051384 -20.510686196484841 181 146 127 255
-6.963695087395386 -21.549482973410079 -20.842169301716183 179 147 124 255
-6.929883547180573 -20.639577854041789 -21.174543030825248 180 148 125 255
-6.925482320064425 -19.578293653757839 -21.373876934712797 177 146 123 255
-7.024126913381743 -17.987707820381985 -21.107167581192499 170 140 116 255
-7.136916994321545 -16.316610934399932 -20.777693310863015 167 137 113 255
-7.263780301908810 -14.564367373406839 -20.385949306307054 160 131 107 255
-7.331228243940870 -13.110177132459569 -20.263943983141445 152 128 99 255
-7.383529784642725 -11.728052661160575 -20.211278604249884 142 123 87 255
-7.669548248703521 -9.119970587397660 -19.105935698117833 129 115 75 255
-8.056624861408601 -5.965178043239575 -17.548111018827541 116 108 69 255
-8.500491882535137 -2.489669528172328 -15.738197935344687 105 102 66 255
-10.461669157746023 -23.273435096910447 3.310087881191578 199 198 155 255
-9.747503206198083 -25.504969079976490 -0.223013794214069 210 175 150 255
-9.500964159576405 -25.564723072537191 -1.557130895307665 214 176 154 255
-9.359909383850173 -25.133314043891630 -2.395293670751613 220 178 160 255
-9.189089231441073 -24.845856395224729 -3.372334190625821 222 181 163 255
-8.943808234027095 -24.917469287927020 -4.697203138334118 222 184 165 255
-8.728890756125885 -24.850904957785389 -5.878689857924002 223 186 167 255
-8.454800040373122 -25.075119387206200 -7.335694721464080 223 188 168 255
-8.211074364744505 -25.161157563413553 -8.649316749511883 218 183 163 255
-7.938168138718062 -25.396269389562974 -10.097826272209090 220 185 165 255
-7.769661667289640 -25.130626017297743 -11.057854896190491 221 186 165 255
-7.483020009601240 -25.448128739457303 -12.567685447182015 224 189 169 255
-7.300488759244722 -25.262319445152286 -13.591027131491416 224 189 169 255
-7.059273240147988 -25.371553914457763 -14.886564732329163 223 188 169 255
-6.848039430793150 -25.339203462911485 -16.041375464527476 226 190 172 255
-6.593118483752441 -25.531042449297786 -17.398068271958920 231 196 178 255
-6.309409894529288 -25.875363727978311 -18.886993632374612 231 195 178 255
-6.172935631605831 -25.487409737815426 -19.691264946071811 217 180 163 255
-6.109808476445316 -24.731040106578746 -20.154982758122458 195 159 141 255
-6.148880820088621 -23.454539826376077 -20.145314402207418 184 148 129 255
-6.129224853072863 -22.472662278021346 -20.408170369489454 184 148 129 255
-6.080250827387147 -21.638587124775796 -20.806904940595075 181 149 126 255
-6.074780014000162 -20.579091889212350 -21.004711552037577 182 148 125 255
-6.112594646390001 -19.292263804489750 -21.003080314840190 177 145 122 255
-6.207963434778598 -17.700865633548403 -20.736669712885174 167 137 112 255
-6.288284625804970 -16.180036712842650 -20.540793145562958 161 134 107 255
-6.382507526193002 -14.578916066161753 -20.281952593508294 157 131 104 255
-6.519387324992060 -12.744942716650456 -19.827974335929497 144 122 93 255
-6.641148481455978 -10.980906876312417 -19.445022353110119 134 118 84 255
-6.992072234577726 -7.988861257247351 -18.010538105618281 125 112 75 255
-7.456267189090646 -4.371413751969669 -16.059165059293889 108 102 65 255
-9.468829208505390 -23.640191960813127 3.064722432775767 198 196 153 255
-8.987775321141555 -24.816256482922682 0.591282608459295 212 176 150 255
-8.626008592209253 -25.438879081526636 -1.308980702443648 214 173 151 255
-8.515479704326552 -24.865305345429618 -2.006932321516587 217 173 154 255
-8.316823860405414 -24.719066417712753 -3.125214590895126 218 176 158 255
-8.147894739569260 -24.433805902657753 -4.100715678525006 219 181 162 255
-7.847364989376963 -24.794613012251432 -5.702767987916673 221 184 165 255
-7.532919082960184 -25.233636522930709 -7.369424311919659 224 189 169 255
-7.336071582724564 -25.104285960189657 -8.474537961294573 220 185 165 255
-7.081277849119409 -25.266976550411954 -9.854299996533996 222 187 167 255
-6.827053740578371 -25.434903484342328 -11.229979956277816 222 190 167 255
-6.587931905350850 -25.535512982830284 -12.532559490373671 223 191 170 255
-6.450886599122228 -25.131564221564787 -13.349422460579234 222 190 169 255
-6.299541977336766 -24.802423431469947 -14.233545242165434 219 187 166 255
-5.989378887343207 -25.280659909654048 -15.869634266118396 221 188 169 255
-5.723287817180768 -25.545618902677035 -17.295250442172659 232 195 177 255
-5.472229814785685 -25.742621075841271 -18.648264671512834 228 191 173 255
-5.365611778531211 -25.206542126579990 -19.316969004266070 222 185 167 255
-5.316533388065025 -24.375263754494000 -19.713480416873551 200 163 145 255
-5.324704370299649 -23.246233111036986 -19.839787704396059 189 152 134 255
-5.289637610250615 -22.338188676167505 -20.170557929846836 188 152 133 255
-5.211551854479076 -21.653046332219787 -20.704298620756276 183 151 128 255
-5.219053952769748 -20.518662175367012 -20.834770245820749 182 147 125 255
-5.283225887882999 -19.081425636898132 -20.699011022851693 177 142 120 255
-5.417994127884540 -17.263466276790098 -20.232144370245862 168 138 112 255
-5.537839911677445 -15.514796848870901 -19.836836804179427 160 133 106 255
-5.614499829659046 -13.987548565374198 -19.645653593722784 152 128 98 255
-5.775489660619392 -12.000012058093688 -19.059806817210017 138 121 89 255
-5.935654358025509 -10.005388956096397 -18.479478817282029 127 114 79 255
-6.348715534243205 -6.628787817527666 -16.716030984220595 111 104 67 255
-6.844508022957164 -2.777888401883956 -14.568833522783166 104 105 68 255
-8.048504408488633 -24.972672964512270 0.557716500329519 211 175 151 255
-7.720918819983318 -25.454351445484349 -1.201753804930746 214 172 150 255
-7.538695777655981 -25.234962910712170 -2.251688433453694 215 173 154 255
-7.486679324432075 -24.379163547142582 -2.667287178312677 216 175 157 255
-7.319294569499128 -24.092786731035176 -3.643833320852423 220 182 163 255
-7.022739550186188 -24.452436795190238 -5.247217978327370 224 187 168 255
-6.640744591696809 -25.248782681039131 -7.263810887103858 224 189 169 255
-6.388765555883580 -25.407014106713973 -8.647395444842374 221 186 166 255
-6.194597694071042 -25.281989763790335 -9.749368355361781 224 189 169 255
-6.015092575938382 -25.088160719093082 -10.779371113837556 227 192 170 255
-5.793130106441964 -25.115085467234536 -12.014102548546106 227 192 172 255
-5.642831431299975 -24.782583113982412 -12.900994039759439 225 190 170 255
-5.506979593538389 -24.379360025384301 -13.717408269109001 222 187 167 255
-5.186850892043971 -24.929415699078390 -15.423575993405535 221 186 167 255
-4.867537809286084 -25.486838280578951 -17.124002219741840 230 193 174 255
-4.605604937042614 -25.757169737007501 -18.545805270134878 225 188 169 255
-4.499579613778884 -25.221064432935435 -19.214592653892510 215 178 159 255
-4.450015457645435 -24.389778169050373 -19.611059328016495 199 162 143 255
-4.442554069838316 -23.335010836703304 -19.804917340483826 192 155 136 255
-4.392713472930176 -22.501642017612340 -20.203002267467696 190 153 134 255
-4.328751971862708 -21.742230985856509 -20.669038210679417 185 153 130 255
-4.334716625031170 -20.608071037207367 -20.799171137167576 179 146 123 255
-4.424215997805902 -19.020869824504643 -20.528824822910849 172 140 116 255
-4.610761719492707 -16.901485791039732 -19.794084580571194 165 135 109 255
-4.768538971629276 -14.925215829766415 -19.198989003320520 154 128 101 255
-4.967187286299776 -12.714631601528737 -18.409724370277843 144 120 90 255
-5.137116692717818 -10.647591858665578 -17.759769154369053 132 116 82 255
-5.416975770591741 -7.963712615947259 -16.585801749040570 113 104 68 255
-5.820009629623002 -4.581520535779362 -14.825723894232965 100 99 63 255
-7.366430682060887 -23.861692768190181 1.797450740621258 209 177 149 255
-6.929415079793181 -24.904858555451000 -0.529866819820967 213 173 151 255
-6.692190947033673 -24.967063693491212 -1.863022700825667 214 175 155 255
-6.455484880351698 -25.034076730747131 -3.192429987433599 217 176 158 255
-6.332395277241353 -24.535774262051802 -3.957457423450762 221 183 164 255
-6.054194960223661 -24.825135157518702 -5.490433584938302 226 189 170 255
-5.762570985347978 -25.192277711590464 -7.088409322166683 226 191 171 255
-5.513855337435778 -25.350220557492236 -8.472564631741193 222 187 167 255
-5.392074074301426 -24.864334048465139 -9.227908567909651 227 192 172 255
-5.158297554911961 -24.958501048233046 -10.536144994063648 228 193 171 255
-4.939036019195363 -24.984934676211623 -11.771548357392447 227 192 172 255
-4.692313761722026 -25.161269310595372 -13.141365285516628 226 191 171 255
-4.599545167032112 -24.540162150213973 -13.750846625837170 222 187 167 255
-4.339782987178630 -24.797812876091371 -15.182907727227501 219 184 165 255
-4.038957019088322 -25.281317738359604 -16.815809474835874 226 189 170 255
-3.738899133588369 -25.771763384156230 -18.443301792527791 225 188 169 255
-3.578079361425758 -25.530922709639270 -19.384518625489761 214 177 158 255
-3.569594954271388 -24.478374048864140 -19.576514341995590 200 163 144 255
-3.602259486544149 -23.201081270817156 -19.566800342929753 190 153 134 255
-3.565661058927667 -22.292819202720978 -19.897581965078274 189 152 133 255
-3.487663545151193 -21.607432895798866 -20.431524887412195 184 152 128 255
-3.492018518496820 -20.472859658655153 -20.561815783197858 178 146 121 255
-3.660500937965246 -18.434678203560821 -19.888882300912314 170 138 113 255
-3.869142410843089 -16.163041322043057 -19.021025709982894 157 130 101 255
-4.076765745903124 -13.882611400662086 -18.160017408553159 147 124 93 255
-4.310629609928405 -11.441917995520384 -17.172664024194347 135 115 82 255
-4.652218412412630 -8.383993967682215 -15.661376436659395 121 107 72 255
-5.005887155414669 -5.236875612271774 -14.093975474824390 105 102 64 255
-5.520684553693371 -1.159815485357285 -11.743864799024379 72 77 41 255
-6.925581191295855 -22.634590692809269 4.455206169766399 188 180 141 255
-6.410313033788299 -24.088638431794180 1.693507722864837 210 177 151 255
-6.133501723554112 -24.355478202886900 0.142571966535343 212 174 151 255
-5.787775828249842 -24.982577225466088 -1.755834044520839 216 174 155 255
-5.456846390616413 -25.546851221740042 -3.577554116925455 219 178 160 255
-5.334782284034240 -25.050007557098525 -4.341535289314294 221 183 164 255
-5.115950565066626 -25.054879800677497 -5.594038443467412 226 189 170 255
-4.911410131886065 -24.992448247520656 -6.773345271429861 226 191 171 255
-4.679705055217404 -25.077775847889143 -8.088790905946126 224 189 169 255
-4.517374684047006 -24.807345160379526 -9.053254390737067 227 192 172 255
-4.217861747989438 -25.262864774848765 -10.708429786744347 227 192 170 255
-4.015169181715159 -25.217546291898259 -11.874394404688900 227 191 171 255
-3.812903910776690 -25.176187277893462 -13.037271995570507 224 188 169 255
-3.734131013330973 -24.482091426018087 -13.578022641250158 222 186 166 255
-3.532504552938640 -24.446735088179167 -14.736219261893041 220 184 165 255
-3.263179868615985 -24.782300493045341 -16.233579947494491 221 184 165 255
-2.926520318241536 -25.491981596944100 -18.067616468032128 220 183 164 255
-2.767277044101185 -25.250245785379917 -19.009706791246828 214 177 157 255
-2.730295740881935 -24.344914408163703 -19.338130105114175 204 167 148 255
-2.760809004482809 -23.067216772994300 -19.328510566913423 196 159 139 255
-2.723409199808465 -22.158527512932665 -19.659545986562392 191 155 134 255
-2.712822092763190 -21.099354735892206 -19.856560587527810 183 149 124 255
-2.742359221363934 -19.813541506391857 -19.853257899302122 175 143 118 255
-2.919259074760326 -17.698418925556382 -19.114134594701625 167 135 110 255
-3.175685007872964 -15.123508423007564 -17.979447834895495 150 123 94 255
-3.430900626483641 -12.538105016065998 -16.852933759204006 138 115 84 255
-3.751703384782793 -9.563551118754447 -15.401452685659365 121 105 73 255
-4.097725370040372 -6.424497168002404 -13.826870397556860 102 96 62 255
-4.628554008764681 -2.205786931749742 -11.334620324288807 89 94 57 255
-5.633747186767252 -23.400359469403810 2.509914255138483 212 177 152 255
-5.305842207036470 -23.947443148267610 0.674279524504556 214 173 151 255
-4.951502917864318 -24.643982297744088 -1.296228903264790 219 173 155 255
-4.557253622200243 -25.562300180469038 -3.470922639168776 217 176 158 255
-4.381657829397213 -25.350447707472370 -4.515591898371980 219 181 162 255
-4.152097644021914 -25.427576824718699 -5.837747495943830 223 186 167 255
-3.990802993497446 -25.151102195322807 -6.807100332297296 226 191 171 255
-3.775690074751402 -25.164890431385544 -8.052941376147089 225 190 170 255
-3.588052526666694 -25.038845193276643 -9.156407148851343 227 192 172 255
-3.279505874186398 -25.567234755835216 -10.880927919822000 227 191 169 255
-3.065938510176601 -25.595245014160923 -12.115681795090836 226 189 170 255
-2.919987603250647 -25.263897899802600 -13.002115807504879 223 186 167 255
-2.854695218059476 -24.497036152077186 -13.473905462748718 222 185 166 255
-2.642171491692075 -24.534796354034881 -14.701056830387586 220 183 165 255
-2.363347831953014 -24.943881763210669 -16.267199879134552 222 185 166 255
-2.085244331731822 -25.359483226657574 -17.828264421963894 218 182 160 255
-1.927626675940317 -25.117278461532266 -18.770896286813581 213 177 155 255
-1.889842864660999 -24.211519653387313 -19.099573468499443 205 169 147 255
-1.944723048199563 -22.784939420102205 -18.954410129881268 196 160 138 255
-1.919708771281570 -21.800945998075264 -19.218377365816536 189 153 131 255
-1.986972763459441 -20.292729827931538 -19.011153987411177 177 143 118 255
-2.027330530750412 -18.929721870384725 -18.942114286528664 168 136 111 255
-2.264685063370486 -16.436669918436934 -17.868609624902120 162 132 104 255
-2.500878637080355 -13.933547564559319 -16.802948635089024 142 117 87 255
-2.867050326923099 -10.665206544090665 -15.076880229035481 127 107 76 255
-3.153040539165922 -7.836917793026117 -13.761917054028316 106 95 62 255
-3.646726152493578 -3.781826640855058 -11.392213632699367 95 98 63 255
-4.717459933864127 -23.416192370841429 2.618601499160462 210 169 151 255
-4.340864446001582 -24.245617645101845 0.499674818756318 214 167 149 255
-4.058946074819211 -24.588772925423172 -1.118293033001834 213 170 151 255
-3.684282425392986 -25.435712570593950 -3.223568894229146 212 174 153 255
-3.497248977691889 -25.294633256754594 -4.338989760521883 215 178 156 255
-3.217471597483055 -25.657338806886997 -5.941718382720865 218 182 160 255
-3.018081951758518 -25.596492214026483 -7.120312105988432 220 185 163 255
-2.805863667484829 -25.611495304204567 -8.365496011081717 221 188 165 255
-2.633811821321927 -25.414569670998674 -9.398730333042437 224 192 169 255
-2.382852363116662 -25.654657625183972 -10.845607122207298 226 191 171 255
-2.211607233004777 -25.465224738714738 -11.872999475461597 225 190 170 255
-2.106484346943965 -24.915179307993640 -12.552907968255198 223 187 168 255
-2.014586301827819 -24.293154445685360 -13.163206558472069 222 185 166 255
-1.752304040667887 -24.622893750107664 -14.665914685966328 221 184 165 255
-1.490693311723049 -24.958724175785562 -16.163875318802496 220 185 163 255
-1.282000675544118 -25.006261083273785 -17.383695551767715 219 183 161 255
-1.165048915500684 -24.541522328521722 -18.122818833243400 211 175 153 255
-1.087278600872665 -23.856124835324493 -18.656794448115733 202 166 144 255
-1.100429031338685 -22.651215430856439 -18.715710787065376 194 161 138 255
-1.165098825966915 -21.145668802801595 -18.506103587892909 182 150 127 255
-1.268057896773072 -19.411593889675402 -18.097479764763222 170 140 114 255
-1.370339612248372 -17.671696925260136 -17.693389995473495 165 134 106 255
-1.613761124933511 -15.100040338410793 -16.554764640030044 152 126 97 255
-1.933184489707322 -12.066100623175942 -15.022179629496776 131 114 81 255
-2.276798981269700 -8.868097701726839 -13.366039967432016 114 104 71 255
-2.695740044564815 -5.201868122290080 -11.320571009127434 99 95 62 255
-3.240756685532446 -0.759849122252433 -8.622646349414282 33 39 8 255
-4.014619032808419 -23.454424135123361 4.001928060927099 205 166 141 255
-3.538024620116097 -24.839930661534055 1.309888244038234 208 166 147 255
-3.272934105378503 -25.108648323712487 -0.240792222065522 211 165 146 255
-3.100244535852148 -24.887713702656924 -1.292950309242457 213 168 149 255
-2.797072107131505 -25.380217397597193 -3.046420201312998 210 171 150 255
-2.612222914409962 -25.238868927490387 -4.162283201555255 213 175 154 255
-2.349553923337389 -25.529812855703312 -5.695637213110416 216 180 158 255
-2.139587036118776 -25.540153523149968 -6.944745296398054 217 182 160 255
-1.917110428701513 -25.626766152812820 -8.260143016244001 217 185 162 255
-1.798841335727623 -25.141390684883305 -9.015451327500529 220 188 165 255
-1.525474317528747 -25.525175140564158 -10.602179663172734 226 190 168 255
-1.343210731547074 -25.407793269505959 -11.699356855976475 224 188 166 255
-1.187103989994156 -25.148466847479426 -12.655690224454418 222 186 164 255
-1.082737795283080 -24.600012959798562 -13.334419248467384 222 184 163 255
-0.862905232653652 -24.711027504942706 -14.630792966142678 222 184 163 255
-0.682046833162538 -24.606720093000433 -15.717775961404897 220 184 162 255
-0.475988078797734 -24.653131218001505 -16.938763092847694 218 182 158 255
-0.347013792270054 -24.261103766917955 -17.747043560795618 210 174 150 255
-0.269203461331934 -23.574840411645710 -18.281699857899298 202 166 142 255
-0.318582965849544 -22.146407691901373 -18.137424511670417 189 155 130 255
-0.418258534964750 -20.416079814290896 -17.725492247145326 174 142 117 255
-0.555270120978143 -18.455961465668224 -17.115441682014875 161 132 106 255
-0.678813942706107 -16.563613725034401 -16.578304631447395 152 125 96 255
-0.902566507449166 -14.063949407644770 -15.508602719616846 139 117 86 255
-1.263744511656007 -10.725987880382775 -13.709146520946462 113 102 67 255
-1.862146807914854 -5.938669257278491 -10.650289049262341 101 98 63 255
-2.407743242260359 -1.431411884810643 -7.876095337143028 44 49 15 255
-2.798559898512067 -25.084429029133588 2.476414788519008 209 168 144 255
-2.485268390934039 -25.630022392170162 0.638067570391541 209 167 147 255
-2.262848149790564 -25.689197506542968 -0.699038664745018 211 167 147 255
-2.092288790572596 -25.469919135674104 -1.750110250742608 213 169 149 255
-1.832381526027739 -25.750945573763971 -3.291598666554989 209 170 149 255
-1.701009122005054 -25.325639549735541 -4.125950228978837 212 174 153 255
-1.480482742048110 -25.402347105656702 -5.449387365691507 214 178 156 255
-1.273218101216848 -25.412197365678026 -6.699166951593384 217 181 159 255
-1.040999891897094 -25.570197511481950 -8.085008332339328 218 183 161 255
-0.872806215003990 -25.372959726439376 -9.118894473110402 221 186 164 255
-0.628946642633423 -25.612680589461661 -10.566806752980938 220 184 162 255
-0.486846420918788 -25.277893631996363 -11.456365748417738 220 184 162 255
-0.256656172132210 -25.454506216596599 -12.827697845240635 219 181 160 255
-0.127792331969040 -25.052775585767620 -13.643664951686162 219 181 160 255
0.051161578587759 -24.945519595638103 -14.733180096012774 221 183 162 255
0.141912531111430 -24.328182267155114 -15.339891314657024 218 182 158 255
0.320269203067532 -24.226507300498980 -16.425054645780477 216 180 156 255
0.423257054586614 -23.685570329273020 -17.097982575118607 209 171 148 255
0.476256482827019 -22.849564980597989 -17.497821434275806 199 163 139 255
0.454657869667692 -21.567487234237518 -17.490730902014349 185 150 126 255
0.346469702459814 -19.761069903640305 -17.011945144177929 173 139 114 255
0.189401097635319 -17.649799981072903 -16.267693178191820 157 125 100 255
-0.003882086939669 -15.305991277782766 -15.327379082983981 147 122 92 255
-0.220810473971568 -12.802809182317048 -14.259743480145147 130 112 80 255
-2.359344567812705 -23.653201911725489 5.356336312750983 204 172 142 255
-1.860235205384377 -25.240676481022916 2.442615675758361 206 168 145 255
-1.577126542030399 -25.645826121501017 0.745876885447473 208 168 148 255
-1.345135256410920 -25.775529082920229 -0.662370893843416 210 169 147 255
-1.163973009818420 -25.627224519662889 -1.784122985731784 212 169 149 255
-1.008269854785347 -25.340400808386221 -2.762248590185010 212 171 151 255
-0.840331771689712 -25.127491610855600 -3.808557371370910 214 174 154 255
-0.660231551161253 -24.989138076100119 -4.922549830829553 218 180 159 255
-0.393230913810541 -25.355966468341876 -6.523358266321793 216 180 158 255
-0.151836088337753 -25.585558573151474 -7.979540892051489 218 183 161 255
0.026835919503604 -25.460362884445232 -9.083275612930606 218 182 160 255
0.254712107317268 -25.627916789785473 -10.462015827302395 217 179 158 255
0.407781388463007 -25.365608206794946 -11.421026812787119 215 177 156 255
0.634653542918286 -25.542362997942405 -12.792594658323736 216 176 155 255
0.750035055193500 -25.067868824015818 -13.539599103896421 219 178 158 255
0.877574596189298 -24.667936203168097 -14.354282999819930 218 177 157 255
0.980372122933623 -24.123097258926634 -15.030317296725030 213 176 153 255
1.144333361428814 -23.947150236679533 -16.047807004025657 212 175 151 255
1.222365642442519 -23.257748506116229 -16.584922408161816 208 170 147 255
1.251584961349302 -22.272445856112256 -16.849483904611361 197 159 136 255
1.207921327462991 -20.840247701060548 -16.707587075994212 183 147 123 255
1.128273856612502 -19.180625960402665 -16.365557871064169 168 134 109 255
0.915809679228879 -16.694497361164622 -15.283964732265360 155 121 96 255
0.643965976425889 -13.823999169187744 -13.872971503651883 136 112 81 255
-0.377887749822484 -5.035042234174398 -8.394759311784554 64 67 32 255
-1.512147172596791 -23.249597708113356 5.893599083595888 208 173 145 255
-1.058956553163036 -24.625120385256167 3.191206003348469 208 170 147 255
-0.755314699326213 -25.169014101771580 1.350501669970100 212 170 148 255
-0.489487479283682 -25.508927225365198 -0.271719426466717 211 169 147 255
-0.236669584665322 -25.784551255742514 -1.818225077584344 211 167 146 255
-0.094954136056614 -25.427089988682127 -2.725759441113752 210 169 149 255
0.132252564486649 -25.570509497781018 -4.123659807391732 210 170 150 255
0.309997535621861 -25.433382315263998 -5.236929425198497 214 176 155 255
0.548354529604723 -25.658085249809886 -6.697298118228360 211 175 153 255
0.725218871222268 -25.529089916184745 -7.804228005751497 213 178 156 255
0.926002774328744 -25.547800364991502 -9.047679484478806 216 180 158 255
1.089930518816729 -25.354000248341038 -10.079294195613102 217 177 155 255
1.314034898797203 -25.525870552995173 -11.455016061377592 217 176 154 255
1.501330287332642 -25.484804678386979 -12.619232862541168 215 174 152 255
1.652032911925524 -25.228884925845392 -13.573438772637843 217 175 153 255
1.742299349201652 -24.609891037048442 -14.181511151346996 214 172 150 255
1.856530627415950 -24.138180699005432 -14.926434347163507 208 171 146 255
1.982600134002162 -23.741455123258021 -15.738735804983804 206 169 143 255
2.024774435298546 -22.830030148655425 -16.071434047471541 202 165 139 255
2.055159856758898 -21.843455917053859 -16.336878961325084 192 155 129 255
2.014281047578415 -20.410014449974256 -16.195673305637428 176 140 114 255
1.926341718743394 -18.674734770228611 -15.786426120854060 159 126 99 255
1.625572627161908 -15.590082127076215 -14.164064081164867 139 112 85 255
1.207971146183397 -11.743408011342183 -11.877386065476770 118 100 68 255
-0.901795951885212 -22.670404877454303 7.930237674029684 210 175 146 255
-0.491949768939598 -23.825352584600410 5.432621616837395 205 171 146 255
-0.155973759600933 -24.570975781400762 3.371078283101411 207 171 147 255
0.166927030123340 -25.255303277499110 1.387611200803917 211 170 148 255
0.512969645403437 -26.089458556596355 -0.730780629808805 214 173 151 255
0.761764698973209 -26.366707991858277 -2.276422808092178 212 170 148 255
0.937889676506501 -26.223959084092485 -3.394309130438756 199 157 136 255
1.065729713411137 -25.799827906147272 -4.228102129352862 193 151 130 255
1.229238975526826 -25.591846183813033 -5.270978164545937 177 136 114 255
1.440128690653779 -25.673589804267692 -6.591443222473714 210 171 149 255
1.614780493306839 -25.544542043045226 -7.698646783703595 213 174 152 255
1.812810967720900 -25.563190971152153 -8.942435894615159 216 179 156 255
2.010363178109557 -25.586227309110484 -10.182804833741955 219 178 157 255
2.254764589297949 -25.903682180873034 -11.697106317282987 219 178 157 255
2.415838834532849 -25.718184330591981 -12.722453552128854 218 176 155 255
2.529442344781913 -25.244060528970209 -13.469351639662335 217 174 154 255
2.595863427492510 -24.478754785614001 -13.939792066383490 213 171 150 255
2.662333336888445 -23.713151673652874 -14.410462582198335 209 169 145 255
2.799121660617551 -23.388689742897554 -15.292412140120177 205 166 142 255
2.865543539745836 -22.623773144689039 -15.762544676181562 198 157 133 255
2.908685859241579 -21.710565199452873 -16.096551624760878 188 149 124 255
2.812297755751452 -19.905674851382003 -15.615319641913288 172 136 109 255
2.658552979016562 -17.722412871556401 -14.799730989037130 151 118 90 255
2.308715723808497 -14.261945913846517 -12.840119612512893 129 105 75 255
-0.055855862310331 -23.420482845808522 8.612317172683845 207 182 152 255
0.287917430451351 -24.220765632662506 6.466894623212823 212 177 153 255
0.571388879798420 -24.680840505906957 4.685706490757127 208 174 149 255
0.818571019491735 -24.937816815363021 3.123859346700272 208 174 149 255
1.124097926937885 -25.552731514819158 1.211596891870300 213 176 152 255
1.475830273191669 -26.458204259271554 -0.977719249562966 214 176 153 255
1.779445312443180 -27.090422915317390 -2.876495223439207 210 170 148 255
1.964849877060367 -27.020765393655978 -4.063525963161624 198 157 135 255
2.032764643001748 -26.242830189636180 -4.543799313681120 171 129 107 255
2.147459739537631 -25.750333529872364 -5.305115452795633 139 98 76 255
2.343620381587975 -25.760787378115623 -6.555582967605744 216 175 153 255
2.585839170337991 -26.063081531399860 -8.082105381719543 217 176 154 255
2.792557332216312 -26.155238769701839 -9.394771249710146 217 179 156 255
2.952404878015308 -25.963050460478769 -10.425539263006897 219 178 158 255
3.158164926304089 -26.063982948861963 -11.731364613407436 220 179 159 255
3.294170158010424 -25.733433072822208 -12.618211815624392 218 176 157 255
3.406908108951114 -25.259282257092991 -13.365222110680747 217 174 155 255
3.462053401353238 -24.420826221207534 -13.766774214091726 213 170 151 255
3.517294780059117 -23.581647025766102 -14.168888240005572 209 168 146 255
