ply
format ascii 1.0
element vertex 668
property float x
property float y
property float z
property uchar red
property uchar green
property uchar blue
property uchar alpha
end_header
13.537191711553078 -20.464939851561482 16.548615373692542 128 92 70 255
13.596619160301898 -19.711723537961149 16.337905062646001 121 85 63 255
13.656078092904963 -18.957363709941561 16.127172922925013 115 79 57 255
13.592405989233526 -18.337997600738419 16.302441650190787 114 76 55 255
13.467193556868509 -17.788246203241812 16.670769593679069 112 74 53 255
13.372814085690905 -17.205995650931982 16.942639764258558 115 74 54 255
13.401631366739991 -16.485892417402994 16.828451635460766 116 75 55 255
13.461273805110125 -15.730037235888773 16.617722238818345 113 75 54 255
13.644100997296150 -14.831455244202431 16.020809363308160 110 73 51 255
13.611456410922059 -14.179114189360192 16.099651122973370 106 70 48 255
13.671211531030380 -13.419417739765720 15.888849921502782 102 67 45 255
13.854145745810669 -12.513730534846431 15.291781937305842 95 60 38 255
14.344956829924584 -11.240001704185602 13.728954366714646 84 52 31 255
14.897358136764240 -9.884009236155748 11.972760537008583 72 45 22 255
19.788443599881475 -2.557197007780985 -3.420812814031251 33 17 0 255
20.371624567810258 -1.100706695339937 -5.275185709391963 45 30 10 255
14.294836393664028 -1.537704267193618 13.576426802268799 25 31 8 255
11.585546564368258 -4.406981331323877 22.065827569733756 156 132 109 255
10.569052480507182 -5.079751389997924 25.239103462343166 172 129 110 255
10.014271381543665 -5.154099522709899 26.962551945211175 176 129 111 255
9.828862110949913 -4.741830634846380 27.525940716460127 166 118 100 255
9.581964550150005 -4.415774885931313 28.282817449279548 151 104 86 255
9.550553019993046 -3.800567488195910 28.362863848186066 136 93 73 255
9.488427215011484 -3.227766148356707 28.539643182180214 125 87 66 255
9.611008330212087 -2.401154027645703 28.136133237032908 118 82 60 255
9.610553248632030 -1.742863518294953 28.119482913454362 104 74 50 255
9.856351866387996 -0.740430365121341 27.328964656073083 86 63 37 255
18.101408172074102 -28.724922690784922 0.348459768583609 181 152 122 255
17.487700285999367 -28.560427857497842 2.257786945309704 184 152 127 255
17.087862570789724 -28.206285217562098 3.492430247123593 190 156 131 255
16.535356953095686 -28.003732442004207 5.209417273835811 192 160 137 255
15.708030772822823 -28.073525368422580 7.794606000010617 195 163 140 255
15.094568557591131 -27.951766882541847 9.705061627964398 193 158 136 255
14.603329295021709 -27.721942056295561 11.229993763680937 198 162 140 255
14.386996878269500 -27.230870039525627 11.887022197859352 202 166 144 255
14.231778488083393 -26.683066574778209 12.351221608265746 205 166 149 255
14.015520301112176 -26.199017551742699 13.008442926912664 208 166 150 255
13.707692488363747 -25.811133232234312 13.955208326325902 210 167 150 255
13.430445131231110 -25.397569231913536 14.805631897597067 205 159 143 255
13.275378840693250 -24.863502116969912 15.270210092406700 197 151 134 255
13.059282671642464 -24.395326916792911 15.927866114569497 182 137 118 255
12.934825112793007 -23.835277449341106 16.296101087318164 168 121 103 255
12.963061749477745 -23.116629541528255 16.181821910104702 158 113 94 255
12.960795762474802 -22.429823670349720 16.164056599758766 149 106 87 255
13.050149847201354 -21.644922854169707 15.856709768868654 140 99 78 255
13.017414410174567 -20.990177791425978 15.935471117833544 133 95 72 255
13.076297228882837 -20.236246885954571 15.724623120461473 125 88 65 255
13.135209759797064 -19.481179462622606 15.513753080874096 116 80 56 255
13.194152890711493 -18.724969264257439 15.302861036912645 111 75 52 255
13.131025075918743 -18.103747242319372 15.478202749649512 110 74 52 255
12.976361616575034 -17.586441619648170 15.943290900710906 108 72 50 255
12.882790442450485 -17.002604662003563 16.215298866794825 110 74 52 255
12.911354049276113 -16.280922047396018 16.101015267628554 109 75 50 255
12.970476564747429 -15.523489797678778 15.890131931996052 108 73 50 255
13.182243684878671 -14.587953755038995 15.196233155169182 107 72 50 255
13.180393043085616 -13.898107642880206 15.178482710336823 103 68 46 255
13.331184617048834 -13.028522369933668 14.677675183886493 97 62 42 255
13.543049962877248 -12.083721949018653 13.983565080395891 92 57 37 255
13.999099873898828 -10.843287011178731 12.516351764129354 78 47 26 255
14.577246547162872 -9.447662790044077 10.662402483808620 67 42 19 255
15.796284096164356 -7.264499046883387 6.778747595247978 46 26 4 255
18.327549796859586 -3.456674890233430 -1.261290725813694 37 20 0 255
19.302424339655445 -1.518656971171211 -4.373107014519064 46 31 11 255
19.483899119824201 -0.546387614839034 -4.972169774249494 49 36 20 255
13.399937061369556 -1.824617324740643 14.103852257699742 21 28 5 255
11.232663381241835 -4.006717446475733 20.954009632374436 155 133 107 255
10.041839698957816 -4.921553987467263 24.709560679382975 172 127 110 255
9.522326033972448 -4.953766737042358 26.337283907495305 177 128 112 255
9.338489442086839 -4.540185534412458 26.900985391581798 166 117 101 255
9.124203287223679 -4.171199729509155 27.561533042578077 152 105 87 255
9.184563322311647 -3.428762193271865 27.351298725225718 137 94 75 255
9.061925305629600 -2.937884489079053 27.721672738573744 127 89 68 255
9.213928928867276 -2.067008166107655 27.221099186040703 118 83 61 255
9.030393960244211 -1.662815417036185 27.785103010984500 104 74 51 255
9.152008057309416 -0.831818213239941 27.381270249214680 87 63 37 255
19.019069725872995 -27.957731717770955 -4.999701781964689 190 168 134 255
18.016968139761431 -28.138503311164314 -1.835631618515947 185 154 126 255
16.591038385460720 -28.734275070892963 2.679563927879656 185 155 129 255
16.134139523602656 -28.439029422442346 4.107981601929168 191 157 133 255
15.404792613903950 -28.412076631949375 6.405020607691256 193 161 138 255
14.372748359625902 -28.689871620864338 9.667366472330144 193 161 138 255
14.218786150487361 -28.132066457308383 10.131590560552780 195 160 138 255
14.064855780704349 -27.576976487269405 10.595889911230245 200 164 142 255
13.729315804886753 -27.204515599181505 11.639369791133532 202 166 144 255
13.545184040228278 -26.686715936625518 12.200386201461953 204 166 147 255
13.209729015259725 -26.324785524649940 13.244149505249766 207 165 149 255
12.965132021557366 -25.876400498380747 13.998456429992274 207 164 147 255
12.660035662943457 -25.494454783446642 14.945971561829026 203 157 141 255
12.506328731059185 -24.961216836970621 15.410869417172421 193 147 130 255
12.382925782338305 -24.399054571863516 15.779283095759240 180 135 116 255
12.259557563859900 -23.839027992360997 16.147758102685856 164 119 100 255
12.287555986573167 -23.120411116483197 16.033427341472930 155 110 91 255
12.224785475213324 -22.498463374451134 16.208829351076361 141 98 79 255
12.434428744069848 -21.583403236921626 15.514978500504498 136 97 74 255
12.492772251097364 -20.829288880833829 15.304007339476954 130 92 69 255
12.672194961750435 -19.941152033127423 14.706608695641023 117 82 58 255
12.700329964647025 -19.217186074053430 14.592173474503596 110 76 51 255
12.607451710926725 -18.627669248092062 14.864190958969800 108 74 49 255
12.544872461629353 -18.005669906539794 15.039633714510359 106 71 49 255
12.512590516038188 -17.350372247231476 15.118480856936458 106 71 49 255
12.480345471925560 -16.695532787823510 15.197347630790716 106 71 49 255
12.538912151648432 -15.936617358997793 14.986304822302486 104 70 45 255
12.506740943659480 -15.281864752508440 15.065190010406042 103 69 45 255
12.746917805856569 -14.309106935061820 14.274182055900411 102 67 45 255
12.775330993220308 -13.581488000274405 14.159716144653487 96 61 39 255
13.045823191981270 -12.565830042432211 13.271875138589394 91 56 36 255
13.286088921058976 -11.581378551200615 12.480592724487167 89 54 34 255
13.586892722364183 -10.519545778433184 11.495835516436131 74 42 21 255
13.917978792371613 -9.415434792342552 10.414253623913993 63 37 14 255
14.944900679882934 -7.454139831955175 7.108456361594222 50 30 8 255
17.544920198452346 -3.536039058360586 -1.226496201993314 42 25 5 255
18.360058735795789 -1.786392901557889 -3.856597730637020 51 36 16 255
18.600451471222101 -0.740448991989254 -4.649398226330618 52 38 21 255
12.841465017261967 -1.668701216090668 13.567495419959329 19 25 2 255
10.511532877038462 -4.092779909925952 21.002491287887437 156 133 107 255
9.361285631843245 -4.967340232515554 24.663530846775615 170 125 109 255
8.785776263830627 -5.081982255810942 26.485854285353241 182 130 116 255
8.724495009989681 -4.503902061818764 26.662686551212914 167 118 103 255
8.512047420995742 -4.134687723499852 27.323632610034849 154 108 92 255
8.571857265109415 -3.392041311537355 27.113272098320579 138 94 77 255
8.420014891615537 -2.943098217844692 27.580699104050524 127 88 69 255
8.479938193232897 -2.199576427530275 27.370341524398043 114 80 60 255
8.267727275166706 -1.838949081930153 28.031555496480706 101 70 49 255
8.358011214134066 -1.052085540797748 27.724363720620545 87 59 37 255
18.524447113159795 -27.738856021596760 -5.933279733434006 194 166 137 255
16.510627445091615 -28.872740788797515 0.514582778502643 192 158 133 255
15.877610776788615 -28.737946106486092 2.522830601938381 187 157 131 255
15.184628885292099 -28.671791458581907 4.724459376540665 192 160 137 255
14.011518127477203 -29.080576895332030 8.471181288629936 198 166 143 255
13.618794209554835 -28.751854767095253 9.708027450035814 199 167 144 255
13.466197759051042 -28.194603562589847 10.172565686509671 198 163 141 255
13.403659946112597 -27.550922217323858 10.347472436552408 203 167 145 255
13.161098486870202 -27.088243963285990 11.101867461866789 204 168 146 255
12.948582266303063 -26.599635374350058 11.759796705905757 204 165 147 255
12.676089896010254 -26.175855676719067 12.611008682100902 206 164 148 255
12.403638366208938 -25.756929812174477 13.462351667586404 206 163 146 255
12.131228156538228 -25.342852748573293 14.313825641281795 199 153 137 255
11.888863338514440 -24.902285921020649 15.068819802547239 188 143 125 255
11.796552464081699 -24.308002312465007 15.340842165127583 176 131 112 255
11.674271820752068 -23.747188558098657 15.709536452158574 161 116 97 255
11.672029326967106 -23.059935289555526 15.691765057933566 145 102 83 255
11.609814820987538 -22.437474505754821 15.867276390067758 136 95 73 255
11.877623792836687 -21.456551477980682 14.979718838940414 128 89 67 255
11.965456989096324 -20.668440324891819 14.671956974340702 121 85 61 255
12.143308175074083 -19.778995734909444 14.074179999673191 112 77 50 255
12.111203847906850 -19.120698067861738 14.152990762039394 103 69 44 255
12.109129099163809 -18.429116720503771 14.135147427937909 102 68 43 255
12.077092087087792 -17.771498294612229 14.213990064518413 101 67 42 255
12.135073165417253 -17.011441834738648 14.002789842143301 104 69 47 255
12.133098451319938 -16.319366598530664 13.984956080638483 102 67 45 255
12.131158907440678 -15.627203637358818 13.967127844728481 100 66 41 255
12.129255317800201 -14.934946237654444 13.949305137968736 99 65 41 255
12.247353712139358 -14.101063725474745 13.544627014164348 98 63 41 255
12.305502738605384 -13.336214478395490 13.333343213178040 92 57 35 255
12.603606548328841 -12.282800080715575 12.348204142115833 86 51 31 255
12.751789837561688 -11.404816193056377 11.846612110449911 87 52 32 255
13.019960822449619 -10.378153413662773 10.957984179610207 75 44 23 255
13.288161149659416 -9.346487436887571 10.069236911848094 68 42 20 255
14.426022621392136 -7.236747371924579 6.374420672676280 50 31 9 255
16.673385781002153 -3.727220171030567 -0.901178301839593 41 24 4 255
17.571331343597436 -1.866394017739367 -3.823127609826884 63 48 29 255
17.749637534235887 -0.896682329530606 -4.422822585612266 58 43 24 255
12.370819931503235 -1.392035323559966 12.740153687295219 12 20 0 255
9.491663383877210 -4.584051463463538 22.019675657038277 166 144 118 255
8.591328509404249 -5.135491854300881 24.908180069660261 176 132 113 255
8.110785767169503 -5.128038227528563 26.441054217802076 185 135 118 255
8.050020146779403 -4.550280990385559 26.618007949739791 168 121 103 255
7.809433432353813 -4.222989466700284 27.376240863487794 154 109 90 255
7.868694926321879 -3.480948164296407 27.165775026721121 137 94 75 255
7.808095228767343 -2.906136409961107 27.342839285112603 126 89 68 255
7.867465889843331 -2.162405649201460 27.132354970253147 110 79 56 255
7.777000884572658 -1.630759396585447 27.406357877053495 97 69 45 255
7.806506530553108 -0.928541407886598 27.292770723133543 84 61 35 255
19.218389446548656 -27.168605163799015 -10.711157489880463 203 189 149 255
17.906534840812981 -27.631349478730030 -6.481485639085065 199 168 141 255
16.684034445464917 -28.033595476468705 -2.540948161780932 195 161 136 255
15.937610989589103 -28.004159292169845 -0.145306955858530 194 159 136 255
14.417817416676556 -28.732761284213282 4.762268582928755 196 164 141 255
13.522822024027036 -28.881908139151903 7.641832532574227 202 170 147 255
13.163326417322367 -28.522125450395237 8.782783634942007 205 173 150 255
12.893108108600998 -28.080507293600149 9.634047012955307 203 168 146 255
12.741902710796140 -27.524907612948581 10.098932552040338 205 169 147 255
12.382528427492332 -27.181904919260845 11.240332194815664 204 168 146 255
12.082682399656591 -26.784878127443747 12.188622296026239 205 166 149 255
11.782877561535045 -26.393250108684853 13.137057183799584 206 164 148 255
11.661554557462622 -25.822259972252155 13.505706131439240 201 158 141 255
11.480784467838873 -25.315547064303132 14.067740240567360 196 150 134 255
11.270311512860729 -24.843392372032653 14.726532307705867 185 140 122 255
11.178825581880503 -24.248591245828166 14.998722998240822 175 130 111 255
11.087370801602901 -23.655387742406049 15.270960702655685 159 115 94 255
11.144625740195949 -22.903070860021941 15.059795443418864 145 103 81 255
11.053230848509813 -22.311697814757622 15.332092332661830 135 94 72 255
11.259207872243209 -21.395100078113316 14.637396911013553 123 87 61 255
11.346269699187872 -20.606484212208144 14.329452794907553 116 80 54 255
11.492820532758387 -19.749760507798385 13.828036425837070 105 70 44 255
11.431273645780777 -19.124713243866836 14.003629486440389 100 66 39 255
11.458952870269783 -18.399404786498167 13.889060323947120 97 63 36 255
11.605581607695768 -17.537370842917596 13.387527573314458 98 64 39 255
11.663048012960715 -16.775462676053976 13.176167661187975 99 65 40 255
11.661088178465548 -16.081533132194266 13.158290550787967 100 66 41 255
11.778072649059425 -15.248159211624568 12.753380350983377 99 65 40 255
11.746452159557876 -14.588078005433445 12.832252630005229 97 63 40 255
11.863499251656265 -13.751539454566640 12.427276632696561 95 60 38 255
11.742774215628529 -13.197927473721379 12.796493935285781 90 55 33 255
12.008512875557656 -12.179408258722077 11.907536070796766 86 51 31 255
12.214829382049274 -11.228283439379339 11.212047218047019 83 48 28 255
12.599515601077201 -10.054487051013652 9.935658922157359 76 43 24 255
12.924779469232547 -8.946986434165950 8.852711973753799 68 41 20 255
14.409230557045817 -6.390378355978370 3.993827380442838 53 33 13 255
16.042269108688956 -3.620225132250837 -1.349855536682981 41 24 6 255
16.783659905296290 -1.946394052947440 -3.789425396461979 68 53 34 255
16.900941321595965 -1.052905759157298 -4.195781675933915 64 49 28 255
11.421014143139971 -1.759380981352024 13.462368592410087 16 23 0 255
8.864465144505388 -4.548491527944051 21.778492547098750 170 150 123 255
7.882929933741750 -5.222029802760517 24.959472411373866 182 138 119 255
7.466048067791704 -5.133011880803465 26.299453053741217 182 133 116 255
7.346370019253939 -4.637975330683844 26.670373168289842 170 123 105 255
7.167317958490017 -4.228050522592213 27.235218314322367 149 106 87 255
7.136890321237118 -3.611706309755263 27.315452411492970 138 94 75 255
7.195656541079941 -2.869157683426650 27.104864948803851 128 90 69 255
7.284188721778250 -2.082792843605688 26.797300639535848 113 82 59 255
7.283635251430596 -1.422566771495141 26.780580025554741 98 70 46 255
7.312850114964149 -0.719047890467280 26.666896245711285 89 65 39 255
18.232756858993511 -27.392933635455236 -10.102832071194030 206 187 151 255
17.374915398948417 -27.440425493129183 -7.320075087505188 199 171 145 255
16.546632009514965 -27.475518973267995 -4.633550763178675 197 161 139 255
15.600488637388182 -27.639218853378438 -1.560027474716435 197 161 140 255
14.123747752424350 -28.335627780907032 3.253784126388211 199 167 144 255
12.912451826414824 -28.798912758257487 7.198319169647249 208 176 153 255
12.467737807782939 -28.525842813708067 8.629972841621026 210 178 155 255
11.964113183240087 -28.319774386862733 10.255198096217782 208 173 151 255
11.755323470795034 -27.825770838463811 10.913810864719238 208 172 150 255
11.487612667284012 -27.395522692007731 11.765911299385920 205 169 147 255
11.337845479920105 -26.849132112222406 12.231344514701760 205 167 148 255
11.158633757066241 -26.335965622624457 12.793558932419302 205 163 147 255
11.038404646880167 -25.764453722346516 13.162435221929343 198 155 138 255
10.918205844709178 -25.195095036927370 13.531372308393827 192 146 130 255
10.709619402633166 -24.721876044606191 14.190552310801962 178 133 115 255
10.618957555756651 -24.126017186239253 14.462897558687530 169 124 105 255
10.528325993079676 -23.531756596425595 14.735289646213857 158 113 92 255
10.555606288538954 -22.810530470704720 14.620735426338229 147 105 83 255
10.523972517961695 -22.153552731142668 14.699682811139809 137 96 74 255
10.669178902804461 -21.301003638916640 14.198075860648913 123 87 61 255
10.726001659718349 -20.544561218084397 13.986711877805078 113 77 51 255
10.812316669621438 -19.753772940661946 13.678548979137702 101 69 41 255
10.839723956519649 -19.028288341378030 13.563915610898107 96 65 37 255
10.955555717943227 -18.200929186105739 13.158903241717780 94 63 35 255
11.071412060553726 -17.371344593777749 12.753840325563715 94 62 37 255
11.098902516421063 -16.642421392807520 12.639138788562263 95 63 38 255
11.008571726685446 -16.051149499698269 12.911672131739778 95 63 38 255
11.124514493457909 -15.217547011430199 12.506527198162217 98 64 39 255
11.181562135350859 -14.451906944072462 12.294981408615257 95 60 37 255
11.297563211477993 -13.614331480724502 11.889749406788098 92 57 35 255
11.236833213465346 -12.988374521535405 12.065499164949131 89 54 32 255
11.441277241088258 -12.040123604496458 11.369670957666415 86 51 31 255
11.557372420738361 -11.196532887508482 10.964308410297917 83 48 28 255
11.997539474498296 -9.949612508951859 9.493440672663979 74 43 23 255
12.437725833977808 -8.694448001084154 8.022369910578988 67 41 19 255
13.938379660445648 -6.099079189751308 3.063654105288379 52 33 13 255
15.468467869065989 -3.438711331288744 -1.992643998439917 44 27 9 255
16.026499975803134 -1.988854634100903 -3.852378337390974 66 51 33 255
16.054362719771447 -1.209120285723785 -3.968275496988667 63 51 30 255
10.593789165637816 -1.965691602541114 13.797806967101252 11 15 0 255
8.383993064757163 -4.310330674251446 21.052377113791351 160 138 112 255
7.293397861273220 -5.145386518239377 24.623117785547265 174 131 112 255
6.939115464797439 -4.973724714139237 25.769944461515877 173 124 107 255
6.673238034488676 -4.684312892072441 26.625988718262931 166 121 102 255
6.525211529970193 -4.233094873143088 27.094197333509811 145 102 83 255
6.465584073227518 -3.658679165822392 27.271485266968881 134 93 73 255
6.582698277897137 -2.832162988725869 26.866775997975537 129 92 70 255
6.699862412913220 -2.003166597625565 26.462015348832495 116 85 61 255
6.640391229458416 -1.427839117610588 26.639314711115247 98 70 46 255
6.639869730747037 -0.767345338038169 26.622594394620592 91 65 40 255
17.224852765597390 -28.401867902952006 -9.377257952645380 187 187 142 255
17.338996876044504 -27.534626979835707 -9.783643981175317 205 181 154 255
17.453149105780710 -26.665282631462645 -10.190081107795720 204 171 151 255
16.573882315942839 -26.748986373355891 -7.308705023253196 198 161 143 255
15.110340114040341 -27.416171362343576 -2.492726816488585 197 162 145 255
13.208662502230069 -28.539853653603657 3.774693450000825 203 168 148 255
12.008300619638746 -29.004986591415104 7.721678474278974 211 179 156 255
11.538400950860009 -28.762973605120365 9.250995052072085 214 179 157 255
11.156191095096617 -28.441292267810994 10.490329428812686 212 176 154 255
11.007727158153912 -27.888955321164246 10.955899625100813 211 173 152 255
10.713232753690917 -27.489234850832020 11.905298397274606 208 170 149 255
10.535621024255732 -26.973917690310174 12.467810454773684 209 166 147 255
10.416461397602760 -26.400802984901460 12.836881541474412 206 161 143 255
10.355749040216566 -25.768267779016355 13.012469791639631 199 154 135 255
10.295062570484546 -25.136807767019704 13.188090764213456 189 144 125 255
10.088365348524817 -24.663062970277480 13.847672835477908 176 131 111 255
9.969323648988706 -24.098283625579469 14.216979406821849 164 119 99 255
9.908724521113925 -23.471905780035499 14.392747351214524 153 111 89 255
10.023382998629302 -22.653753633397031 13.987708547108724 141 101 77 255
10.021244151373963 -21.963044853019525 13.969873060354871 132 95 69 255
10.077538040157364 -21.206945223704253 13.758401439974193 122 86 60 255
10.075450813911544 -20.515619484873056 13.740561789402591 113 79 51 255
10.131794480211497 -19.757812211977722 13.529058178711836 102 70 42 255
10.158962526421632 -19.032359021796694 13.414373010262466 96 65 37 255
10.156958057940003 -18.340063037721464 13.396527158259261 96 63 35 255
10.330178973559569 -17.443542802657078 12.797554466791610 94 61 35 255
10.357428751624624 -16.715193098286619 12.682814442465315 94 61 36 255
10.326312784765037 -16.055356798412305 12.761803782894930 96 62 39 255
10.470412451192544 -15.186958555158441 12.259555085155739 96 62 37 255
10.585341298113391 -14.350874414574236 11.854124879771064 93 59 35 255
10.758689162973980 -13.441779062225066 11.254863939322746 91 56 34 255
10.669308781745414 -12.850150667174177 11.527597238323040 88 53 31 255
10.959492486781372 -11.793120074920367 10.540626254373223 83 50 30 255
11.103730802953336 -10.911496957496936 10.038075543916307 81 49 28 255
11.364770843271870 -9.881217898769393 9.147789171194972 74 43 24 255
11.800990444287976 -8.625578794470755 7.675834504489359 64 37 22 255
13.288128894790759 -6.029800064193708 2.714137444042251 50 29 15 255
14.862817674432989 -3.294492007706992 -2.539077462294074 45 28 12 255
15.299055898841686 -1.993782121812387 -4.012161173821937 63 46 29 255
15.297471247412560 -1.251902740854604 -4.031161333349758 65 50 27 255
15.208362167965518 -0.624073223470248 -3.759278540543789 62 47 24 255
9.885962221952738 -2.010991945632824 13.745769795942437 9 5 0 255
7.491753570821757 -4.639421659718565 21.683866064682775 155 128 103 255
6.556887814167737 -5.272682147689821 24.771673768095951 168 126 104 255
6.293330980269005 -4.978680736443238 25.628112749930779 165 118 98 255
6.059011987734507 -4.647969374174252 26.387637454754213 163 118 97 255
6.029031565077943 -4.030107661173815 26.467931706668367 143 101 79 255
5.999100635569292 -3.412505349886587 26.548243359863363 130 89 67 255
5.969219916026049 -2.795153247728962 26.628572340796438 126 90 66 255
5.997755559909663 -2.093203961727170 26.514778716603473 117 84 59 255
5.880429523463278 -1.603853526594449 26.886358806725383 104 74 48 255
5.967432983598911 -0.815613604605062 26.578411312154003 93 67 40 255
16.218899599822564 -28.651353483647455 -8.670348518230696 189 183 141 255
16.737403868229379 -27.400835160882764 -10.431341834726254 205 177 152 255
16.647858521098598 -26.724915069068487 -10.160764002431847 206 171 151 255
15.747654009722467 -26.837223629973579 -7.180852882619206 200 163 144 255
12.615723821196951 -28.429163335511049 3.231897193631539 206 171 151 255
11.049935706534512 -29.268883034241398 8.439411063963206 211 179 156 255
10.642231453975924 -28.970951842398406 9.776156774985253 214 179 157 255
10.379312153130982 -28.533398521376853 10.629126815845495 215 178 157 255
10.203269843874196 -28.011592206872848 11.191820717358581 212 174 153 255
10.085150420883707 -27.433080302712327 11.560984768913698 208 168 148 255
10.024949026058124 -26.796240002973207 11.736577103131964 206 164 142 255
9.906882266837769 -26.221522657194029 12.105848131413296 204 159 138 255
9.702012222542677 -25.741329430673815 12.765669730789199 197 152 131 255
9.612947630193560 -25.140677175946763 13.038245574806666 184 139 118 255
9.437084282788277 -24.635617497596073 13.601399848121645 172 127 106 255
9.405959999321709 -23.975794712105980 13.680387700164488 160 115 94 255
9.316980138642222 -23.380226484283980 13.953109989003650 150 109 87 255
9.430606031372321 -22.561296662089987 13.547824650378629 139 99 74 255
9.515311357506846 -21.772586055623350 13.239360146482511 130 93 67 255
9.571099333110610 -21.014897951639867 13.027737379954090 120 86 59 255
9.482224786184304 -20.420818209240693 13.300520241334652 113 79 51 255
9.509126952475640 -19.695448355538019 13.185778722363466 103 72 43 255
9.564990493581561 -18.936000891955644 12.974128334030013 99 68 39 255
9.620879062260244 -18.175415210778638 12.762454830971734 97 63 36 255
9.705727377863326 -17.379660164023406 12.453844652536986 95 61 36 255
9.761667483098293 -16.616508886863869 12.242117975790933 94 59 35 255
9.730837389608823 -15.955893141237183 12.321150560600785 95 59 37 255
9.873630290332400 -15.086726006048707 11.818595278738542 94 60 35 255
9.900723457357500 -14.355184950136930 11.703740593414267 91 57 32 255
10.043569017090434 -13.481508093658178 11.201083506739451 89 54 32 255
10.041792440282308 -12.783246721310974 11.183137772180146 84 51 29 255
10.329339659075714 -11.725728785208403 10.195574983494623 80 48 27 255
10.472266544716334 -10.843610647078705 9.692723548974783 77 46 25 255
10.759860795443743 -9.776389726476950 8.704927153078842 70 41 23 255
11.163186785855302 -8.556729429469442 7.329064770463248 63 37 22 255
12.810369232574871 -5.738569218959682 1.782447202061462 47 28 14 255
14.197188273840894 -3.224828210718755 -2.891984325433384 44 27 11 255
14.398055346459117 -2.223933341755000 -3.589922356842180 58 41 24 255
14.280784060171513 -1.634945150850442 -3.220835255521649 62 49 26 255
14.163559152738742 -1.047936452148832 -2.851688192171082 63 48 27 255
10.945081942969054 -1.021031178482374 7.808592438734337 45 31 12 255
9.758172968359517 -1.950220355200102 11.770201663590598 81 64 38 255
7.616977875131525 -4.229440093181140 18.935788550908370 130 109 85 255
6.603762071950953 -4.968472377726442 22.316287797256138 158 125 102 255
5.937652263883990 -5.236810496543612 24.532233179126138 164 122 100 255
5.647552927334416 -4.983625221332957 25.486282162072598 156 113 92 255
5.415344091191926 -4.652946165564302 26.246271533594438 159 118 96 255
5.356697375433569 -4.076732823738553 26.423729858595379 138 99 77 255
5.355935211982597 -3.417577475167775 26.406990289102339 127 90 67 255
5.268467698036332 -2.884563879164901 26.681617727485190 124 91 66 255
5.296720413405069 -2.183212584310880 26.567776944243008 114 87 60 255
5.151518635590975 -1.737139582784337 27.036735843261738 103 77 52 255
5.266622267858011 -0.906815069102407 26.631488863764133 95 70 45 255
16.193155039233886 -27.973319549835651 -11.253514385689869 197 185 145 255
15.989672863930309 -27.404858301615178 -10.595606878961348 206 174 150 255
15.269830541993940 -27.340993826025525 -8.194988181968938 203 168 148 255
14.693486762437388 -27.150218637787560 -6.278108351874096 200 163 144 255
13.514782147484198 -27.565832656845529 -2.327607598749864 197 164 145 255
10.844525825842979 -29.492332783523651 6.658762869808356 205 171 151 255
10.211058687915880 -29.417199320167896 8.770830033849847 211 179 156 255
9.893168376542818 -29.033107281730082 9.817897239703740 215 180 158 255
9.718728961358551 -28.507782856011147 10.380855039375888 213 176 155 255
9.573000068615912 -27.956008580217130 10.847040599224556 208 170 149 255
9.484660482540406 -27.346992949096332 11.119565547822702 204 164 143 255
9.310305057115158 -26.830350188360441 11.682760078573779 203 161 141 255
9.193338207891898 -26.255917025944612 12.052280033757427 200 157 138 255
9.019041868033909 -25.745217354426302 12.615636969759606 194 151 132 255
8.959486613694537 -25.113525983132917 12.791500789367007 180 137 118 255
8.899956198079252 -24.482905949038425 12.967397003845065 167 124 105 255
8.840451195394692 -23.853352025681247 13.143325608015630 158 115 96 255
8.780972180709526 -23.224858894873435 13.319286594584213 150 110 88 255
8.807542185646255 -22.501016211225803 13.204510454981005 138 101 75 255
8.920154487890116 -21.679391326691743 12.798934551541777 132 96 70 255
8.975439841000338 -20.920923046709561 12.587181683913627 120 85 58 255
8.916060255167736 -20.293111806081669 12.763181670541769 112 78 50 255
8.914051609098877 -19.599905550332025 12.745312014796696 105 74 45 255
8.883399274020661 -18.940130523928076 12.824404811236377 102 71 42 255
8.910114482831162 -18.213329942598762 12.709586224910595 98 64 37 255
8.994193354831722 -17.417878844384035 12.400814549087613 93 59 34 255
9.135632144217325 -16.552151831046558 11.898048095719361 91 57 32 255
9.219758372764389 -15.752774232354213 11.589188112433533 92 56 34 255
9.332576677244873 -14.916860212004920 11.183298244763165 88 56 31 255
9.359422524805183 -14.184003416517001 11.068356114266578 87 53 28 255
9.529623807479155 -13.273645560203590 10.468371751275271 85 50 28 255
9.556526775699936 -12.538155312239340 10.353375968587045 81 47 26 255
9.698116175670350 -11.658361820846523 9.850288972705954 76 44 23 255
9.782406245508085 -10.848112916489100 9.541191686108675 73 43 22 255
10.182013755564029 -9.635134123243247 8.164679889106367 67 40 21 255
10.839595135600604 -8.083947184641360 5.914607285245978 59 34 19 255
12.557649339882076 -5.151432887204891 0.073438526764619 44 25 11 255
13.673795280608090 -2.968864891302971 -3.730400610566164 42 25 9 255
13.614872364336932 -2.303936964555945 -3.555233401071860 53 36 19 255
13.269396740750452 -2.017959633527056 -2.409344863148817 61 46 25 255
13.067269416451367 -1.547916040745221 -1.748665184087145 65 50 29 255
13.180432695709925 -0.659668604684086 -2.155794950190511 62 47 28 255
7.241940172213290 -5.194542238841834 17.853427702513471 135 105 83 255
6.610401417866257 -5.392718676952072 19.972790133442714 150 120 99 255
6.064889317577553 -5.481864431652369 21.801066560220875 171 137 117 255
5.576745139724537 -5.500048594719445 23.435332730315935 175 133 114 255
5.145966241868805 -5.445639718724422 24.875547046137228 166 124 104 255
4.915819403325131 -5.111726366951544 25.635908371418878 144 101 81 255
4.828990046640982 -4.575255961469026 25.910589180770330 152 113 91 255
4.799513918297990 -3.956943751325426 25.990982960545296 133 96 74 255
4.913348136354884 -3.129538121272375 25.585530323046896 126 91 68 255
4.740700935782471 -2.721092170687228 26.151820565539481 128 93 69 255
4.711365420113836 -2.103534293031458 26.232264219694287 122 94 67 255
4.538818199038346 -1.699643883071914 26.798690971946428 113 87 62 255
4.681491456409177 -0.826147903123328 26.296000557248561 98 75 48 255
15.557178846112876 -27.868270987377713 -11.805629304631111 197 182 146 255
15.270330487793530 -27.381381704000631 -10.856741317373348 205 171 149 255
14.017146114321761 -27.845782321559184 -6.614130937488085 202 167 147 255
12.906165617796191 -28.193529823670318 -2.855286128330874 201 165 144 255
11.624746594290201 -28.732512083990599 1.485411194078779 201 168 148 255
10.030805817432295 -29.610717034632671 6.892540920297705 206 174 153 255
9.516903107016176 -29.421055838652080 8.618337747355127 210 179 156 255
9.201975460475140 -29.036964347470075 9.666056219800197 216 181 159 255
9.114421766365297 -28.423337586461130 9.938637993271584 208 171 150 255
8.913225311849871 -27.930178041299015 10.598941130693674 200 162 141 255
8.825720792711635 -27.320906841512510 10.871643218331656 201 161 140 255
8.652996086835984 -26.804004576806221 11.435189689500589 201 159 140 255
8.508714408792500 -26.259831018751569 11.901884468032421 199 156 137 255
8.336047883931755 -25.749142590474548 12.465599952554129 193 150 131 255
8.277059789272485 -25.117469139551531 12.641588895715131 183 140 121 255
8.274918143178738 -24.424218740932645 12.623688894101690 169 126 107 255
8.215976964456473 -23.794144662207501 12.799728360638227 161 118 99 255
8.213880076400812 -23.101404479944776 12.781851025243412 151 113 90 255
8.154988098261541 -22.472908445065769 12.957940981143395 143 106 80 255
8.209754276516747 -21.715850529208467 12.746109446930660 136 100 74 255
8.236133772225443 -20.990352739253467 12.631249818053305 123 89 62 255
8.290942406835939 -20.231333357972602 12.419378302778767 116 82 54 255
8.345772882260874 -19.471189461018653 12.207483316750711 108 76 46 255
8.343816129836654 -18.776878773508557 12.189597301399658 102 71 42 255
8.398693834460389 -18.015006823588237 11.977669251771601 98 64 37 255
8.396788645838697 -17.320034559187931 11.959777938261510 96 62 35 255
8.508521569966746 -16.487826558813154 11.553742656544557 93 59 34 255
8.620276872099723 -15.653382761522380 11.147656083090027 91 55 31 255
8.817259017761799 -14.712203118841884 10.450365386414944 88 56 31 255
8.872258238481280 -13.942658709819156 10.238271152755090 86 53 28 255
9.040884351036127 -13.030453208815942 9.637894083735489 84 49 27 255
9.010739030846807 -12.364389066561756 9.716940215533782 78 46 24 255
9.065822211081723 -11.591020045003404 9.504768282070472 76 45 24 255
9.092537194054657 -10.852632238944281 9.389658328060420 73 43 22 255
9.630434159043787 -9.457457229722451 7.526872652694237 65 39 20 255
10.622687006266730 -7.464340212031914 4.110235993958383 55 32 16 255
12.353228036694858 -4.490383898390760 -1.831648219176884 43 24 10 255
13.004706452736073 -2.899248044343835 -4.084066744448648 41 24 8 255
12.804350382206266 -2.421476360798664 -3.423192002820372 50 33 16 255
12.376886390253617 -2.249736628603756 -1.985198856302020 59 41 21 255
12.148233850477382 -1.819417192904055 -1.226932829847385 62 46 26 255
12.061595174428092 -1.201518139902760 -0.954257328181654 64 50 31 255
11.691073130944886 -0.971186842378700 0.289942922778039 53 32 13 255
5.952070316282985 -6.747692854765603 19.862141653786978 162 116 101 255
5.553449202069586 -6.628513619344403 21.205378078656452 159 113 97 255
5.353612531448647 -6.236918648300616 21.868533590426040 167 125 108 255
5.182212291316077 -5.808647617101528 22.434599511147240 175 137 118 255
4.840521650760095 -5.626456791513263 23.583929392838655 175 132 113 255
4.527271275379221 -5.409746831293219 24.636224754361393 170 128 108 255
4.327626028064756 -5.034536795814489 25.299834283581731 140 99 79 255
4.326746531479799 -4.373586549893574 25.283023795849488 146 108 87 255
4.240746506084633 -3.837153877401647 25.557887857419615 135 99 77 255
4.296730478387431 -3.092725424182987 25.346641539902322 127 92 70 255
4.210821318012023 -2.557620620591948 25.621558959783698 127 95 72 255
4.266894339185896 -1.811782755065138 25.410296782509079 122 92 66 255
4.095918316429177 -1.406023410026989 25.977021928014238 115 87 63 255
4.152084042800567 -0.659553121353881 25.765764229243302 100 76 50 255
14.834566389057656 -27.845118062579829 -12.067474434504504 194 179 143 255
14.465949384776522 -27.440600636276699 -10.827234685862948 201 170 146 255
12.492421813386329 -28.628739755398925 -4.061895937303916 198 166 145 255
11.588965369296872 -28.787387701561713 -0.979116222746313 198 164 142 255
10.882666942187299 -28.764847835360115 1.425518647445415 202 170 149 255
9.303644393713256 -29.643254694285446 6.835932774106993 202 167 145 255
8.822719466406042 -29.424955933924267 8.465840388353968 212 180 157 255
8.482602723980989 -29.070029945234580 9.611173455495759 217 182 160 255
8.395888122239299 -28.456685074640603 9.883946765303790 205 168 147 255
8.224742896015911 -27.934096852303625 10.447697485170437 196 158 137 255
8.138075038427289 -27.324838992374964 10.720583823089186 195 155 135 255
7.938833554297418 -26.838190419099433 11.381480396382216 196 154 135 255
7.767770421268054 -26.324811876363825 11.945480705405714 196 154 135 255
7.737473318760465 -25.660754978313022 12.024543937176730 194 151 133 255
7.763490449087058 -24.935129966752129 11.909601454641432 184 142 123 255
7.789525865118307 -24.208959674253038 11.794649282590171 173 130 112 255
7.618565288518298 -23.703386534406391 12.358868373637790 164 122 103 255
7.532067989964332 -23.105445968379030 12.632076735460174 151 115 91 255
7.417453710426983 -22.541233080834900 13.002370783519183 144 108 82 255
7.499866119411521 -21.752339451597706 12.693397649259254 138 102 76 255
7.526012974282054 -21.027136858013009 12.578494302909007 126 92 65 255
7.664745888884539 -20.169592367677112 12.075338763653519 119 85 57 255
7.719074303285566 -19.408937513245675 11.863320568455009 109 77 47 255
7.717145246411135 -18.714113252301402 11.845427729227993 104 73 42 255
7.687102621969288 -18.052981773550968 11.924620449236016 103 69 41 255
7.685225382173783 -17.358306490418556 11.906742745934423 102 68 41 255
7.767786670365567 -16.560692433029061 11.597583095282857 99 65 38 255
7.934780722062200 -15.657704616313040 10.997079011411927 95 60 35 255
8.214337924887460 -14.612078025132348 10.008058821844941 89 58 33 255
8.296962891770917 -13.806658084462299 9.698716918887357 86 54 29 255
8.464016701689999 -12.893413784072180 9.097968109602192 82 50 27 255
8.462288737483547 -12.190660315465678 9.079920123865605 79 47 25 255
8.544991080614679 -11.380067604678004 8.770465179519647 77 46 25 255
8.515190138519898 -10.712452455056805 8.849548018131827 71 43 22 255
9.048062432096970 -9.316263908525869 6.985632338093325 63 39 19 255
10.368622787901785 -6.881528406950494 2.401040533338232 54 33 16 255
11.970467686645918 -4.051351990592707 -3.155845235739093 41 23 8 255
12.362681222412959 -2.792391531152887 -4.535138415243011 41 24 8 255
12.192322087748479 -2.276304044819199 -3.971051459733019 45 28 11 255
11.768845007187153 -2.103494217473596 -2.532208814152511 50 33 15 255
11.429807409815538 -1.824402543929068 -1.384731955166671 57 40 22 255
10.865796802179517 -1.858348097581938 0.540508726602297 63 46 28 255
6.475227440370389 -6.468551229883104 15.668551178306103 188 146 132 255
5.292669362034360 -7.427157573699475 19.734274804608873 184 130 118 255
4.728960831544399 -7.540961949948155 21.661589644594585 167 116 102 255
4.643442512808903 -6.990562824364702 21.936208459933056 150 104 88 255
4.614215309930202 -6.361634333169121 22.016390051248777 162 120 103 255
4.500653954635013 -5.853730718897893 22.388331242110524 176 139 120 255
4.105893219104971 -5.752847310577124 23.732876236336523 170 134 112 255
3.767431429183105 -5.577752132627054 24.883094277706164 163 125 104 255
3.682130366113711 -5.039449771662277 25.158064978716453 142 104 83 255
3.737487915182754 -4.295896638812224 24.946702967578915 146 110 88 255
3.680394791055662 -3.717363974343286 25.124444492197227 135 100 78 255
3.707712532881516 -3.014036096458582 25.010348489226374 123 91 68 255
3.622584280907930 -2.478427067529040 25.285424891465993 125 93 70 255
3.706232226384643 -1.689685359145116 24.976727172264532 119 91 64 255
3.649315235798028 -1.112413393962754 25.154539110183777 110 84 59 255
14.585572043130483 -27.358322566738948 -13.977978262867737 183 180 136 255
13.634706054099084 -27.527410399228160 -10.700520836714304 201 169 144 255
12.600239608039956 -27.798346974082946 -7.131624643328053 198 163 141 255
11.147495206155980 -28.510579817456801 -2.107303499615398 197 164 142 255
10.308426801635378 -28.627095950257853 0.783733938521380 206 173 152 255
8.883762055815382 -29.360960405921887 5.712352996477875 199 164 142 255
8.212172262936079 -29.342216490992556 8.022294550624679 210 178 155 255
7.847395725841139 -29.015643168902713 9.265338127667690 218 183 161 255
7.705746027076600 -28.460638337512819 9.732339155320233 205 168 146 255
7.564120820268016 -27.908354048436848 10.199413964798509 194 156 135 255
7.394636104203670 -27.388758714177328 10.763604943058851 191 151 131 255
7.308829314262582 -26.781685104747055 11.036735475748912 192 151 133 255
7.139396673394984 -26.267776326667843 11.601080868663672 192 151 133 255
7.137283825922580 -25.572415408532592 11.583134136330500 190 149 131 255
7.079427270119766 -24.939157604168102 11.759331981579948 184 143 125 255
7.077353825508411 -24.244330243144432 11.741407325107900 175 134 116 255
6.963781849580641 -23.675856009184727 12.111823356450344 165 124 106 255
6.878115236706591 -23.077662245849822 12.385207953843889 156 120 96 255
6.792474117330940 -22.481064877665460 12.658638290686639 148 112 86 255
6.846245077910496 -21.724058986614921 12.446589295747060 141 107 80 255
6.872158413891469 -20.998611321663546 12.331628455870543 134 100 73 255
6.925968411581735 -20.239646582836343 12.119538794062066 127 93 65 255
7.007673429485791 -19.446349719499139 11.810299458045279 118 86 56 255
7.089397668586003 -18.651384102440971 11.501022392571684 114 83 52 255
7.171141790411639 -17.854743404852982 11.191707583994315 112 78 50 255
7.085669840994100 -17.260530173512620 11.465235048098691 109 75 48 255
7.167459984163230 -16.462138523357410 11.155886334684595 105 71 44 255
7.332886057083996 -15.558378768962925 10.555018170272433 101 65 41 255
7.609813226182624 -14.511987684347233 9.565400626457119 93 63 37 255
7.691664163666545 -13.705792078580274 9.255869075157563 89 57 32 255
7.801408441740946 -12.862512778080742 8.849118302347563 85 53 30 255
7.883307442090498 -12.052607363169287 8.539504046752796 80 49 27 255
8.048835965763814 -11.133248481531481 7.938266220523388 75 47 25 255
8.270121630851335 -10.138175449959647 7.142544570254273 71 43 21 255
8.742228981151143 -8.810626245000847 5.471834029535501 62 40 18 255
10.328993711378871 -6.005047834700434 -0.087748235253855 50 30 13 255
11.358411112771080 -3.908281972752704 -3.703658054496771 39 22 6 255
11.579734123997440 -2.871850928579860 -4.500411290068598 39 23 7 255
11.494574029810693 -2.243744387230649 -4.227667396269965 40 25 7 255
11.158677957037057 -1.957277383731807 -3.079685392983947 39 24 5 255
10.739241053096706 -1.791327901097645 -1.639782157912578 45 28 10 255
5.246258673215863 -7.250955239427370 17.466438019435543 185 142 126 255
4.437048858375519 -7.705959620544505 20.270130608692909 188 134 122 255
4.045814642166405 -7.585122960032820 21.614949151262806 176 124 111 255
3.988953626317723 -6.995333731064093 21.792458693102617 152 105 89 255
3.987850932320754 -6.326477684928875 21.775400379931028 151 110 92 255
3.847488371011735 -5.858570681423600 22.244874099803241 174 138 118 255
3.512154752646595 -5.676685895986040 23.395609076039932 171 139 116 255
3.260445197885161 -5.378730039520477 24.254552906227218 167 129 110 255
3.120214553887791 -4.921205370913754 24.724316649684852 151 113 94 255
3.119316476358179 -4.259526195913580 24.707483751256405 147 112 92 255
3.034885870797567 -3.722353363703860 24.982674194027624 141 109 88 255
3.034069538641319 -3.060935517130503 24.965865835002660 126 95 74 255
2.921867004030744 -2.567772638689988 25.338476323207601 124 94 70 255
2.976848236843836 -1.822034397440305 25.126976653756259 117 90 63 255
3.059727139205592 -1.032217254494000 24.818082845699735 104 80 54 255
14.105961274044617 -27.089831405889100 -15.114340512452429 176 174 129 255
13.053664273360567 -27.366361510850695 -11.446804800534323 200 168 142 255
11.808066280415062 -27.858151404341044 -7.099419779064988 197 161 139 255
10.838807403901228 -28.093430466265261 -3.721922940649847 199 165 143 255
10.118237849549132 -28.092454600087805 -1.217464600201652 209 174 154 255
8.624279440647641 -28.907001931885475 4.005206006041874 204 169 147 255
7.710494479892844 -29.143958819671965 7.190102497635138 206 172 150 255
7.238722484814687 -28.932143850947782 8.822185120011682 214 179 157 255
7.126061542963981 -28.346905468767233 9.192379942125314 206 169 148 255
6.902943613144274 -27.882656920377414 9.951009563825551 195 154 134 255
6.735092645768205 -27.362799166328330 10.515553075061348 190 148 129 255
6.594885995125153 -26.815950822467983 10.983076378282306 191 146 127 255
6.509938947698814 -26.210787220974950 11.256443919635018 191 146 127 255
6.507863611426600 -25.514905176553441 11.238492331213024 187 144 125 255
6.422959043532956 -24.912173775369439 11.511930359123085 182 139 120 255
6.338077635740390 -24.311055233725867 11.785414027491441 174 133 113 255
6.253219857296315 -23.711544326912161 12.058943308112049 164 124 104 255
6.195999535728589 -23.081776760471342 12.235368759501796 157 121 101 255
6.138802246900767 -22.453066854260626 12.411825864913880 148 113 91 255
6.192075810261585 -21.695816020163406 12.199661373953262 141 109 86 255
6.217756302546803 -20.970122392195464 12.084643166554258 135 105 81 255
6.271067222456921 -20.210913915732618 11.872437669609468 128 98 72 255
6.296787733752893 -19.483790161233273 11.757392303929009 121 91 65 255
6.377747249890319 -18.689123112823822 11.447954643500452 116 86 60 255
6.431117567759657 -17.926528400592133 11.235677068999507 113 83 57 255
6.374079083700664 -17.298858323994210 11.412195225549311 109 79 53 255
6.510315112409131 -16.432194674533292 10.908261553332352 106 76 50 255
6.674175296562950 -15.528201632564958 10.307043310175345 101 71 45 255
6.865658314873016 -14.586062591230359 9.608519675064258 96 66 42 255
6.891529851444929 -13.850631284018021 9.493298644971389 91 60 36 255
7.055447253546475 -12.937735502300299 8.891869152896533 92 55 36 255
7.329798005758690 -11.878954483586710 7.901373762044472 83 51 30 255
7.521355769895564 -10.922380166826699 7.202503635783273 81 49 29 255
7.850944344942121 -9.781028493622316 6.017237882782382 71 44 22 255
8.566969237205242 -8.122827297277539 3.470066645526913 59 39 15 255
10.111021204515197 -5.348965828042267 -1.995688929645439 46 31 8 255
10.771826878041892 -3.728256328432437 -4.349219059375173 33 18 0 255
10.963441007261011 -2.727779437913043 -5.049180563803873 37 26 8 255
10.851489219701207 -2.136148234930459 -4.678990579337153 35 24 6 255
10.408392049259149 -2.000072470159182 -3.141118876908024 37 21 5 255
9.937748677986292 -1.910537308181148 -1.505713885641057 34 18 3 255
8.860011537919306 -2.673447995235563 2.270876223909795 40 24 8 255
4.497038359314288 -7.372340804955300 17.612051445019205 190 151 138 255
3.667929150412263 -7.867288477236542 20.514792378713992 186 137 124 255
3.308008243102222 -7.708123867281259 21.763112194835998 181 129 116 255
3.196490370326231 -7.198563933823493 22.135460941882343 155 108 92 255
3.305768822168787 -6.371249381892341 21.729009145910339 139 101 82 255
3.166731267002433 -5.903641844073348 22.198781657525785 160 127 107 255
2.889765116593225 -5.641033201321406 23.155480660950275 171 139 119 255
2.585250540671339 -5.424379979699751 24.209697751947942 171 136 116 255
2.418747156851012 -5.008204112074708 24.777144187664248 160 125 105 255
2.390249488787831 -4.388427483076711 24.857716235115646 158 123 103 255
2.416975556030664 -3.685741104297989 24.743506298397705 152 120 99 255
2.388555951651128 -3.065955708430224 24.824095285393440 130 99 78 255
2.304993283840915 -2.530692444833903 25.099524527258467 124 94 70 255
2.276655378284048 -1.911948398340598 25.180157654175531 115 88 61 255
2.386314155058471 -1.080046996446384 24.773674141781242 96 75 47 255
13.046409127804338 -27.394162513915290 -14.212997511735409 174 173 128 255
12.141073675636775 -27.535899204035189 -11.028637610363489 200 169 145 255
11.290526634274670 -27.639872753255361 -8.038020341157448 195 158 136 255
10.029657020882823 -28.181860865295562 -3.590311875953773 201 166 144 255
9.261327827464669 -28.238371911157358 -0.890069957595415 209 173 153 255
8.301556273214175 -28.510382987100570 2.490435874568277 205 170 148 255
7.205073217943749 -28.945768316969705 6.357089242010460 205 170 148 255
6.710498881642721 -28.761215005739828 8.087263250209219 215 179 157 255
