ply
format ascii 1.0
element vertex 638
property float x
property float y
property float z
property uchar red
property uchar green
property uchar blue
property uchar alpha
end_header
-27.477573888942601 -7.691148646020693 -21.553580577840506 97 48 33 255
-27.685527570766979 -7.322540024113252 -22.231045736950534 93 44 28 255
-27.832927822236428 -6.875876696061979 -22.717310276551359 90 45 24 255
-27.859137026277992 -6.267287700328879 -22.821269900204101 90 47 28 255
-27.885397988332215 -5.659079562128511 -22.925202597663713 98 53 36 255
-28.032980729062714 -5.217892459675795 -23.411330422167566 106 61 45 255
-28.392862723829523 -5.072770124974312 -24.566267712273032 112 70 54 255
-28.813475943571120 -5.018379205166369 -25.912198221010073 108 69 52 255
-29.203863663852744 -4.928916227860242 -27.162465606935200 107 69 54 255
-29.564021142080776 -4.803562914273471 -28.317080255324072 110 76 60 255
-30.136546303816814 -4.985643331426388 -30.140358947703646 107 78 60 255
-30.405914999732431 -4.744934973471018 -31.008136768935231 102 68 51 255
-30.463066495896754 -4.203971153951656 -31.207110897544226 87 50 34 255
-30.247310033694220 -3.269376760738993 -30.546296793871278 74 41 22 255
-30.122582770299672 -2.463057790929042 -30.172081733176071 54 25 6 255
-30.240563030374233 -2.009330635539101 -30.562040915207575 39 11 0 255
-30.479949327977266 -1.736120171166945 -31.334021249478980 36 9 0 255
-31.174450483102859 -2.140804978263347 -33.538641573645748 46 18 4 255
-32.688171798503561 -3.777934732279633 -38.321884247938243 165 133 114 255
-34.141410511349591 -5.351092034564033 -42.913752387192403 184 148 129 255
-34.593627850705545 -5.440804131146351 -44.353629320296790 194 152 132 255
-34.560488668515234 -4.802260318141762 -44.265364877183060 192 146 128 255
-34.709459614968139 -4.440578471271948 -44.750070160642906 184 140 123 255
-35.040563883050524 -4.360660011112614 -45.807685288787326 173 130 114 255
-35.523479063687915 -4.520583199199024 -47.342659579821742 159 121 102 255
-35.551307473633386 -3.982417067509218 -47.445185469693911 148 113 93 255
-35.639894595793052 -3.539227926717800 -47.738649410638175 137 105 84 255
-35.425071669742636 -2.620873485266756 -47.077254937918070 129 98 77 255
-35.453090829585420 -2.081723586900409 -47.179705724034619 117 93 69 255
-35.390127164042028 -1.398188427072867 -46.995699621525915 107 86 59 255
-35.357577103055036 -0.761669665184726 -46.907152046369475 89 76 48 255
-22.229286313341717 -21.490026023785646 -6.563557425033622 199 190 156 255
-22.833812649261375 -21.451379512564401 -8.484293032695859 214 185 161 255
-23.011394552936622 -20.961412052531344 -9.067032432440868 217 180 161 255
-23.250037091413006 -20.541259890553974 -9.840829590886642 210 178 153 255
-23.519245630487774 -20.158988355843917 -10.710109669686005 204 170 145 255
-23.666476574388923 -19.646302015246732 -11.197117024184394 198 161 137 255
-23.661193126296126 -18.965865777396814 -11.206350199311828 191 149 127 255
-23.808507532553264 -18.457226446184166 -11.693279436364747 182 137 116 255
-23.955869956075034 -17.951278369992309 -12.180160062709263 173 127 105 255
-24.164317922924681 -17.517817063063120 -12.858060340204332 167 121 98 255
-24.159180120043544 -16.841925353908081 -12.867182644544215 162 116 93 255
-24.276161995020885 -16.307770686258195 -13.258399885068513 161 115 92 255
-24.362666002889810 -15.740036607352593 -13.554051435741201 164 118 95 255
-24.510266487911309 -15.245848943373076 -14.040707052268033 167 121 98 255
-24.657919074932309 -14.754321808653785 -14.527312547439436 172 122 100 255
-24.988807765477631 -14.484573542391601 -15.586942498055265 174 123 102 255
-25.106045857361948 -13.963181386945010 -15.977916505315306 169 118 97 255
-25.345471996661743 -13.592136930238851 -16.750867933451445 166 115 94 255
-25.584964476651166 -13.225352426437851 -17.523746725629678 156 105 84 255
-25.977215704812394 -13.050828820396163 -18.774043004199910 146 97 75 255
-26.186311698471300 -12.656027880466851 -19.451263594535959 137 91 68 255
-26.151134059259917 -11.959796490540768 -19.364491089281614 136 88 68 255
-26.329799351734792 -11.531822657360095 -19.946120851624357 137 89 71 255
-26.386342229062009 -10.952270790488996 -20.145756366099874 138 91 73 255
-26.534575719883861 -10.490559942677905 -20.631801492960875 137 90 71 255
-26.682868180504414 -10.031448064910052 -21.117794058620007 136 90 67 255
-26.831220232211081 -9.574929183465315 -21.603733846451405 135 88 66 255
-26.796312799161498 -8.882412314556944 -21.516803323341236 135 88 68 255
-26.914220096102554 -8.389403145489737 -21.907192079647643 132 85 66 255
-27.062742239789316 -7.938732478442674 -22.392996919918176 137 89 71 255
-27.333560909741038 -7.652934030457715 -23.260584008345916 143 95 77 255
-27.482214939854870 -7.208476270634009 -23.746267249135400 148 102 83 255
-27.722618375758245 -6.889926959490339 -24.518252347767429 149 104 86 255
-27.932532159192618 -6.534163786571867 -25.194713746360407 150 104 87 255
-28.234213270667610 -6.307005625079910 -26.157441756512895 147 101 85 255
-28.566542956087901 -6.127024754066667 -27.215521905042181 146 103 86 255
-29.082369772916863 -6.206036428826849 -28.846133990470179 147 102 83 255
-29.292598316250889 -5.869354192089560 -29.522262190492398 146 101 85 255
-29.564043245592714 -5.621763641221577 -30.389183870259387 141 99 83 255
-29.804994079036703 -5.335840983006975 -31.160595133794004 139 102 83 255
-30.046021473919495 -5.054052993299564 -31.931930470690560 141 103 85 255
-30.256549287838780 -4.732835609776458 -32.607768927738221 126 84 67 255
-30.283683363413616 -4.152219106883365 -32.711033458807492 107 70 51 255
-30.157977057886185 -3.351407889729202 -32.337199241289994 92 57 37 255
-30.124056889307496 -2.681303216569830 -32.249602007997254 70 41 19 255
-30.059607486440399 -1.965761563594569 -32.066581837704376 55 27 5 255
-30.576300784597919 -2.102303837426206 -33.696226105525966 33 7 0 255
-31.582460926443360 -2.970864998935838 -36.852141099233847 88 60 44 255
-33.536949657073421 -5.266437306246530 -42.965123424689352 185 151 131 255
-33.839924797054294 -5.126955915991942 -43.926388289736423 190 150 130 255
-34.112394555736813 -4.946639869337986 -44.792173064753200 191 147 129 255
-34.599078264382911 -5.094900704331877 -46.325585008383740 187 141 125 255
-35.055269249136956 -5.205044889109502 -47.763483746329428 177 131 116 255
-35.266813564794134 -4.948476023563430 -48.438215553716105 162 121 104 255
-35.111306213454526 -4.130245219844483 -47.968350545307032 149 112 94 255
-35.139419168145878 -3.593194244510130 -48.070738297456217 140 105 86 255
-35.045210933103704 -2.865785206525359 -47.791612396120144 132 99 80 255
-35.134643368345579 -2.423909036641319 -48.084686177426335 121 95 73 255
-35.132350514361391 -1.838753793838364 -48.091622922021713 111 87 61 255
-35.191321361174801 -1.350175383306848 -48.289256394575858 97 81 53 255
-22.052872925312641 -21.982091907057026 -8.279646992722320 207 185 156 255
-22.262676577847031 -21.521884609106777 -8.957213163465354 218 184 163 255
-22.441779903169220 -21.032469659014282 -9.539268642180389 217 181 161 255
-22.743947907095873 -20.679423081564522 -10.503051985703507 210 177 154 255
-22.984668999961514 -20.264691507537947 -11.275867617448171 202 167 145 255
-23.040897734304735 -19.651377630722521 -11.475984444464530 195 157 136 255
-23.127920173186538 -19.073233650845509 -11.771510067152832 189 147 128 255
-23.245743301120015 -18.531064771138190 -12.162433232823076 179 136 117 255
-23.394374040410952 -18.025676125268177 -12.648742717224081 174 128 108 255
-23.573819247894122 -17.557872797069635 -13.230427325798985 171 124 104 255
-23.661011001105294 -16.987787085218798 -13.525796009519411 167 121 100 255
-23.779014466109544 -16.454736556244072 -13.916546606863875 170 123 103 255
-23.804745502007506 -15.816693096067922 -14.021017136289885 172 125 105 255
-23.953609891890750 -15.323069169362114 -14.507103533974799 173 126 105 255
-24.040971969841166 -14.759609862542476 -14.802329300791371 176 128 107 255
-24.528501259876847 -14.672466384410981 -16.337743586285427 173 125 104 255
-24.862222914760906 -14.409973002409046 -17.396037111063379 166 118 96 255
-25.226803649635428 -14.190425298569139 -18.549631689661169 152 104 82 255
-25.406757558995423 -13.753326620527488 -19.130779142524887 143 95 73 255
-25.586769356046318 -13.319402997416546 -19.711868693871281 141 94 72 255
-25.674474327009790 -12.775041136203271 -20.006748551901694 139 93 70 255
-25.854597927897245 -12.346640332725485 -20.587732432794866 140 93 73 255
-25.973196752991882 -11.844578246445920 -20.977904368820106 148 101 83 255
-26.122642400873190 -11.383267637963826 -21.463405001516719 153 106 88 255
-26.272145150568548 -10.924563169793359 -21.948853833392150 159 112 92 255
-26.514098915281323 -10.586121563529019 -22.720348768501680 157 111 88 255
-26.756121905295913 -10.251896950622552 -23.491770215742577 157 111 88 255
-26.690200656412969 -9.524265643560739 -23.309528474578173 161 115 92 255
-26.716723346179862 -8.915526311950401 -23.413349847937837 163 116 96 255
-26.897316730292630 -8.508713049401081 -23.993906076501133 163 116 96 255
-27.170394470007977 -8.226731630569319 -24.860447362157942 165 118 98 255
-27.535972677192987 -8.072012455335496 -26.012941956040294 166 119 99 255
-27.901636714623862 -7.923641659503090 -27.165334115627928 167 120 100 255
-28.329010419301937 -7.864386221862034 -28.508299582785213 164 117 98 255
-28.571595983448290 -7.562611655568062 -29.279142213388099 163 116 97 255
-28.783439455468383 -7.223075058643374 -29.954579236566502 158 111 92 255
-28.872085952722699 -6.718360663617474 -30.248638571521440 158 111 92 255
-29.114882173309795 -6.427439473380872 -31.019277578917212 159 112 94 255
-29.203652746586812 -5.926959769732704 -31.313238791541295 166 121 101 255
-29.477411677981536 -5.685984886993381 -32.179061889332871 161 117 97 255
-29.751248853579838 -5.449688743248316 -33.044802811018684 161 118 99 255
-30.117638472900992 -5.348732308861074 -34.196392223926836 150 107 88 255
-30.175854502781974 -4.815801904685600 -34.394810524911634 136 93 74 255
-30.110818314433331 -4.107334933056165 -34.211980469672341 118 77 57 255
-30.169145807539451 -3.575026877485243 -34.410342783603284 92 56 34 255
-29.980889051444052 -2.686421500864014 -33.846296773645605 76 43 22 255
-30.100989599678798 -2.243443684030396 -34.235201961307553 54 23 3 255
-30.868656763088552 -2.751299404664522 -36.625145636287783 46 13 3 255
-32.160638186029971 -4.045297157816805 -40.634769887105762 191 154 133 255
-32.928576805172739 -4.584465502879283 -43.024276039132275 189 148 128 255
-33.696637862852498 -5.136977734297091 -45.413592727678775 191 147 129 255
-34.372304509244088 -5.564005544788174 -47.516890852754443 188 142 126 255
-34.801365065982367 -5.630349523710450 -48.857834728337309 179 133 117 255
-34.798742618093002 -5.048528027255756 -48.864884728833715 163 122 105 255
-34.549440122709967 -4.089640597338416 -48.109779036636752 149 112 93 255
-34.608612605336134 -3.599750179546319 -48.307335869566771 138 103 84 255
-34.606160727140178 -3.015344843508544 -48.314335936538157 132 100 79 255
-34.757998611534489 -2.670180755909968 -48.797596022235268 123 95 74 255
-34.940756242231046 -2.375598146138103 -49.376052934367522 117 91 66 255
-35.061893647466249 -1.987023455090807 -49.763945952184258 103 85 55 255
-34.751218154839549 -0.917966941000813 -48.818329646371012 92 80 48 255
-21.579333986875596 -22.837496222906154 -9.029600978573853 197 182 149 255
-21.542911405185876 -22.117003573294156 -8.943628760475519 215 181 159 255
-21.785488977009635 -21.690621370621315 -9.715734426817448 214 179 160 255
-22.028121677825197 -21.268580395135075 -10.487771634535505 212 180 160 255
-22.239807663368822 -20.817599915853307 -11.164405293762655 209 174 152 255
-22.389536700340443 -20.303319169704750 -11.650314971372438 201 165 143 255
-22.539310084037027 -19.791745736915189 -12.136177512499870 195 157 136 255
-22.720137148591476 -19.316960992366489 -12.717316575089143 186 146 125 255
-22.870003237179134 -18.811057915868716 -13.203080469935003 181 138 119 255
-22.926877176171359 -18.203969468795350 -13.402846704362275 177 133 113 255
-23.045815463409880 -17.667741207523164 -13.793212623589170 177 132 111 255
-23.133780376481042 -17.098489808447482 -14.088228155732139 175 130 109 255
-23.407898906015788 -16.743452995713199 -14.955043805691929 173 128 107 255
-23.464935942195936 -16.143306115459438 -15.154667160170618 175 130 109 255
-23.584056298382663 -15.616158998504531 -15.544860114966013 175 130 109 255
-23.486048408535439 -14.837410361919638 -15.267947231675521 167 121 100 255
-23.946543704126583 -14.714291339958024 -16.706284571411004 153 107 87 255
-24.407129754519175 -14.599225652865115 -18.144500048358054 148 101 81 255
-24.991929999914845 -14.640434636394914 -19.963729667142758 145 98 78 255
-25.080313090186309 -14.094621753885249 -20.258321847119220 143 96 76 255
-25.261845355846049 -13.663154529250875 -20.838708658791461 141 95 74 255
-25.288252091624088 -13.045522691450785 -20.942671612102544 141 99 77 255
-25.531967021001719 -12.695314484790586 -21.713500250541927 147 104 83 255
-25.713667283247261 -12.272531567974625 -22.293724383071265 153 109 90 255
-25.802299943914193 -11.736868883833850 -22.588102697152436 158 115 94 255
-25.922025135190680 -11.241680377502220 -22.977702960156421 163 120 98 255
-26.165986702748697 -10.905426760600207 -23.748280587144308 169 123 100 255
-26.410016254883104 -10.573391176548867 -24.518785268942963 171 125 102 255
-26.560965708816482 -10.126289686870223 -25.003471800404157 175 129 106 255
-26.743024595668032 -9.721801935468733 -25.583351119156987 172 125 105 255
-27.018304893940552 -9.441334735321021 -26.448895073629842 174 127 107 255
-27.138384438943206 -8.962748178441444 -26.838169541247964 177 130 110 255
-27.475916016532352 -8.772079233359577 -27.894038419359504 178 131 111 255
-27.720353753753287 -8.463880758151475 -28.664120175272359 179 132 112 255
-28.182282011289885 -8.449545171213543 -30.100719089742540 176 129 109 255
-28.457935380953359 -8.193248480069798 -30.965852404173717 174 127 107 255
-28.640473845419393 -7.815885139034236 -31.545243739763976 169 122 102 255
-28.667753192915370 -7.230617469931119 -31.648490512011961 167 120 100 255
-28.912547883531232 -6.942982731638352 -32.418205269671830 176 131 110 255
-29.033142959870034 -6.488542734993047 -32.807005822542919 176 131 110 255
-29.215938000047757 -6.122096323910341 -33.386172419125074 173 128 107 255
-29.336657964201891 -5.672139331947037 -33.774871977893895 173 129 108 255
-29.550657980563500 -5.354800878303649 -34.449123122778758 164 122 100 255
-29.702580833134093 -4.953395925535560 -34.932913779642405 146 104 82 255
-29.823493759475397 -4.510384416303395 -35.321457103362690 132 90 68 255
-30.068779040414739 -4.246783546579422 -36.090710205432856 107 68 46 255
-29.879038482141311 -3.362333403094254 -35.527283760064023 91 55 33 255
-30.000134979746974 -2.923485979010849 -35.915703148734650 70 35 13 255
-30.463193135093846 -2.983577352713880 -37.351046019450109 54 17 0 255
-31.579087260598556 -4.006143682149300 -40.784960332841365 197 158 137 255
-32.384291756340204 -4.590759235734879 -43.266885739165588 189 148 128 255
-33.376133484399915 -5.465268141322625 -46.319630716278198 190 147 128 255
-33.995072029929815 -5.801656369339611 -48.230149873507941 190 143 125 255
-34.520852839237179 -6.009025020085019 -49.855026532663459 180 135 116 255
-34.487124172704881 -5.382631959288986 -49.766902101497692 166 125 105 255
-34.391268504424275 -4.661205573329468 -49.488450250163112 149 111 90 255
-34.233279646037175 -3.843097329860797 -49.019690400331598 139 104 82 255
-34.199709086457560 -3.212487852156258 -48.931538093524807 135 103 80 255
-34.259477703700298 -2.724734983504248 -49.128807530358046 128 98 74 255
-34.474786678612674 -2.478662521436220 -49.801754745509271 122 94 69 255
-34.690171856325293 -2.236071569859050 -50.474632795721874 110 88 59 255
-34.376980211814811 -1.168488603307509 -49.530123440019054 98 83 51 255
-21.040286208468245 -22.939127586203441 -9.597393574661226 209 179 155 255
-20.941163348858822 -22.154539984090448 -9.321036825847784 212 177 158 255
-21.154513006748132 -21.695699794971759 -9.997008167124619 210 178 158 255
-21.461658677305451 -21.339673914741610 -10.958602296317736 208 180 159 255
-21.800118350555422 -21.022339467722261 -12.015337648649023 206 171 149 255
-21.919876340860696 -20.476148970611973 -12.405438790851576 198 162 140 255
-21.914654179096630 -19.796870276557542 -12.414632941158999 191 153 132 255
-22.003226364791800 -19.219847304411843 -12.709456267748493 183 143 123 255
-22.154353176137590 -18.713151058028757 -13.194666077461477 180 139 119 255
-22.368047579999384 -18.278396569138209 -13.870240264988666 184 142 121 255
-22.550533157217487 -17.812516788660304 -14.450549861082948 183 140 119 255
-22.795599728963481 -17.420188811345156 -15.221201586065604 178 135 113 255
-23.103259970620371 -17.103027632938364 -16.182173464950495 174 130 108 255
-23.192104232341180 -16.541312019474546 -16.476720765327741 168 124 102 255
-23.374802357531394 -16.089107015684107 -17.056797377541500 162 118 97 255
-23.182276282197762 -15.205176121487028 -16.494607626214275 158 116 94 255
-23.740358330825956 -15.194301865356351 -18.216782307242681 160 118 96 255
-24.235987593392451 -15.119533632687677 -19.748460080206371 157 115 93 255
-24.762989428837344 -15.090409266983769 -21.375182690620392 154 112 90 255
-24.695751770856475 -14.361245024047832 -21.193543373860280 149 106 84 255
-24.753670288838549 -13.781314040710001 -21.392569381204169 145 103 81 255
-24.749060365589571 -13.126663510698137 -21.401241631376308 146 104 82 255
-25.088637285431645 -12.891421526627482 -22.456649101484601 149 107 86 255
-25.115405558726422 -12.277989439258604 -22.560408411754764 152 109 90 255
-25.392535867608530 -11.974413578883329 -23.425361096894818 160 118 96 255
-25.513274811220825 -11.480879060351114 -23.814492653605868 169 127 103 255
-25.790535489938350 -11.185487467293711 -24.679304489915921 176 131 106 255
-26.005274919939225 -10.815882349192549 -25.353754247605053 180 134 110 255
-26.313970813888901 -10.569221122832019 -26.313551795020459 182 136 113 255
-26.560142632407391 -10.247794556590634 -27.082994101596654 181 135 112 255
-26.837683604810593 -9.970868566772594 -27.947494325820372 186 139 117 255
-26.958781875734985 -9.495836599467907 -28.336278659295402 188 141 120 255
-27.299067583443403 -9.308706812703349 -29.390883817078389 189 143 120 255
-27.482900990641369 -8.921835724739111 -29.969793892950889 188 142 119 255
-27.854645457859192 -8.786347469145682 -31.119344839848281 187 141 118 255
-28.038614921242839 -8.407288892247152 -31.698115289119784 181 136 113 255
-28.253959373650758 -8.073238063379833 -32.371935928161236 182 136 113 255
-28.344119111366254 -7.574032563944812 -32.665264893032685 185 140 117 255
-28.528277576034341 -7.203668022924248 -33.243863199742265 186 141 118 255
-28.587236164216705 -6.665425081521988 -33.442004122386578 185 140 117 255
-28.802836689043843 -6.343108998001611 -34.115591980743375 185 140 117 255
-28.955867644656195 -5.937831345718109 -34.598927725408373 177 132 109 255
-29.171603811248630 -5.622158212697641 -35.272387963275577 168 123 100 255
-29.293442712914810 -5.178603397418797 -35.660523925858570 159 117 93 255
-29.509314741838494 -4.869276355635151 -36.333859445401743 150 108 84 255
-29.725257572543299 -4.563520275404244 -37.007127303961624 133 91 69 255
-29.909944750748949 -4.216691973417468 -37.585251987371663 121 79 57 255
-30.282670122034531 -4.142331952617369 -38.733747737359266 106 64 42 255
-30.843459351594021 -4.345330938293159 -40.452553677887096 79 38 18 255
-31.529675190613290 -4.739677445875941 -42.551478697727646 175 134 114 255
-32.090674367946761 -4.962832819601687 -44.269987300772357 187 144 125 255
-32.871111037787401 -5.517504737811024 -46.653764406622656 191 146 127 255
-33.526326897361287 -5.900439432118390 -48.657132464958977 191 144 126 255
-34.056305547931359 -6.108365535794704 -50.280131852629040 182 135 117 255
-34.210330722865947 -5.763480127851921 -50.762413902711643 171 128 109 255
-34.176390411678938 -5.138488340132426 -50.674369671427939 155 114 94 255
-34.048483375732843 -4.370553465358910 -50.301184367238648 141 105 83 255
-33.951964609246815 -3.647748124292619 -50.023042100694454 139 104 82 255
-33.824154110887278 -2.875063602411103 -49.649861761625630 133 103 79 255
-33.884453656884986 -2.388945542848589 -49.846877956301341 124 97 70 255
-33.944816970239941 -1.903572488641032 -50.043858189707436 113 90 59 255
-33.879862388982502 -1.224014922205669 -49.860699547415919 101 84 51 255
-20.319127569614523 -23.535645090915310 -9.584416322610508 206 175 152 255
-20.439707020411120 -22.976397322254073 -9.974283187317525 208 174 155 255
-20.434350882275169 -22.289492616751744 -9.983614151880573 205 173 154 255
-20.586488368341548 -21.766275571919735 -10.468540329219564 205 172 155 255
-20.833157673951675 -21.344787518473964 -11.238772199660559 203 172 153 255
-21.174378160421895 -21.027453762132495 -12.294276617035024 202 165 146 255
-21.421162407937544 -20.615447109040815 -13.064361406518401 195 158 139 255
-21.447479622648416 -19.971084943343939 -13.168634450348861 186 148 129 255
-21.473823743680143 -19.327267124409943 -13.272889995819526 181 140 122 255
-21.563210035181498 -18.752692815268659 -13.567325597740705 181 140 122 255
-21.778670054101241 -18.318220877406020 -14.242109717500540 187 145 126 255
-22.025694786081345 -17.922410319519614 -15.011923583182408 183 140 121 255
-22.461857568610881 -17.741875690648854 -16.352196208244493 175 132 113 255
-22.961133589907561 -17.639744262014233 -17.882524621840446 172 129 110 255
-23.176844281760111 -17.224910242810608 -18.556998486950874 176 133 114 255
-23.518687638523886 -16.957713458252186 -19.611718433535515 179 136 117 255
-23.450825664756181 -16.225275974572511 -19.430390556653492 174 133 113 255
-23.729740636848902 -15.893348993611312 -20.294834096252117 172 131 111 255
-23.851094270145779 -15.382325951082649 -20.683868354591027 169 128 108 255
-24.319292329403297 -15.280984865178013 -22.118551242417595 164 123 102 255
-24.346172106306994 -14.665177302670273 -22.222284848146927 155 114 93 255
-24.562273183395092 -14.275400826548463 -22.896331388015057 153 111 90 255
-24.620768773808294 -13.700024307291685 -23.095054069291734 150 107 85 255
-24.805443954960040 -13.278184278360243 -23.673942283076542 151 108 89 255
-24.800955554190182 -12.629087583037645 -23.682504216185549 152 108 89 255
-24.954194016012949 -12.173269733380010 -24.166258278045291 161 119 97 255
-25.044405454515498 -11.642173967182146 -24.459886522787770 172 129 106 255
-25.260832355009242 -11.269455896574158 -25.133615374081984 183 137 113 255
-25.508865203343760 -10.939901134084593 -25.902310083220470 188 142 118 255
-25.883147083522005 -10.773579604869951 -27.051041354184662 190 144 120 255
-26.225962092151519 -10.573605402308331 -28.104648630374101 192 146 123 255
-26.442657277471795 -10.218274577190911 -28.778082123322548 195 149 126 255
-26.501660905236832 -9.663768458025842 -28.976367344902741 195 150 127 255
-26.750027861353544 -9.355228953158900 -29.744700677917393 194 152 130 255
-26.872244900522645 -8.886444585973507 -30.132923053059017 193 151 129 255
-27.215409886095301 -8.709324404979697 -31.186143292432007 190 148 126 255
-27.369306653375389 -8.288107509478948 -31.669254114860735 187 145 123 255
-27.586381542653854 -7.953274879213836 -32.342311128524443 183 141 119 255
-27.708839226704569 -7.495489459956957 -32.730315038533490 182 140 118 255
-27.957604803979962 -7.209542482315740 -33.498242289421654 190 145 123 255
-28.174876274394876 -6.885013274111429 -34.171107514114368 189 144 122 255
-28.329083295922132 -6.478077522215926 -34.653935660776511 186 141 119 255
-28.420216892974693 -5.987101195609270 -34.946747247213352 183 138 116 255
-28.795527676650934 -5.889472373901953 -36.094325462438832 182 136 115 255
-28.823646269111464 -5.316133103384502 -36.197077485073436 181 138 114 255
-29.135964259990146 -5.139929391496025 -37.154547945440100 176 131 108 255
-29.290492918618554 -4.747115794571783 -37.637089948188645 168 122 99 255
-30.139735005952446 -5.338734221127723 -40.208803968406073 160 113 93 255
-30.452305525458812 -5.181384620994905 -41.165971269080842 147 100 80 255
-30.922843623506338 -5.255114045004220 -42.597841308116699 120 77 58 255
-31.046102926627356 -4.836793676052977 -42.985088917437167 145 101 82 255
-31.579971892685307 -5.014778915698130 -44.606656408040323 193 148 129 255
-32.303429938796270 -5.477720915948012 -46.797777263997347 192 145 127 255
-33.153333894608750 -6.137987834938158 -49.368502320522822 191 144 126 255
-33.624346131263508 -6.254207271720418 -50.799731493512695 184 137 119 255
-33.905934565906634 -6.097438795558560 -51.661212635585173 171 128 109 255
-33.871728441842663 -5.474422373580310 -51.573266952821513 156 115 95 255
-33.742809092189816 -4.708473982856731 -51.200512917414954 144 108 86 255
-33.582345564298890 -3.892389545132161 -50.732835960745689 141 106 84 255
-33.358744915469629 -2.977431843259254 -50.075320764849494 134 102 79 255
-33.261551937655412 -2.251023860858069 -49.797515513879290 128 100 72 255
-33.196002838232801 -1.571077928836885 -49.614625867096748 119 93 63 255
-33.288477647124751 -1.133312385493582 -49.906301636552598 108 86 55 255
-33.349423348553188 -0.647820844538145 -50.103023405748758 92 76 43 255
-19.469464079874570 -24.007228177697172 -9.192021176039816 205 173 154 255
-19.749713994955300 -23.604585221830220 -10.056584283994795 206 171 152 255
-19.966541035295563 -23.142458824141471 -10.731038425238182 207 171 155 255
-20.151674297318806 -22.651684580717699 -11.310419153363910 204 171 154 255
-20.273364885490849 -22.098717980699973 -11.699727122720219 203 167 151 255
-20.395091489858288 -21.547934774380110 -12.088996965340016 202 166 150 255
-20.739086224622923 -21.232220714789008 -13.143248093523425 198 160 142 255
-20.987898846313357 -20.821840520323164 -13.912412078687964 194 155 138 255
-21.014505448011818 -20.179119908638157 -14.016539505281060 187 149 130 255
-20.945877673605125 -19.434704664626878 -13.835674131267808 185 146 127 255
-20.781997909663900 -18.586160359971728 -13.369848415715921 183 144 126 255
-20.967454756536540 -18.115730432074116 -13.948879240991943 185 143 124 255
-21.470556034336255 -17.997428950644704 -15.477665575983366 186 144 124 255
-22.069031309826670 -17.993231542732445 -17.291257031827314 183 143 123 255
-22.667608016889574 -17.999273892224181 -19.104699765292850 187 147 126 255
-23.012161673196061 -17.729953149110074 -20.158232773701513 193 152 132 255
-23.547390739236192 -17.682361424224894 -21.781473874463018 189 148 128 255
-23.574401588665069 -17.064078725267990 -21.885174058039922 180 142 121 255
-23.760301491404149 -16.628845108187519 -22.463651596857289 177 139 118 255
-23.787386178413669 -16.012907111746117 -22.567295160337636 171 133 112 255
-23.973380595035991 -15.582707882015214 -23.145679674380773 168 130 109 255
-23.936987175692536 -14.894452631545079 -23.059368614372858 159 121 100 255
-24.059516305400720 -14.393545469247186 -23.447776523066153 155 114 93 255
-24.150310857640051 -13.856870711926589 -23.741201172131866 153 109 90 255
-24.368280382370656 -13.474264679717180 -24.414342176190473 152 107 88 255
-24.332030480786855 -12.788155445077621 -24.327945436915172 153 108 87 255
-24.518316692551380 -12.372116111048527 -24.906056730827174 164 119 98 255
-24.641082154308762 -11.881344936585393 -25.294256819667993 176 132 108 255
-24.827477578740570 -11.471060625457099 -25.872261251422088 185 139 115 255
-25.077514375137383 -11.142879426003972 -26.640048602939089 190 144 120 255
-25.327616008633569 -10.818913282097853 -27.407764442684737 193 147 123 255
-25.736761140624068 -10.699271014688051 -28.649973742107449 197 151 128 255
-25.828015333897412 -10.183603963149721 -28.942981121497127 200 154 131 255
-25.951117159865888 -9.709993715766885 -29.330857785834610 198 153 130 255
-26.106072410684675 -9.279245723767090 -29.813593011544526 194 153 131 255
-26.324689368411995 -8.933271050165672 -30.486075101412041 193 151 130 255
-26.511565847527052 -8.549559793221988 -31.063596464277452 189 148 126 255
-26.698503185262496 -8.168940489463992 -31.641059440966984 180 138 116 255
-26.790078990527107 -7.665653537119383 -31.933798295475924 176 134 112 255
-27.008943733437533 -7.332575592494891 -32.606039554825799 181 139 117 255
-27.227873973950338 -7.003112984111993 -33.278215069580284 190 147 125 255
-27.605932469014647 -6.890914683575744 -34.424715459453807 193 148 127 255
-28.047701161724319 -6.871036309086207 -35.760864816174745 195 150 129 255
-28.362295793985197 -6.685459798872685 -36.717414955587884 198 151 131 255
-28.963320913450943 -6.897008232383840 -38.527688893408794 198 151 131 255
-28.800801201250422 -6.067064873593253 -38.061068780077534 194 149 126 255
-28.892874109219662 -5.586888917419699 -38.353352403343166 188 143 120 255
-28.985002935543676 -5.108113643012771 -38.645596937619445 181 135 115 255
-29.840943378829394 -5.701887767407413 -41.214302660036623 175 128 108 255
-30.346939747430014 -5.816161762821665 -42.739447440657727 170 123 103 255
-30.502944310452364 -5.441959499460651 -43.221143286913559 155 109 91 255
-30.531702426906634 -4.888430432329486 -43.323409941551859 119 74 55 255
-31.197088109445204 -5.249576572180999 -45.322463940774043 201 154 136 255
-32.053561619003986 -5.897841532217797 -47.890381225454320 195 148 130 255
-32.846494741131053 -6.468011926966767 -50.268430049305380 196 147 130 255
-33.225718543289048 -6.446542576023177 -51.413493835511758 188 140 123 255
-33.414020215495484 -6.150467365631769 -51.989493984244490 176 131 112 255
-33.443212366516747 -5.621952833120332 -52.091314286987568 158 116 97 255
-33.472459346492684 -5.093677236913948 -52.193107728805956 149 111 90 255
-33.374411115303062 -4.375114351854947 -51.915604504202946 142 106 84 255
-33.021698795252249 -3.271363842898040 -50.879587417884409 138 103 81 255
-32.796376013802984 -2.353965401549388 -50.222864716705487 132 102 76 255
-32.730299101304524 -1.674638376294979 -50.040204143488864 127 97 69 255
-33.078223863614340 -1.627268166245017 -51.089990754476190 115 89 59 255
-33.362543367661431 -1.487563033507087 -51.950081762233651 102 80 50 255
-33.232963342377104 -0.711880368854224 -51.577720682922546 82 65 36 255
-17.566346459738995 -24.147983475452847 -5.659362250170631 196 174 145 255
-18.552297717433106 -24.419906726985474 -8.611330307242127 207 175 154 255
-18.930713328974434 -24.107305628062292 -9.759697046508450 207 171 155 255
-19.149268735192052 -23.641636229581493 -10.433416394577506 205 169 153 255
-19.399857607394196 -23.211972233081397 -11.201983337094020 206 170 154 255
-19.682486742070296 -22.819119217679116 -12.065386701400456 203 167 151 255
-19.869196607688835 -22.332970473590180 -12.644017737476105 202 166 150 255
-20.055950026389326 -21.850085716352950 -13.222596364340717 200 164 148 255
-20.242747563398908 -21.370460408789043 -13.801122375843391 197 158 141 255
-20.493585264749214 -20.961165833940456 -14.569372492104662 194 155 138 255
-20.680476801579587 -20.488585487637096 -15.147785386145586 190 151 134 255
-20.643401399512214 -19.780705687747755 -15.061976748158827 187 149 130 255
-20.574340147354022 -19.037939470234463 -14.881287975703771 185 147 128 255
-20.665322866682686 -18.467178641250158 -15.174973254289625 194 155 135 255
-21.460514029311256 -18.665558658585326 -17.555773188007834 200 162 141 255
-21.999750304416452 -18.596161843089703 -19.177448041509166 201 165 143 255
-22.314995847712112 -18.287931959208592 -20.134947687248967 201 166 144 255
-22.662319901613756 -18.020775691066845 -21.187223616979395 200 165 143 255
-23.201807665546426 -17.975336151723454 -22.808544194131542 193 156 134 255
-23.325157686711350 -17.467953767352043 -23.196651550939464 184 148 124 255
-23.448550159803730 -16.962692406782864 -23.584718541998541 180 140 119 255
-23.443899217633458 -16.312436055369190 -23.593364666562906 174 132 112 255
-23.439276514563559 -15.662129589307966 -23.601998707060005 171 130 110 255
-23.434682764857854 -15.011767302381216 -23.610620402705848 160 122 103 255
-23.590255350596649 -14.549283057583111 -24.093401159636727 153 115 96 255
-23.809935586572252 -14.165148781467977 -24.765794877797731 151 110 90 255
-23.901548708402771 -13.632210467780851 -25.058816795736021 151 108 89 255
-23.929138768696475 -13.024017156724938 -25.162156755539968 150 108 86 255
-23.956764884172287 -12.416278891193954 -25.265476040512681 161 119 97 255
-24.112574200232757 -11.964745288150965 -25.748040565899885 176 131 110 255
-24.364550758181991 -11.633444571548509 -26.514994591632245 185 139 116 255
-24.552510130878062 -11.227405949762016 -27.092258812735992 192 146 121 255
-24.708484001775744 -10.784751506161342 -27.574660224044322 196 150 124 255
-24.960642673345845 -10.464746015398276 -28.341418886587547 199 154 129 255
-25.148774740950998 -10.068363006976000 -28.918508516292206 199 156 132 255
-25.369011977901124 -9.715658204196671 -29.590336218096013 195 155 133 255
-25.493163985488209 -9.244108761575831 -29.977723821984284 190 152 129 255
-25.681469366318495 -8.856787063591170 -30.554644591529240 181 145 123 255
-25.837781598269757 -8.431190312625560 -31.036722731470661 174 139 117 255
-25.994150181276680 -8.008144405622957 -31.518749964229841 160 125 103 255
-26.086464136668198 -7.503812366479934 -31.811170272537368 172 135 116 255
-26.371173110700582 -7.254052241180858 -32.672200013750768 186 145 124 255
-26.623893911332956 -6.966534585552154 -33.438379676145672 192 150 129 255
-27.036985582501345 -6.896811058105499 -34.678324829428732 201 156 136 255
-27.546347837119598 -6.962944602107228 -36.202455485967846 203 159 139 255
-28.023739797033315 -6.994288645679333 -37.631698092969373 204 159 140 255
-28.437091367864355 -6.946483137777406 -38.871305831669616 201 156 137 255
-28.337457789760535 -6.204502795192354 -38.594746137197916 199 154 131 255
-28.430269913933742 -5.725185246569211 -38.886691499365611 194 149 128 255
-28.394857307073678 -5.069841456698938 -38.799610484467308 193 148 127 255
-29.385768992931318 -5.841838651030841 -41.744312399913156 187 142 121 255
-29.863653777469494 -5.912037289433414 -43.172942554581567 175 129 111 255
-30.117109449258976 -5.673937329434210 -43.938295079901849 163 116 98 255
-30.081955264975335 -5.030931509067258 -43.850974139393514 110 63 45 255
-30.880846719820227 -5.575758886776299 -46.226622553401370 159 112 94 255
-31.583620235355340 -5.995962782300694 -48.317903863131221 198 150 132 255
-32.318581358186862 -6.474138960231244 -50.503742011967915 196 147 130 255
-32.540357406739815 -6.220019158586695 -51.173887175414194 188 140 123 255
-32.858447905192421 -6.109848826296897 -52.128116489999456 180 133 115 255
-32.823695688737359 -5.486956316463832 -52.040413033923414 165 120 101 255
-32.821076591080327 -4.910564460280867 -52.047406660579071 152 111 91 255
-32.625993499364654 -4.048098721912552 -51.486140013805624 145 107 86 255
-32.527209962341232 -3.325726861086679 -51.209003129717416 142 107 85 255
-32.396384507350120 -2.553205288943104 -50.837165383235032 138 106 81 255
-32.554409152768272 -2.214170629110015 -51.317605104830676 133 101 76 255
-32.872952877256949 -2.121121807477422 -52.271459289648362 122 94 66 255
-33.095299258295626 -1.886203870393501 -52.941156083406128 112 87 60 255
-32.868418982735250 -0.964986541184672 -52.285166401349983 91 71 44 255
-17.055939288614454 -24.977376751151041 -6.316523238223397 199 170 147 255
-17.566145608891901 -24.775322457094560 -7.842988272066776 206 173 153 255
-17.947515024325270 -24.456456395714468 -8.990101360249298 212 176 160 255
-18.296717915355046 -24.112471470597839 -10.042316143276054 208 172 156 255
-18.517047260321704 -23.646805003599383 -10.715244538657544 205 169 153 255
-18.898601044424368 -23.345886692566012 -11.862094017797148 204 168 152 255
-19.247983479774348 -23.019025856439868 -12.914055667912095 205 169 153 255
-19.468468979279834 -22.567229967959449 -13.586774243753581 205 169 153 255
-19.592275359481235 -22.020250770171998 -13.975078354667033 201 165 149 255
-19.812849009002349 -21.575249562280518 -14.647688950936697 198 161 144 255
-20.097962770771872 -21.201115492285453 -15.509795324958844 195 158 140 255
-20.254140671848091 -20.696628726526626 -15.992730738482720 195 158 140 255
-20.281358924476038 -20.058545214756478 -16.096538586700035 196 159 140 255
-20.276350370831551 -19.386657975430765 -16.105562789160700 199 162 143 255
-20.690667723944912 -19.164771280285194 -17.346499453511171 209 173 152 255
-21.524389452934187 -19.403408120949067 -19.819207232553481 211 175 153 255
-21.906623880336639 -19.163892288226464 -20.965132616239060 209 174 152 255
-22.192149103176405 -18.824561398103086 -21.826703764137477 205 173 150 255
-22.380947763444254 -18.382980902740258 -22.403953022643663 202 167 145 255
-22.763378876532101 -18.160405045954121 -23.549619491742959 194 159 137 255
-22.920020375149178 -17.690627935631142 -24.031997379029974 185 149 125 255
-23.012171453203194 -17.150501761646694 -24.324852096739392 179 141 120 255
-23.039821096917336 -16.538401133048040 -24.428204984088097 171 133 112 255
-23.035230160684705 -15.889745877128121 -24.436808171502804 167 129 108 255
-23.030667236875345 -15.241035753157973 -24.445399423960822 159 121 102 255
-23.058408542121072 -14.629850656641878 -24.548702189626482 151 114 95 255
-23.150737797829692 -14.094850871358929 -24.841425650577094 150 112 93 255
-23.210829064233380 -13.523273501479281 -25.039398488578570 147 109 90 255
-23.238677379310388 -12.914302167134082 -25.142631167546767 147 106 86 255
-23.363409648176372 -12.421785703093960 -25.529971982139585 154 113 93 255
-23.617327721698359 -12.087086880264991 -26.296094715885516 166 124 104 255
-23.806734381188548 -11.678201745401537 -26.872742425146413 184 138 115 255
-23.931619228900516 -11.193502746493351 -27.259936196320751 193 146 121 255
-23.927391716740516 -10.551866410941017 -27.268306404786102 197 151 125 255
-24.278410054425819 -10.350313005395137 -28.318272130869389 199 154 128 255
-24.532621300486269 -10.033721493881302 -29.084081131839412 198 156 132 255
-24.786896283954945 -9.721329285639001 -29.849819270559294 191 153 130 255
-24.847452545350507 -9.168152242629688 -30.047398805880334 183 147 123 255
-25.101845812144447 -8.862517758491549 -30.813015903418346 170 136 114 255
-25.291702882731201 -8.478322972835286 -31.389213235898893 162 130 107 255
-25.417014052393668 -8.013937415765696 -31.776011610220991 165 133 110 255
-25.542377527852764 -7.551555371871757 -32.162766413116657 177 143 123 255
-25.926237812140130 -7.428640185929865 -33.306788355465841 185 149 125 255
-26.019413327381699 -6.929958619071826 -33.598767419082861 194 153 130 255
-26.241874261793271 -6.603622391618160 -34.269337149239902 202 160 136 255
-26.852122686937321 -6.796854888202972 -36.075683939831407 202 160 138 255
-27.559408501932452 -7.130000886245540 -38.165833347269711 202 161 141 255
-27.911357374933118 -6.995944547741715 -39.214701960701689 202 159 139 255
-28.004863170573429 -6.517159490004047 -39.506332662416781 200 157 136 255
-28.066104991068272 -5.995702268899279 -39.703285928137632 199 156 134 255
-27.998125055318596 -5.297687767654892 -39.521662714967675 198 155 133 255
-28.738169714436495 -5.714002808617025 -41.705859595177031 192 150 128 255
-29.316722301819141 -5.918090493359671 -43.416734613756660 183 141 119 255
-29.669116078120638 -5.815530648733343 -44.465086512956589 170 125 104 255
-29.795321068271363 -5.400607083867413 -44.850986433799932 159 112 93 255
-30.632736192467590 -5.993310072522490 -47.318468761278154 118 71 53 255
-31.437943280010884 -6.553916452311128 -49.691141819722390 137 90 72 255
-31.984642633635900 -6.757797129827495 -51.306727053596177 200 152 132 255
-32.046497652693489 -6.272689901957193 -51.503039512690776 191 143 123 255
-32.270058163622522 -6.022406025710197 -52.172350289411327 179 134 114 255
-32.267363379867419 -5.446104378302906 -52.179376749460062 170 125 105 255
-32.394049848369548 -5.058897661967080 -52.564781851612167 159 118 96 255
-32.197454374408409 -4.197327752785924 -52.004180456493117 153 113 91 255
-32.162572233392083 -3.571637673359291 -51.916563204644348 148 111 88 255
-32.127739442449837 -2.945066558198249 -51.828932854791361 143 107 86 255
-32.319320969316749 -2.656710793936284 -52.403392632934413 136 103 79 255
-32.737341396865020 -2.712310046520258 -53.639873564924926 127 97 72 255
-32.929064699291089 -2.431729131341157 -54.214191547112705 115 88 63 255
-32.732762764127699 -1.562879102751197 -53.653532859501070 97 77 49 255
-16.449983840927302 -25.712969161272298 -6.688751594107998 202 172 151 255
-16.574472365571893 -25.136784851477245 -7.077046756942906 207 171 153 255
-17.088702512313247 -24.936062957710107 -8.601704272237441 208 175 157 255
-17.570535084589608 -24.712659743164650 -10.031541860192107 209 176 161 255
-17.857563683152094 -24.307540523328001 -10.893107673330178 211 175 159 255
-18.112162425740280 -23.875410337027006 -11.659911713981529 209 173 157 255
-18.464262586184915 -23.544190659513291 -12.710705704275398 207 171 155 255
-18.816424267864505 -23.218945010461411 -13.761411882371817 208 172 156 255
-18.973717878080151 -22.703325268019043 -14.243962375752574 206 170 154 255
-19.131049410046344 -22.190430844415161 -14.726468415280607 202 166 150 255
-19.353404235700012 -21.746784901656881 -15.398271163305282 200 163 147 255
-19.835761657158301 -21.575205157866463 -16.827350937574892 198 161 145 255
-20.123220261992856 -21.208913546214518 -17.688332579151421 202 165 147 255
-20.183245737970509 -20.608972823617847 -17.886621433005644 205 168 150 255
-20.470802956687436 -20.250519707379908 -18.747479879258236 209 172 154 255
-20.758417195625213 -19.896923447719473 -19.608263811942606 212 176 155 255
-21.371133230155081 -19.897013692614706 -21.415462587820144 214 179 157 255
-21.756401749441864 -19.661276226793774 -22.559997010454794 211 177 155 255
-21.946690004069694 -19.219460788523520 -23.136584497534045 202 169 146 255
-22.104514763460259 -18.745169807097852 -23.618480443664538 200 168 145 255
-22.327407496688522 -18.345478157518841 -24.289599093579511 182 147 125 255
-22.452809284927014 -17.840834400441594 -24.676763974929912 173 137 113 255
-22.513219387615877 -17.265306733528519 -24.874634585180019 172 136 113 255
-22.443590769890520 -16.543723277698675 -24.693984671780925 169 133 111 255
-22.536580737219069 -16.006227799047920 -24.986438775045826 163 127 105 255
-22.597087360041158 -15.432985239146518 -25.184243254385649 155 118 99 255
-22.657629288283758 -14.860763218913831 -25.382021677445920 152 115 96 255
-22.653155953200027 -14.213848921521276 -25.390554834814964 149 112 93 255
-22.616184269030413 -13.528739379015889 -25.304469802984585 146 109 90 255
-22.644297244020038 -12.919799554656180 -25.407584162983511 146 108 89 255
-22.737506583073326 -12.388644385657514 -25.699876373111863 149 111 90 255
-22.993422640121267 -12.053692075994917 -26.465110853981400 159 121 100 255
-23.184329883594359 -11.644558668071113 -27.041092026749425 176 131 108 255
-23.342754464554105 -11.199091622218347 -27.522429200145552 185 139 114 255
-23.338538275550761 -10.557492820632774 -27.530793980727196 192 146 120 255
-23.562136172850344 -10.195888618705112 -28.201213259218491 196 152 126 255
-23.785792852270987 -9.837948784845906 -28.871569291669488 192 150 126 255
-24.074595802059775 -9.564780993006792 -29.731010298127842 178 141 117 255
-24.265829379474241 -9.173866377810356 -30.306661826076549 170 136 111 255
-24.587307339073774 -8.950449363925728 -31.260525458702830 161 129 106 255
-24.908855718979609 -8.732297731186691 -32.214304474074538 163 133 109 255
-25.100273428983598 -8.352848382073901 -32.789758019980070 170 139 116 255
-25.161540825548400 -7.808845861496835 -32.986927759157226 172 141 120 255
-25.320514013828273 -7.392301483881354 -33.467727996110995 184 149 125 255
-25.414431973153640 -6.893386042060058 -33.759378399708083 194 155 131 255
-25.508399228013246 -6.395913167625665 -34.050992243787704 201 159 135 255
-26.025676004784316 -6.458803622295136 -35.571626934547510 201 160 138 255
-26.608164001866157 -6.616706236708637 -37.281214138885417 202 161 141 255
-27.158187707218303 -6.740634243995146 -38.896125309192797 202 159 140 255
-27.382674441845495 -6.435494235266461 -39.565577581201069 201 158 139 255
-27.509530770434267 -6.001697120639093 -39.951377862722808 201 158 139 255
-27.669007947720871 -5.614198603284379 -40.431659811458786 200 157 138 255
-28.251921775996507 -5.809286850809102 -42.140681301994334 194 151 132 255
-29.128053343012709 -6.417976066255136 -44.700233915646550 187 144 124 255
-29.483179410725796 -6.318428339281141 -45.747337158525369 183 138 119 255
-29.642949921563911 -5.951977207527790 -46.227275585881074 182 136 117 255
-30.291378612729446 -6.273657541844770 -48.124795014546919 178 131 114 255
-30.972482608229711 -6.651944851699014 -50.116667639013883 141 94 76 255
-31.490809389046476 -6.810118599378427 -51.635871101731937 181 132 115 255
-31.585719671720383 -6.371860225307543 -51.926465979375905 189 142 122 255
-31.876156290640836 -6.215758348367316 -52.783995358652959 181 136 115 255
-31.906023902786742 -5.687677182794090 -52.885510122048316 173 128 107 255
-32.001104221732234 -5.254532078116156 -53.175977505429813 167 125 103 255
-31.802998563253254 -4.394129173304194 -52.616037641188342 160 119 97 255
-31.963347622491213 -4.056954749004959 -53.095422204207722 156 115 93 255
-31.993419260489929 -3.529513848606641 -53.196839529759387 149 111 92 255
-32.251645999390021 -3.341363813290201 -53.959559972167142 139 104 82 255
-32.379593784527074 -2.962385413978851 -54.344319539678338 129 97 74 255
-32.409837605949974 -2.438273990943287 -54.445626443331292 116 87 63 255
-32.472725567753088 -1.963604840574419 -54.641372854723443 98 78 48 255
-32.046814390961870 -0.746601526348883 -53.420148966077448 87 72 42 255
-15.942568587294843 -26.538967565764807 -7.344612928398959 207 174 154 255
-16.002637240261294 -25.901605525822333 -7.543260767640902 210 173 157 255
-16.193616004084035 -25.388710408191002 -8.120258824556572 210 175 157 255
-16.744601497198829 -25.221232120513378 -9.737686565610034 209 178 159 255
-17.164764528764252 -24.937499345657841 -10.976642002701311 210 177 162 255
-17.355895047343552 -24.439341296985830 -11.553423443694328 213 177 161 255
-17.547064787195524 -23.944466753923336 -12.130154209558015 213 177 161 255
-17.934670315484084 -23.645962855554231 -13.274281072335839 214 178 162 255
-18.191401742996590 -23.224165982417219 -14.040029796411972 212 176 160 255
-18.415445319843201 -22.773997487126294 -14.711145529581870 210 174 158 255
-18.606795447274209 -22.294642990813941 -15.287638999425809 205 169 153 255
-18.929150505873167 -21.951596774581247 -16.242320724058544 201 164 148 255
-19.284306744125232 -21.647498478393018 -17.291478011088486 201 164 148 255
-19.705015395313737 -21.416954785302650 -18.529652570927453 206 169 152 255
-19.863820821419381 -20.920865311330360 -19.011331608283456 213 176 158 255
-20.088163519396858 -20.496161551900244 -19.682056591250472 213 176 158 255
-20.345305117800024 -20.109846909137048 -20.447263800932177 213 178 156 255
-20.733510212786939 -19.867370230507291 -21.590557047281266 215 180 158 255
-21.121783978930452 -19.631360924178452 -22.733754307114793 214 178 156 255
-21.346343456658104 -19.224708335664431 -23.404200185006744 181 145 123 255
-21.669228588840667 -18.928887354929842 -24.358168243303936 148 112 90 255
-21.861133489040952 -18.494595113714453 -24.933958896842029 138 102 80 255
-22.020322785865787 -18.027280183532554 -25.415175943895463 148 112 88 255
-21.950204957869786 -17.307121323598508 -25.234729749223391 162 127 105 255
