ply
format ascii 1.0
element vertex 644
property float x
property float y
property float z
property uchar red
property uchar green
property uchar blue
property uchar alpha
end_header
-25.099520686578956 -11.422774725137231 -7.364686755089338 158 119 93 255
-26.068442640619025 -11.694057120004629 -6.371473268477615 144 105 73 255
-27.254128270871831 -12.356576487403061 -5.117295293842403 156 115 81 255
-27.952783589924309 -12.177055426454871 -4.445121399771665 181 136 105 255
-28.387166439598730 -11.535699665516347 -4.089332927352700 186 140 114 255
-28.733983068835329 -10.739434287320876 -3.838599606278081 188 144 119 255
-29.516093437940697 -10.722392370936092 -3.064566031811324 193 148 125 255
-30.252580117091270 -10.631283618940557 -2.344489798926702 198 151 132 255
-31.073615690165809 -10.700639589231429 -1.521703283469208 205 158 140 255
-31.546992051182912 -10.145559725592733 -1.117112279892893 203 156 138 255
-32.148915545052972 -9.828004305046363 -0.557117141492711 200 151 136 255
-32.406325244247796 -8.880225005700083 -0.412875775906116 197 144 128 255
-32.707196694986294 -8.010494524074829 -0.216358766510126 184 133 116 255
-32.752512333484731 -6.662889939032937 -0.329461097916891 165 114 95 255
-33.182615049072950 -6.029427935247838 0.022988400946133 145 94 73 255
-33.188195063223077 -4.596924877328092 -0.139503512784671 122 76 53 255
-32.984391592072654 -2.759606903284350 -0.557233313453935 105 65 47 255
-10.062810743993992 -25.166718718559196 -21.970613034197044 201 176 143 255
-10.992523866467707 -25.189992575837238 -21.041102124681089 210 171 150 255
-12.344288635346885 -25.855500166771492 -19.614018796936108 213 174 157 255
-13.314472429317249 -25.961947511504036 -18.634202513880837 214 175 160 255
-14.469488750840554 -26.358883660175707 -17.435373267943504 215 176 161 255
-15.292680126971106 -26.262853654802655 -16.626304167449405 213 178 159 255
-15.786599440608853 -25.669159297066471 -16.205012979007023 208 175 158 255
-16.932259351915377 -26.083303719347811 -15.013438683488516 206 173 156 255
-17.423345368384844 -25.494816708962162 -14.594341054770496 207 174 157 255
-18.191968612518622 -25.341535188349553 -13.846502900669890 213 177 163 255
-19.605776598722855 -26.208158805366395 -12.333473249430796 220 182 169 255
-20.968056766709424 -27.011946924748429 -10.879324273353546 221 183 170 255
-21.313462428156356 -26.218564138221467 -10.629951556005494 222 183 169 255
-21.750763281362055 -25.571384334017523 -10.271476606045155 225 183 170 255
-22.096257109287649 -24.777834241249764 -10.022030749961658 226 183 170 255
-22.487539303674055 -24.057677745197566 -9.718156549994433 227 184 170 255
-22.924246491528635 -23.411583811706976 -9.360136369209471 227 185 169 255
-23.451395354834688 -22.914368766901305 -8.894143425294061 227 185 171 255
-24.339811115209756 -23.013595075684265 -7.996653057634092 227 185 171 255
-24.999799050917289 -22.744894559226026 -7.370893352357626 231 188 172 255
-25.523210765606336 -22.254553198289045 -6.907798499559306 225 182 166 255
-25.821347515576235 -21.390482472673057 -6.713986051783422 215 172 155 255
-26.075123199869438 -20.450387927393535 -6.573490458782942 213 171 157 255
-26.418860500278811 -19.660056935713612 -6.325395954558530 206 165 150 255
-26.495579166935158 -18.415156897553288 -6.397869370173453 198 159 144 255
-26.707155862166530 -17.395058295227500 -6.309010679909505 189 150 133 255
-26.565315075205888 -15.764069265948478 -6.645551435911159 177 140 122 255
-26.337974154357369 -13.975104314745465 -7.086225345932178 167 129 110 255
-26.246097819458612 -12.409824982853308 -7.365096605025002 159 120 96 255
-26.991424628506934 -12.299391970387944 -6.635324145074492 148 107 77 255
-28.216614491220014 -13.040134982890834 -5.325354269848958 158 115 83 255
-28.781873490092380 -12.630440638217408 -4.810891615380200 182 137 108 255
-29.258975812105291 -12.067660817741171 -4.402626206202029 188 142 116 255
-29.474876587808382 -11.039607150401594 -4.310412558820190 194 148 125 255
-30.298194852375332 -11.100974655150850 -3.482342757868366 200 153 133 255
-30.946233581857996 -10.854268085266938 -2.865864224070265 201 154 136 255
-31.678927170674740 -10.767094840845260 -2.145910536156691 201 152 135 255
-32.065957191507209 -10.054762030191142 -1.845336344424339 198 149 132 255
-32.624289777691018 -9.657826657644534 -1.336262906907592 195 144 127 255
-32.839862051859001 -8.630388657776479 -1.244314628760122 191 135 120 255
-33.141545997889295 -7.759803518538462 -1.047760565198189 176 123 105 255
-32.933949644783183 -5.934518580304797 -1.473119132118029 153 103 84 255
-33.407378616553927 -5.378520159964864 -1.067725568738041 129 83 62 255
-33.162288447363863 -3.464579485566389 -1.541074558966244 110 71 49 255
-32.836550206981343 -1.383736339530060 -2.114791958231706 85 59 38 255
-11.533703615277688 -25.118685804386274 -21.808040711873474 203 174 145 255
-12.599802678629203 -25.358676565499707 -20.711123832872090 211 175 153 255
-13.990645126220215 -26.102071249961369 -19.227540176959167 214 175 158 255
-15.142458519456255 -26.498895467007770 -18.025630216059426 217 175 159 255
-15.683891940784974 -25.974221606815263 -17.547461015664368 213 176 158 255
-16.503667673057436 -25.881053671993698 -16.737870251919276 212 176 160 255
-17.042752285623834 -25.360694339807367 -16.261517317166465 213 177 161 255
-17.673592578518878 -24.986054575189229 -15.675484378265224 212 176 160 255
-17.564560982794717 -23.456345959998885 -15.971383071754929 211 173 160 255
-19.944263132814115 -25.840317952699706 -13.297220507893599 216 178 167 255
-21.303244452581708 -26.642325105597820 -11.838354547366976 220 182 171 255
-21.924299069756273 -26.285683565744506 -11.259909825886780 223 185 172 255
-22.726765301761276 -26.224351472668445 -10.463741085469593 226 188 175 255
-23.025873103005040 -25.359147139101964 -10.269780379446360 227 187 175 255
-23.461688693497081 -24.714229759530724 -9.912022114186897 228 189 174 255
-23.625314766448241 -23.626473833031383 -9.880899315237201 226 189 173 255
-24.016030612537890 -22.907257617302093 -9.577370318823398 227 188 173 255
-24.722157214460424 -22.708627494472125 -8.894427402671084 227 188 173 255
-25.741150426793865 -23.035266876398367 -7.834047214860760 229 186 170 255
-26.353234253132882 -22.695119675003127 -7.262554073195020 224 181 165 255
-26.606386974155839 -21.757181502417893 -7.123478323396228 221 178 161 255
-26.681855659560341 -20.517067977929344 -7.199226817668432 217 174 158 255
-26.981267472663092 -19.651287705544320 -7.005014807088941 209 167 151 255
-27.148065655194614 -18.557680655836407 -6.971416607466978 200 161 144 255
-27.360226841257230 -17.537882618911198 -6.883379781807577 190 152 135 255
-27.440986349709334 -16.288027292724053 -6.955015636397945 179 142 124 255
-27.347454465583041 -14.729752561379371 -7.238841081406690 168 131 112 255
-27.124942259215231 -12.936963779865579 -7.680458526213670 158 119 94 255
-27.518078346627334 -12.213282303518838 -7.375039935067122 149 105 77 255
-28.609016747950932 -12.722106663087828 -6.220368613883977 160 114 83 255
-29.348056452632022 -12.620197101510911 -5.492653446725825 182 135 107 255
-29.911600800381677 -12.212085529832166 -4.978064266966612 191 144 118 255
-30.214594362193907 -11.339714780961572 -4.781072248843373 199 151 129 255
-30.863077530941837 -11.089878114375267 -4.162105346491558 205 157 137 255
-31.467041172932625 -10.764681019408101 -3.596922949866780 202 153 137 255
-32.112632404772569 -10.520171556726581 -2.980206205956591 200 149 134 255
-32.542867152227501 -9.885523953117712 -2.626780428784343 193 143 126 255
-33.100757526956727 -9.487831475231076 -2.116594177098079 191 140 123 255
-33.487515275017358 -8.775907820902006 -1.816146190273315 182 126 110 255
-33.450142272446271 -7.271590095367714 -2.037165354830904 164 111 93 255
-33.119125360518183 -5.206619666588608 -2.620689758183886 135 88 70 255
-33.213835689536495 -3.931111083435781 -2.681512831918951 112 71 54 255
-33.142008790472005 -2.332913459114025 -2.948505318170561 89 59 42 255
-32.988945480035198 -0.569632774491140 -3.317005889749112 19 9 1 255
-12.717837006158504 -24.649978829562087 -21.979107249064924 203 178 148 255
-14.246089096209857 -25.603406724927765 -20.322873633626131 212 172 154 255
-15.116319632794443 -25.570895299215408 -19.451385062823420 212 176 157 255
-15.891123061084073 -25.400152248090592 -18.693105059827332 215 175 159 255
-17.127260884540533 -25.949623055242995 -17.381029148104119 217 179 163 255
-17.804370512713007 -25.644816459358196 -16.737714552288196 218 182 165 255
-18.479942105805264 -25.342836533518806 -16.095590620875555 215 180 163 255
-19.108004614152463 -24.971362665161308 -15.509910508778489 212 173 161 255
-19.872324157389841 -24.819895938619055 -14.759754511377395 213 174 163 255
-21.091911975348808 -25.399811772060104 -13.460517314425744 217 179 168 255
-22.307052717124861 -25.987910761710793 -12.164732186112644 222 184 173 255
-23.153857442428233 -25.998484320628705 -11.311408263410186 226 190 176 255
-23.680603713195723 -25.499607315067550 -10.843500570713758 226 190 176 255
-24.116058102142006 -24.854888502356715 -10.485590649047538 227 191 177 255
-24.596316421160878 -24.284636389496825 -10.073332115842675 227 191 177 255
-24.986011657177187 -23.567201229242414 -9.770505468668205 227 191 177 255
-25.644912929692680 -23.295876762371307 -9.141303486445935 229 189 177 255
-26.526080948173274 -23.400124963716110 -8.241731767869169 231 189 173 255
-27.315234788308885 -23.359862373965370 -7.452720271532542 202 157 141 255
-27.523418695638924 -22.348767511237838 -7.369054199649042 168 123 106 255
-27.510521913402016 -20.959912941520031 -7.554832961446749 175 130 114 255
-27.809655805699151 -20.095283760541690 -7.361429645118534 212 169 152 255
-27.800129571837033 -18.700221904281449 -7.544587298402917 200 161 142 255
-27.968842863578146 -17.604834740416720 -7.511119013739602 190 151 134 255
-28.094786706086779 -16.431232132199341 -7.530415377772442 178 141 123 255
-28.178324821926054 -15.178744706007876 -7.602193974354890 166 129 110 255
-27.826795386214030 -13.157680657884441 -8.207352174437972 156 119 94 255
-28.088992794351725 -12.204096315573139 -8.062179740172894 151 108 80 255
-29.090121084763183 -12.558352399199237 -7.010794395126823 160 115 85 255
-29.871267349715055 -12.532828384678055 -6.228002228879575 179 132 105 255
-30.347875453409131 -11.969285045138690 -5.818569722566309 187 140 115 255
-30.694745386701044 -11.173730295561029 -5.568544664197560 193 145 122 255
-31.471239566006716 -11.156775429157506 -4.789371817010448 199 151 129 255
-32.117032012035565 -10.909583632354156 -4.170355693997976 201 150 134 255
-32.761319407147369 -10.665164970762646 -3.552511268226141 197 146 130 255
-33.106032216825241 -9.873590218607887 -3.304170543028363 188 137 121 255
-33.450934806554500 -9.081668930049659 -3.055684985838099 180 132 113 255
-33.541988375809666 -7.815364958904809 -3.121641528749137 169 117 99 255
-33.381368231811535 -6.070673872395190 -3.500350088907624 153 103 86 255
-33.223840669979097 -4.320293106088457 -3.876658982134728 116 74 57 255
-33.405229786403595 -3.201599912197594 -3.833368641433879 98 65 50 255
-33.378497094251998 -1.681295167911912 -4.049458221561906 31 11 4 255
-13.073155043097273 -24.295461936645808 -22.970849220560268 182 186 142 255
-14.085917721472384 -24.466516417871958 -21.925476907479776 201 172 147 255
-15.188216936290985 -24.785896033310195 -20.770777246070196 212 177 157 255
-16.425592812134767 -25.326345849091467 -19.451490006862912 216 175 160 255
-17.381634237065441 -25.445222896676853 -18.470050857700954 221 177 164 255
-18.380704502409543 -25.641462733222937 -17.435297779385138 219 179 163 255
-18.779788319676811 -24.906679816949861 -17.125116789509548 217 179 161 255
-19.361920700045744 -24.461235800353052 -16.593198825016231 214 176 163 255
-19.669035842509373 -23.582589141503945 -16.394220134144945 213 175 164 255
-20.067635517376260 -22.848683085231102 -16.084401966385116 212 174 163 255
-21.465358381763394 -23.720238787398529 -14.560993819964494 214 178 164 255
-22.993556164294688 -24.821339969641826 -12.876577194281339 219 183 169 255
-23.612097058449791 -24.465432539480901 -12.296476579713101 224 191 176 255
-24.319457283175666 -24.259174094323100 -11.607609157666303 225 192 176 255
-24.755444055010798 -23.613005663310389 -11.248850330983515 225 192 181 255
-25.459985193925718 -23.411931759239508 -10.562168537064679 229 195 183 255
-26.073372882076598 -23.065500465486480 -9.986062211027644 230 192 179 255
-26.997463199131062 -23.243154367910989 -9.029409503809802 231 188 172 255
-27.607432437364537 -22.903012928659621 -8.455956300840882 163 115 98 255
-28.083135570731770 -22.340300555172547 -8.046452936870907 145 96 79 255
-28.337250565337058 -21.402608081185519 -7.908499322665307 132 85 67 255
-28.636106767598648 -20.539130130316153 -7.715905043647922 144 98 80 255
-28.539698098336032 -18.994072577566129 -8.009308365135269 188 145 127 255
-28.577413084838099 -17.671845727275127 -8.138870241317164 188 148 128 255
-28.529551308859965 -16.193995443926298 -8.374674695593114 176 138 117 255
-28.614846119635843 -14.940757100373673 -8.447389986086449 163 127 105 255
-28.266963854888786 -12.919150280071761 -9.055434922584254 154 116 94 255
-28.573520720823524 -12.041491570185428 -8.856853124151542 146 105 81 255
-29.442598667695108 -12.163834455601034 -7.962817216973406 164 118 94 255
-30.265836352386287 -12.213986325263761 -7.124276155194678 179 129 106 255
-30.656627061584800 -11.494426586050054 -6.820498310145041 187 137 112 255
-31.218861855808541 -11.085579561988510 -6.304010236964700 187 140 112 255
-31.993847236734723 -11.067985627019937 -5.522842651620124 192 146 117 255
-32.723966824055481 -10.976407566355590 -4.796413502325464 197 147 124 255
-33.239531084117118 -10.496904022949082 -4.336070984747380 191 139 118 255
-33.754317356362435 -10.018835858340736 -3.876335895495970 178 129 108 255
-33.930151987020082 -8.912100616481439 -3.838967400399980 170 121 105 255
-33.727783797784582 -7.092374222686772 -4.274337789936908 154 106 91 255
-33.318596074740583 -4.870480072056012 -4.969782921542560 136 92 76 255
-33.374956250842729 -3.513951955641119 -5.084878897602948 108 73 58 255
-33.892881888180824 -3.030122788918789 -4.622721511350079 40 21 12 255
-33.576674387344212 -0.950233905063442 -5.206181806421341 7 2 0 255
-13.422600421246983 -22.550091065786546 -24.153045163491328 183 187 143 255
-15.403211348475452 -24.214932836492267 -21.926516142737029 205 180 152 255
-17.006849425018629 -25.324062144852263 -20.154640422821501 215 174 158 255
-17.776860259132292 -25.156034180450121 -19.394422703904809 218 173 163 255
-18.040652999927545 -24.201588296033179 -19.249934441553251 218 173 160 255
-18.762236024321169 -23.966490128267992 -18.547553325756496 218 174 161 255
-18.889329557664780 -22.795051807231999 -18.569924461553114 212 175 160 255
-18.972326603771677 -21.548574391751686 -18.646771158321002 211 173 160 255
-19.102291651658248 -20.371837755617179 -18.666899932686050 208 170 157 255
-20.680960040923537 -21.526906584854800 -16.914399927095616 207 170 156 255
-22.298349513005633 -22.766903238933168 -15.111594582102754 211 175 161 255
-23.729166244678993 -23.725519604059912 -13.534627925028815 221 185 169 255
-24.032697003577965 -22.854093743500272 -13.339011071385841 223 187 171 255
-24.739332117581057 -22.646484386529011 -12.648217463972685 224 190 178 255
-25.667308700123783 -22.812458555814658 -11.684350280717496 228 194 180 255
-26.725807117207182 -23.206786127776070 -10.558413224963800 230 192 179 255
-27.469932865231556 -23.086366439417844 -9.818267261049328 231 189 173 255
-28.079268948341593 -22.745447359411571 -9.243504736079018 173 126 109 255
-28.599044888762592 -22.256976437076474 -8.778764423812589 140 92 75 255
-29.029988264266194 -21.619614123377858 -8.423480872021145 119 72 54 255
-29.153345050839050 -20.455009001012286 -8.448712944557116 141 95 76 255
-29.059208225961441 -18.909729941575677 -8.744022504056261 175 132 113 255
-28.967664672242336 -17.359674462421026 -9.037314861448039 181 139 120 255
-28.661048364735706 -15.424487533151535 -9.598802865563783 173 132 112 255
-28.705534204070801 -14.092645440877675 -9.725745029685697 157 121 99 255
-28.751888826482627 -12.757362078364707 -9.851234237458470 151 111 88 255
-29.231817565358512 -12.186027266112063 -9.437665764819315 146 104 80 255
-29.883396896192068 -11.923548747900213 -8.809858186776893 163 119 94 255
-30.361748245064547 -11.355120839113937 -8.397518172738557 170 122 99 255
-30.711131470036207 -10.555476779873061 -8.146038494073196 179 129 104 255
-31.487566438259620 -10.531793881089072 -7.360574043790962 180 133 105 255
-32.389466757712512 -10.745781366089318 -6.416976378912750 184 137 109 255
-33.288411120906403 -10.965214879135544 -5.475679514118838 185 134 111 255
-33.676506974747383 -10.250528657470397 -5.173914458928067 187 133 113 255
-34.064549831088812 -9.535943254687368 -4.872193599604969 172 122 102 255
-33.989628006847255 -7.955298168991590 -5.152579886941908 160 111 96 255
-33.791426024333020 -6.132964879766973 -5.589406085223885 143 101 84 255
-33.638397972061085 -4.383685662857715 -5.970918129137573 116 83 66 255
-33.947391481356647 -3.502211133283367 -5.771063982014766 65 43 27 255
-34.340023487751751 -2.779196384214970 -5.465794897905397 10 0 0 255
-15.207467452186080 -23.004148220482989 -23.592578734199492 196 190 151 255
-17.358987316192639 -24.965061273760909 -21.139270173153392 210 173 155 255
-17.487411937367767 -23.793312868253793 -21.162591053957271 214 175 160 255
-17.891089335430934 -23.049886493505426 -20.848667485522071 215 174 161 255
-18.613359406197844 -22.810840216143390 -20.143265232733171 214 171 155 255
-19.243041079897864 -22.430553633835586 -19.550921081717462 208 169 154 255
-19.373322343290283 -21.255360010795243 -19.572774062902255 209 170 155 255
-19.369495139200296 -19.859517349128083 -19.760504905834438 207 168 153 255
-20.493763219652635 -20.282980651796692 -18.557686150611772 202 163 148 255
-21.748825722051322 -20.933185841937785 -17.191557080322355 195 156 141 255
-23.043998726600137 -21.665391962940362 -15.773700972547942 205 166 149 255
-23.798132297779830 -21.523502411067341 -15.022955220256506 219 181 164 255
-24.683913636347484 -21.606784280741408 -14.108236546257729 225 189 171 255
-25.966855448656361 -22.361505275664740 -12.699882393378630 226 190 174 255
-26.890375490202928 -22.531154306775846 -11.735279504965263 226 188 172 255
-27.899296757709692 -22.855271245855960 -10.663199768775542 229 187 171 255
-28.287769313783571 -22.139787829646508 -10.361045877403797 221 175 159 255
-28.720118536385883 -21.499371570256983 -10.004238125348024 179 132 113 255
-29.020669389332483 -20.634055336744495 -9.811514936807583 158 111 91 255
-29.234219265481698 -19.617213074927264 -9.727508692671250 168 122 102 255
-29.187150419789106 -18.145088533823525 -9.969357629091235 189 144 123 255
-29.012036842756515 -16.441151590682523 -10.372372450342112 180 138 116 255
-28.796656051786101 -14.655496835788938 -10.827231091498987 170 128 106 255
-28.757487501684608 -13.168819969768265 -11.062933632156785 152 112 91 255
-29.151694487710614 -12.442766664793908 -10.756311813511587 146 105 81 255
-29.760743381196846 -12.100425333500539 -10.179964000320609 150 107 82 255
-30.239937787315597 -11.529606621595377 -9.766191403312206 158 113 88 255
-30.462148032775644 -10.496813995348077 -9.675449296601613 162 114 92 255
-30.770501607016968 -9.617127168778353 -9.476657478814104 166 119 95 255
-31.759247069702496 -9.978399708237021 -8.420266846952387 170 123 96 255
-32.617419970808299 -10.112518867601324 -7.527011303835280 175 128 103 255
-33.430622558993093 -10.173585668962517 -6.689260756160081 176 125 102 255
-33.777862845601931 -9.378169181558690 -6.439708084969311 167 115 95 255
-34.293351320034645 -8.896402465989098 -5.977197274398179 149 102 82 255
-34.305334371332890 -7.471418875299122 -6.152610679095005 137 93 77 255
-34.068800572796192 -5.568869587386246 -6.644471661651437 112 77 61 255
-34.377325617524662 -4.688894197626837 -6.445571732499815 66 44 29 255
-34.063307203631041 -2.617303596505280 -7.038758790580687 11 0 0 255
-34.126049820196215 -1.254732937016456 -7.154185768712608 7 0 0 255
-16.521808589920767 -21.357999140197677 -23.783345685287117 215 180 162 255
-18.247937658039945 -22.688631217410432 -21.835585615942023 216 179 162 255
-19.286908999880922 -22.952184850853200 -20.735296567600187 215 176 158 255
-19.734614083183885 -22.283070957029622 -20.366159953684587 212 174 155 255
-20.091808751814852 -21.469628726588553 -20.109150360891505 209 167 153 255
-20.494136358256043 -20.728566389500202 -19.796163581169651 205 163 149 255
-20.986083891336932 -20.133460199294461 -19.371731020313234 200 158 142 255
-20.895986265086322 -18.588703311469118 -19.671278838859052 200 157 141 255
-21.254555389089774 -17.772706675088841 -19.413178918623572 196 153 137 255
-22.858917381753173 -19.016541313655154 -17.601822822362010 193 150 134 255
-24.589753876925869 -20.493968349861603 -15.629491365260833 204 166 147 255
-25.826554536329127 -21.170675025890347 -14.270954467126558 222 183 166 255
-27.191046120128760 -22.078734357903272 -12.750496675572379 220 178 162 255
-28.242118355217656 -22.475462380331891 -11.619882464411035 220 177 160 255
-28.850672720526347 -22.132096030523371 -11.042124868401345 224 178 162 255
-28.801542238101689 -20.667368314279400 -11.288914126449640 214 167 149 255
-28.929317040326652 -19.498862764071305 -11.314637007705272 210 163 145 255
-29.014954952131546 -18.252450621047842 -11.393998759874222 201 154 136 255
-29.449393165150298 -17.607714779152445 -11.035128568900291 186 141 122 255
-29.277654799423971 -15.902261416372085 -11.439874828461996 176 131 112 255
-29.108992959033060 -14.191140363856846 -11.842226880834630 165 120 101 255
-28.943407977307032 -12.474351396493603 -12.242184827161992 150 108 86 255
-29.424600035538447 -11.899014351007168 -11.826080664014768 145 100 77 255
-29.948035657263347 -11.401386351705696 -11.356253660743135 148 104 79 255
-30.385338977430649 -10.751373088504778 -10.995154520551921 149 103 79 255
-30.567033757024063 -9.639066034048028 -10.958067929006148 150 104 81 255
-31.131744698870904 -9.220934343892537 -10.435274861093887 153 107 85 255
-31.991592945413316 -9.347809343937797 -9.536861471926898 153 107 83 255
-32.679972470185760 -9.168448321393782 -8.855285095615415 149 102 80 255
-33.324537252352457 -8.914276140875359 -8.228657434019965 141 93 73 255
-33.673971065896353 -8.115091373806308 -7.977650517099107 132 87 68 255
-34.232723530150338 -7.707950822636661 -7.459507614656985 120 81 62 255
-34.039764046657780 -5.886089087649708 -7.901643558831609 107 74 60 255
-33.891719759057878 -4.137019419481362 -8.287982001399570 59 35 23 255
-33.705302058361553 -2.303117826410585 -8.725037819495128 13 0 0 255
-16.159462235086721 -19.854284628271245 -25.683102388029027 218 187 166 255
-18.154325481354078 -21.609999942494596 -23.389036952700138 219 183 165 255
-20.050317290933407 -23.237526806255914 -21.214288306937163 217 181 161 255
-20.497417778433203 -22.569061264102743 -20.845190743332324 215 179 157 255
-21.034001273594015 -22.046063754563335 -20.364067680380913 214 172 156 255
-21.480210788621889 -21.379225720871602 -19.995650626744265 210 164 149 255
-21.479484944359541 -19.984122006679570 -20.186948996085277 206 160 145 255
-21.213621004324381 -18.146487525561668 -20.711722068689880 202 155 139 255
-21.617594501436855 -17.402278430055389 -20.397348164015995 199 152 136 255
-22.597356665826510 -17.614431132671911 -19.359399661809221 195 148 132 255
-23.706418784759762 -18.053863957760996 -18.157250731295818 187 143 123 255
-24.547194639583466 -18.056567267025287 -17.291027927794943 188 145 128 255
-26.747430785206689 -20.364841321789726 -14.709929819854466 208 165 148 255
-28.236652162226932 -21.500377535358638 -13.021206252935315 212 166 150 255
-28.408985004993667 -20.407070775154210 -12.993030593907065 210 163 147 255
-29.061736192700891 -20.135499270719237 -12.357883427163870 209 162 145 255
-29.061213394077896 -18.739980423071188 -12.548985707964960 201 154 137 255
-29.366100281463247 -17.867956953090925 -12.354075351252391 193 146 128 255
-29.541776789875172 -16.768481980043617 -12.323289817056036 183 137 119 255
-29.675506526610320 -15.591119738248551 -12.346337772016597 167 122 104 255
-29.466890275943456 -13.803142612866168 -12.805330982607188 149 104 86 255
-29.432973154777130 -12.313976232370010 -13.043606797711618 143 98 76 255
-29.914099329275672 -11.737923296604663 -12.626777802373226 137 92 69 255
-30.139056168881893 -10.702823092661248 -12.536449499876340 141 95 71 255
-30.492363757509111 -9.896757808954874 -12.282665145563726 139 93 70 255
-30.845850486070105 -9.090364077128015 -12.028742836795089 134 88 66 255
-31.452963388018475 -8.747705613503143 -11.450301650781569 130 83 63 255
-32.395769864621286 -9.027919648951325 -10.441094361144508 121 75 53 255
-32.579389495777775 -7.913820316620047 -10.404135464387679 113 66 47 255
-32.764160564726353 -6.797603082263038 -10.366283575228977 108 63 44 255
-33.117115915105700 -5.992202925082665 -10.112788374294382 90 53 34 255
-33.428622599862706 -5.108003165521211 -9.912743936521679 77 49 28 255
-32.744166775512184 -2.334715521496491 -10.996356541553382 21 5 0 255
-35.879571988083484 -0.903175924615084 -7.963062836396489 3 5 0 255
-36.641166316476557 -0.896634450750298 -7.179694057295677 5 8 0 255
-39.883043111859962 -2.837754433540340 -3.576226412061686 6 8 0 255
-39.987963949015722 -1.558401593948588 -3.642976191137109 7 9 0 255
-40.536629176186921 -1.168358787893453 -3.131306517844962 8 9 0 255
-16.618983971986665 -19.638972925384081 -26.570695637716796 209 186 156 255
-18.517497848255857 -21.249566404782058 -24.382594674784087 219 184 163 255
-19.373906990214721 -21.219731292941191 -23.500740634747018 215 183 161 255
-20.631328270078200 -21.844260629900049 -22.113003621052229 215 180 158 255
-21.481627909794582 -21.825665768995464 -21.235890291777650 214 176 155 255
-21.794302204217445 -20.939988076676769 -21.035561113935501 211 169 152 255
-21.796076643778264 -19.543507421513766 -21.227907010968863 205 159 143 255
-21.933004463673342 -18.362412835579164 -21.250467714870240 200 153 137 255
-22.469372179873233 -17.838581675557435 -20.768371341538767 193 144 127 255
-23.049041406599315 -17.389766031135451 -20.231038660170128 189 141 122 255
-23.319751601672635 -16.426573185932540 -20.084871800184231 186 139 119 255
-24.249102078724178 -16.571893179130200 -19.103136133045439 184 137 118 255
-26.884084184964365 -18.218697732418264 -16.147942554996007 173 126 108 255
-26.845244664261315 -16.742205089368866 -16.393391207235567 181 134 116 255
-28.023444711506784 -17.357830671153295 -15.088787429915840 187 140 122 255
-29.067432757238265 -17.756327100966075 -13.953228053987345 184 137 119 255
-29.072361720443951 -16.353987844561800 -14.143075273327668 175 128 110 255
-29.724681715832162 -16.080891707065831 -13.506114072066282 170 121 104 255
-29.603316655005415 -14.446833861290543 -13.858841329932631 144 95 78 255
-29.613116555949773 -13.035516368202821 -14.044893436299219 132 83 66 255
-29.539712801738034 -11.467892904266080 -14.338761123406783 125 79 56 255
-29.894255212852954 -10.659820890537105 -14.084264329758525 118 71 51 255
-30.461046415029301 -10.234702329626657 -13.556928258070997 124 77 57 255
-30.730751598888901 -9.273336478884630 -13.411520828952490 124 77 57 255
-31.043292068083929 -8.387852530681556 -13.211246859016853 118 69 52 255
-31.902930872279057 -8.506797155309471 -12.305287718990684 112 64 45 255
-32.214746932016141 -7.622652840785406 -12.105582224532299 109 62 42 255
-32.317935918358074 -6.348885836197667 -12.175900142172679 111 65 49 255
-32.047551651808874 -4.370192948311342 -12.730736016956911 102 62 50 255
-32.279804003030193 -3.323047186695419 -12.636022857890993 86 55 46 255
-32.512968896555378 -2.274224741033890 -12.540603653470953 20 3 0 255
-37.555679523993035 -3.045435813770951 -7.216207237285488 5 5 0 255
-37.987564498293636 -2.404538886135128 -6.858522433103786 3 7 0 255
-38.054823946268471 -1.042235482472506 -6.978395310825306 2 5 0 255
-38.890865823164177 -1.204738869977064 -6.090880945365683 3 6 0 255
-40.755503728764950 -1.949013066688963 -4.058369106972719 4 7 0 255
-41.729647024191380 -0.928373946967270 -3.192607919241539 10 12 0 255
-17.169980877138670 -19.566889294850540 -27.346038662675625 206 197 155 255
-18.793104061964129 -20.745986296913514 -25.492111401802219 213 183 155 255
-19.648539278535083 -20.714153120811659 -24.607500035906384 216 181 155 255
-20.680050831910421 -20.975628945989712 -23.498351461548111 216 178 155 255
-21.797134191960936 -21.388300004581907 -22.278850970248840 217 176 158 255
-22.155388205932979 -20.573719463059689 -22.021770824491114 212 169 152 255
-22.203824145051954 -19.248929324953536 -22.158921235934116 204 157 141 255
-22.563249093075569 -18.432176935077678 -21.900916212853048 196 147 130 255
-22.922835862087709 -17.615119925205335 -21.642779225783272 188 137 118 255
-23.238665781477408 -16.724244243800200 -21.440564750249990 180 131 109 255
-23.511102820491061 -15.758879649327923 -21.293989794871777 179 130 108 255
-24.308311690491564 -15.679834306979700 -20.476515254275085 180 130 109 255
-25.103263224306488 -15.604944106185030 -19.660794254706673 180 130 110 255
-25.765654302084101 -15.310988720031730 -19.013858072559316 173 124 104 255
-26.209948054452440 -14.646700410232512 -18.646023888622381 168 118 99 255
-26.999467501637469 -14.581809491459410 -17.834522903533468 158 108 90 255
-27.915950855029394 -14.746290237655444 -16.858589012996504 150 101 83 255
-28.356999009768373 -14.087974977067091 -16.493274945978783 139 89 72 255
-28.455094700810690 -12.826068432511988 -16.569852991908874 136 84 67 255
-29.366284045747733 -13.000300011088427 -15.598037151396113 133 82 64 255
-29.209800372780734 -11.280843647311315 -16.003981752282698 130 79 61 255
-29.481064068953117 -10.317612298568179 -15.858293652563532 127 78 57 255
-30.218796141213403 -10.193699231566626 -15.108966893265972 115 67 46 255
-30.827852866839919 -9.843566520008324 -14.525404116812098 116 68 48 255
-30.972485989165762 -8.650349087113256 -14.543889200418846 109 63 43 255
-31.286441973846706 -7.762896575452913 -14.343106114747258 109 62 44 255
-31.810135660594653 -7.261180840356531 -13.869729831131735 112 65 46 255
-32.458272320127662 -6.993487895595138 -13.233888936469526 126 79 61 255
-32.647064767585960 -5.873352031624847 -13.196142329711620 123 80 64 255
-32.712505928781269 -4.517188506412936 -13.320016580347669 95 60 50 255
-33.110865220719461 -3.783110346393130 -13.009815456756968 25 6 3 255
-33.014058433932462 -2.108155838900473 -13.347459105654480 9 0 0 255
-37.207536757080504 -2.720802670072260 -8.901968623675032 2 2 0 255
-38.249069554552307 -3.272693287268396 -7.741297690234774 1 2 0 255
-38.559235583859532 -2.392296385828161 -7.543532251640869 1 5 0 255
-39.031025354385065 -1.831859208258322 -7.132500614666867 0 4 0 255
-40.213377948937932 -1.197689025122031 -5.993404333757042 0 3 0 255
-42.958996263974171 -0.772006830734654 -3.200168483271625 12 16 1 255
-18.714078817534926 -19.669152839062065 -27.060787045071322 204 185 146 255
-19.792403042882313 -19.993178137914839 -25.888110175189581 220 186 158 255
-20.867004698691801 -20.324054233750132 -24.718323731874165 215 181 155 255
-22.115229160114097 -20.951282519475740 -23.324540539754480 215 176 156 255
-22.651328497064100 -20.425555482111974 -22.840437332428195 209 167 150 255
-23.054338369118796 -19.682843279295952 -22.526555336150722 201 154 136 255
-23.149460770742508 -18.428951009048717 -22.607798715293484 197 150 130 255
-23.202347734042149 -17.098804855567153 -22.744121354069023 182 134 112 255
-23.213362786439205 -15.691735299225172 -22.935240519617025 173 125 102 255
-23.706176741046164 -15.091661935016759 -22.507008917140809 171 119 97 255
-24.633305995121333 -15.232010430280269 -21.518600391126739 167 115 93 255
-25.470718006883317 -15.229528849529800 -20.644444916839092 167 115 94 255
-25.959666125996534 -14.636565584808181 -20.219210943698357 165 113 92 255
-26.189305810516402 -13.596981684674176 -20.129078932996180 152 100 79 255
-26.892879750671284 -13.378891088399797 -19.425724503957497 137 85 64 255
-27.680451601232306 -13.314163695934440 -18.612564907644838 139 87 66 255
-28.166440722073105 -12.726641697273948 -18.189624493055362 143 89 69 255
-28.779797263094139 -12.366640994366435 -17.600911013633407 147 91 72 255
-29.179274396792096 -11.630383534509406 -17.289728758948684 144 87 68 255
-29.536283338683830 -10.818307180855243 -17.033812646061506 137 80 61 255
-30.147135600147863 -10.462919900167321 -16.447047990922528 134 79 59 255
-30.841027619640158 -10.262664961621965 -15.751227522384283 126 73 55 255
-31.280943542365151 -9.605966409462837 -15.386359715688656 99 50 30 255
-31.469059688693790 -8.488813716094342 -15.350749780044481 83 37 17 255
-31.867296452100902 -7.754846202510237 -15.040537336429111 80 37 18 255
-32.307146702258706 -7.098274701216042 -14.675726260581371 90 46 28 255
-32.663589384046986 -6.287252243846950 -14.420260749868874 89 44 28 255
-32.978783285064310 -5.398167841251961 -14.219115558631813 83 45 32 255
-33.459652185344197 -4.820097111068549 -13.800177039470753 28 4 2 255
-33.569262375129398 -3.539476943202146 -13.870110580627738 9 0 0 255
-33.844792240950682 -2.569420666294604 -13.722061282288792 0 1 0 255
-36.090128011462582 -0.896752078127463 -11.618202544269906 0 3 0 255
-38.618880399897989 -2.862097810205682 -8.694527784650262 0 3 0 255
-39.131234918541793 -2.380149062861676 -8.228935386021163 0 2 0 255
-19.984756294523208 -19.344626868532657 -27.115903489505996 188 165 130 255
-21.456092257003178 -20.322136583729957 -25.429091930001334 213 182 154 255
-22.259323693449687 -20.225193483856913 -24.600624680919452 213 176 152 255
-22.840162876542507 -19.769523794092720 -24.058026037256383 206 165 144 255
-23.244333176239167 -19.024577059015911 -23.743151293448022 200 153 134 255
-23.166807175890455 -17.476497058587455 -24.051303432515141 196 147 127 255
-23.091865569534122 -15.923646268562464 -24.357435337456451 184 133 111 255
-23.237212812322468 -14.733383242254149 -24.379322755733114 173 119 97 255
-23.687872060805091 -14.056446184526152 -24.005680183943554 164 109 88 255
-24.830989958908106 -14.562782761433908 -22.732182283114810 161 106 85 255
-25.667669844040063 -14.557857461175502 -21.855081121225453 158 103 82 255
-26.028228524183817 -13.739525971151068 -21.596666093201321 151 96 76 255
-26.346017454929580 -12.846297374622225 -21.394091377907955 149 94 74 255
-27.135176902004275 -12.775223575507596 -20.576524551842539 149 94 74 255
-28.050166197516916 -12.933396118642520 -19.593354602809882 139 84 64 255
-28.536452020740569 -12.344490268356111 -19.169407192724407 139 83 63 255
-29.234442138381581 -12.134000560110053 -18.467908548984013 161 102 84 255
-29.676683376273019 -11.472548438723209 -18.100795669987747 167 107 89 255
-30.371874696891638 -11.267215733975092 -17.401475985727672 171 110 92 255
-31.149484968716024 -11.217421031129902 -16.592899507078158 168 111 92 255
-31.756980210619020 -10.866277758216825 -16.006948667774566 155 99 81 255
-32.070269111827827 -9.981332486384730 -15.807869655132947 139 88 69 255
-32.217070555335454 -8.788353097325796 -15.828590738885453 124 78 57 255
-32.573289889251640 -7.978008384328973 -15.573545874776727 94 51 32 255
-32.846719704320606 -7.012811331135282 -15.428048957338149 81 39 20 255
-33.244908889494894 -6.278840165824477 -15.117788907186423 76 34 18 255
-33.560553095423415 -5.389567099344163 -14.916887369013125 73 40 25 255
-33.876624559232823 -4.499511012408277 -14.715657122286188 38 17 6 255
-34.685154707208909 -4.546476731862128 -13.860492738771512 7 0 0 255
-36.435927750645305 -1.934359687982635 -12.406363146504134 0 1 0 255
-37.236496007439428 -1.996035446153996 -11.557434102040844 0 2 0 255
-38.034610204466304 -2.062243141718170 -10.710425026011762 0 2 0 255
-39.191695630604386 -2.850341387042931 -9.381051598781710 0 3 0 255
-39.463336375110316 -1.888521277263180 -9.237022098496595 0 2 0 255
-21.119839117714434 -18.805995140471168 -27.341581774430409 180 170 129 255
-21.792110492836912 -18.486945413124033 -26.680567554885045 202 175 144 255
-21.980644245427129 -17.372590142699607 -26.647938842530635 199 168 139 255
-22.651174082050261 -17.056732493980519 -25.988264857827716 191 152 127 255
-23.015009707719628 -16.232669739033014 -25.727582971822443 185 138 118 255
-22.857331322431918 -14.529574831992875 -26.147583448539280 179 128 107 255
-23.049535226872166 -13.408421865980642 -26.112064812526597 165 113 92 255
-23.848099661448600 -13.316611257219051 -25.284017399315701 160 105 84 255
-25.032392403074255 -13.894030867155891 -23.949661334907631 157 102 81 255
-25.954317527224021 -14.034901968466528 -22.956900264930965 151 96 76 255
-26.358849556338129 -13.289147026549699 -22.641612560588186 139 84 64 255
-26.720558776072295 -12.468962017944079 -22.382548776340400 116 61 41 255
-27.551317177847011 -12.471146861760360 -21.506534664547701 153 97 79 255
-28.507096774392608 -12.702960913102459 -20.464520725256278 150 94 77 255
-29.205356677875045 -12.489292361200057 -19.760326195318697 157 98 82 255
-29.901852530432222 -12.278873965126849 -19.057504810896290 195 133 118 255
-30.428017785539453 -11.768980234385197 -18.578845107780779 206 144 129 255
-31.289558612705122 -11.867778018798759 -17.655978629005602 191 128 113 255
-31.896971511765855 -11.514842770809651 -17.068290179636335 178 119 101 255
-32.503110362907620 -11.164256749577760 -16.481595189905875 166 110 92 255
-32.816365662278628 -10.280015116098809 -16.283137185697854 154 103 84 255
-33.088503214561598 -9.318206057074974 -16.139579686608670 139 91 71 255
-33.319886662932106 -8.278159803594519 -16.050639836289690 126 83 64 255
-33.634768993910768 -7.390925581361842 -15.850920086608625 114 73 53 255
-33.991251511294195 -6.580374619101434 -15.595928654841174 93 55 36 255
-34.183698454157820 -5.458748754404212 -15.560197555906825 63 33 17 255
-34.418231484129763 -4.412911672496989 -15.468817256725373 29 9 0 255
-34.572049067169075 -3.209139670789227 -15.486055242780481 10 1 0 255
-34.279639569446545 -1.140927224755444 -16.102458084730813 3 0 0 255
-37.091165935302996 -0.559100957996350 -13.225742222314722 0 1 0 255
-38.651349213614992 -2.130676440925754 -11.347087144792511 0 2 0 255
-39.445081392703003 -2.201191375738233 -10.499997813123429 0 3 0 255
-40.037121232546980 -1.876688483677526 -9.924376339773715 0 2 0 255
-20.173684328307161 -13.381339881043374 -30.509808365938909 159 164 116 255
-21.328598749841746 -13.853203790868008 -29.215320196049760 160 151 112 255
-22.175476687602952 -13.821924940427863 -28.323269106731857 168 139 111 255
-22.803430937109312 -13.429224158212833 -27.717812023325251 163 122 99 255
-23.559580834562439 -13.259187319640375 -26.942849134027369 160 112 90 255
-24.399796278423537 -13.240169083471159 -26.055970606528035 161 110 88 255
-25.967161371320003 -14.481645532980735 -24.208041835563392 160 106 86 255
-26.201125888067793 -13.438239114948573 -24.118386243159875 152 97 77 255
-26.649374166747265 -12.764795793528833 -23.745741326196338 143 88 68 255
-26.841958518947195 -11.644663619668790 -23.711522523392659 113 60 41 255
-27.629790473602299 -11.569190715092873 -22.888644096621960 82 29 12 255
-28.796213134993593 -12.172785011019215 -21.561941399886280 186 130 113 255
-29.789430863985984 -12.483680199363619 -20.463010079326267 177 120 103 255
-30.652970521424606 -12.574635039087838 -19.534731371412818 190 129 114 255
-31.345968851192794 -12.367980971984906 -18.832148572513944 172 110 95 255
-32.371864930476079 -12.771632399097257 -17.684552070038450 155 93 78 255
-32.893532105543898 -12.268826219932180 -17.208281456124951 145 88 69 255
-33.372818409356569 -11.691149507762077 -16.788237229862546 145 89 71 255
-33.685678195400413 -10.808279606099404 -16.590683146889319 138 86 67 255
-33.916260347691320 -9.771089243610334 -16.503645809000147 129 81 61 255
-34.230204101121700 -8.886224996722888 -16.305250554640594 123 77 58 255
-34.626786438870312 -8.155020601496460 -15.996061686857303 112 71 51 255
-35.228245361409790 -7.811132879105458 -15.411225948332884 96 61 39 255
-35.256313919033062 -6.382286558226383 -15.598009447317054 79 49 29 255
-35.001281231051735 -4.404337549598154 -16.167803377881086 53 30 15 255
-34.953181156896477 -2.809916509263189 -16.460349461740577 14 0 0 255
-39.662030078700127 -1.472805647235191 -11.676648551335575 0 2 0 255
-21.419578206967799 -10.060857086948573 -31.065153157040555 156 133 102 255
-23.597983326560723 -12.302640165165769 -28.402130209983625 149 108 84 255
-25.295002405902153 -13.752920202227074 -26.373203187073130 157 110 89 255
-26.557364522567298 -14.478181742905974 -24.918413721750596 162 110 89 255
-26.962597187790834 -13.730946172579422 -24.602404750327054 159 104 83 255
-27.112815370711019 -12.538040666337537 -24.626370006198613 144 92 71 255
-27.052565843973298 -10.969973513068851 -24.932052602345493 116 65 44 255
-27.670864540135256 -10.593089383072225 -24.332282463432762 70 20 3 255
-29.004034848175479 -11.493060505253482 -22.775215742616041 68 17 5 255
-31.003906993118648 -13.606060842670729 -20.321936062841957 192 136 119 255
-32.073051355045635 -14.076979877302222 -19.111871833537094 181 124 107 255
-32.887674120825409 -14.101324095109959 -18.241401162226595 181 121 105 255
-33.699812462180773 -14.130248904950093 -17.372867337500651 179 117 99 255
-34.177288000648502 -13.555076755109667 -16.953461707980154 171 117 98 255
-34.488608549162450 -12.675687409822501 -16.757703293649996 166 114 93 255
-35.048034668648341 -12.254704022383123 -16.227354861851381 160 109 88 255
-35.112509981670343 -10.914589041157228 -16.365207650556243 157 107 90 255
-35.507172623575400 -10.186826423660023 -16.057424888703594 153 104 89 255
-35.983613879893227 -9.613571135543737 -15.638834786921706 143 98 82 255
-36.663505523574941 -9.428416819789845 -14.943999244879990 121 82 65 255
-36.772168058627244 -8.159487008756457 -15.023888399594000 108 72 52 255
-36.598568645482885 -6.342490359805794 -15.488528254364496 74 44 24 255
-36.509167366663405 -4.675542358317671 -15.840476602103109 51 26 10 255
-35.858193707744931 -1.907014448433870 -16.959621233571909 23 2 0 255
-36.861433339792711 -2.346852091893709 -15.824509630568770 11 0 0 255
-37.299967830086956 -1.690887918539715 -15.459038586991085 7 0 0 255
-39.922290351964449 -0.824535160521236 -12.802799553513864 3 5 0 255
-20.825729837099146 -8.011479011946392 -33.399067069379839 192 168 139 255
-22.614780589293389 -9.585436876388115 -31.240284907530395 172 132 111 255
-24.523993413813059 -11.394656119258059 -28.916207367360499 175 129 107 255
-26.509739817923730 -13.367306489700724 -26.484719434024811 174 125 103 255
-27.044121942153225 -12.838669858754173 -25.996323108127569 172 117 96 255
-27.408498678441504 -12.014388405325832 -25.735941433835364 148 96 75 255
-27.351244701980477 -10.444765460277381 -26.042966096474771 111 63 41 255
-27.717162809837589 -9.617632138720978 -25.781373501439845 62 14 3 255
-29.718823236223813 -11.713200471686378 -23.313597290918835 150 99 81 255
-32.422112007506314 -15.103767164968531 -19.893033360035332 203 151 134 255
-33.652672479833399 -15.880159509238041 -18.456081725763511 198 140 126 255
-34.171551372830265 -15.380089903716083 -17.979756219875810 190 130 115 255
-34.896910443554361 -15.260683012444900 -17.223106395188182 189 128 112 255
-35.372269083678589 -14.688581957271879 -16.804579976109210 181 129 108 255
-35.888293225232189 -14.193777105776149 -16.330481302570604 180 128 107 255
-36.280253603634094 -13.470899469862132 -16.024715071701337 173 122 101 255
-36.590209855900724 -12.594674165597155 -15.830621530238290 172 123 103 255
-36.818887789265602 -11.563763331994892 -15.747635145068216 166 117 100 255
-37.048473031967774 -10.531182668373503 -15.663944204126608 159 111 96 255
-37.522622876783629 -9.961325385390694 -15.246374142262141 146 101 84 255
-37.874769035617646 -9.159599597604114 -14.995532806283109 136 95 75 255
-37.823423131099418 -7.579090736419744 -15.297957990583711 125 90 70 255
-37.734432178401335 -5.915722415573782 -15.653605911163311 102 69 53 255
-38.049553723097233 -5.030005796969931 -15.455515245661189 91 63 50 255
-38.605146509959866 -4.614565262863948 -14.926741889540750 103 78 67 255
-39.159728441496497 -4.200997557981282 -14.398765019149096 76 50 41 255
-39.156591698377298 -2.683912113943450 -14.639769978586202 107 78 72 255
-39.314401971218842 -1.479181981307875 -14.659830825300986 41 13 12 255
-39.750286146705548 -0.827674843824298 -14.296027910851620 15 0 0 255
-41.446159696090831 -1.202987789853296 -12.424723321546878 3 3 0 255
-20.669939933332046 -6.694808885535622 -35.169132709606856 195 166 138 255
-22.795952756547905 -8.850782087532025 -32.542890781281187 181 140 120 255
-24.360032764835921 -10.068090835681090 -30.669506368742873 187 143 120 255
-25.578669989974458 -10.707089934205243 -29.259134328629443 188 139 118 255
-26.834863420929935 -11.428743520190551 -27.795266978176926 178 126 104 255
-27.454466959514320 -11.045573233774263 -27.190882653032617 155 104 83 255
-27.694868632126003 -9.994430944597383 -27.100039282461353 111 63 41 255
-28.480469093836689 -9.912805055581288 -26.269383269010291 57 10 1 255
-31.893999167169454 -14.555791385284294 -21.864568451906337 209 163 144 255
-34.124467722652810 -17.126783981353526 -19.060041397203292 197 148 131 255
-34.849973444202021 -17.004059973627790 -18.300453066180836 194 140 125 255
-35.035455137428016 -15.902268872827392 -18.276634013202937 197 137 124 255
-35.469671579965564 -15.253288841790209 -17.913623534198081 188 130 114 255
-36.068160224242519 -14.909044093748378 -17.325696126497832 183 131 111 255
-36.747425345923318 -14.719675535889166 -16.626371859881857 188 137 116 255
-37.220421104703831 -14.151103039188115 -16.208920069923209 192 141 120 255
-37.611307921360776 -13.430114973067816 -15.903907560063374 188 138 120 255
-37.839487869886057 -12.401507275384773 -15.822593221818863 178 129 114 255
-38.109116749989767 -11.448384546410693 -15.684755858178931 170 121 106 255
-38.541095618481279 -10.803547044234335 -15.323505596737590 160 113 95 255
-38.932478788261960 -10.081659647013311 -15.018120784358217 147 102 83 255
-38.922016629310235 -8.581643688629640 -15.268139750720223 122 83 64 255
-38.753681296078014 -6.765096455103105 -15.738088888089692 120 84 66 255
-38.988053990364449 -5.725100092598836 -15.651973637029982 94 62 46 255
-39.382613698042235 -4.997382352378509 -15.344136802150416 64 28 17 255
-40.055006012595470 -4.820747850688065 -14.650228480219539 60 22 13 255
-40.211174787267737 -3.621158576603762 -14.673528971475122 107 66 61 255
-40.881673878976699 -3.448036395539589 -13.981116750732582 135 91 90 255
-40.921082392067149 -2.008032766561485 -14.168097864408708 108 72 72 255
-42.139064895699974 -2.952172200648079 -12.709930581805111 23 5 5 255
-42.022748143517106 -1.191694838079741 -13.115183765671020 0 1 0 255
-44.677489813975782 -0.549763667525667 -10.367067495907605 0 2 0 255
-17.793712594127186 -2.225529293359671 -40.399379895997896 146 156 104 255
-21.371809512926063 -6.841436412724875 -35.792383029672465 188 152 126 255
-23.320461902551244 -8.703408050677069 -33.388842833796275 177 134 113 255
-24.541465802280072 -9.330928780582212 -31.970030590307488 181 139 116 255
-25.378310788922050 -9.302945766640676 -31.071709466428558 187 140 117 255
-26.759223513105781 -10.241758266001455 -29.430002310463664 180 130 107 255
-27.589500648620941 -10.225877737544380 -28.536795136124027 156 108 86 255
-28.041067207308913 -9.544445515387167 -28.159829057332644 116 70 47 255
-29.034167417515476 -9.834485831280517 -27.041457023688736 61 16 2 255
-32.725207401210895 -14.999854394496907 -22.223666308497741 190 146 129 255
