ply
format ascii 1.0
element vertex 665
property float x
property float y
property float z
property uchar red
property uchar green
property uchar blue
property uchar alpha
end_header
28.941857659594774 -11.763294904996897 4.022306093819140 104 76 49 255
29.073980266192990 -11.204875295310117 4.126356825685150 96 70 45 255
28.950740451842904 -10.527688044934990 4.057539908568856 89 64 38 255
28.657151755083930 -9.769390307392527 3.873429920532431 81 63 33 255
28.193116407968148 -8.928337595169850 3.573997054321808 74 60 30 255
27.899307088905829 -8.165525795036743 3.389723834952207 62 52 22 255
26.923732466742251 -7.073245721062122 2.744308197710154 48 46 10 255
17.775225016714927 -25.725310809148439 -3.191472769391339 202 168 140 255
18.836909289329498 -25.467823858705785 -2.458113320682287 203 161 137 255
19.983834874828545 -25.249243859214161 -1.667418316266350 203 161 137 255
20.961576107047989 -24.973585080020925 -0.991130318390475 203 161 140 255
21.939717086756815 -24.704290084416613 -0.314763475488860 202 157 137 255
22.069682932914475 -24.113330982915599 -0.210923636635641 201 154 134 255
22.454343055427643 -23.622547072841485 0.064701386462787 201 154 134 255
22.499613450159359 -23.000967389928107 0.111265120807985 201 154 134 255
23.139268816156118 -22.615074088422460 0.558725628624444 199 153 130 255
23.864115181754784 -22.267238892190136 1.063506046792810 197 151 128 255
24.589262241756217 -21.924114257628091 1.568336650244333 197 151 127 255
25.229754445794185 -21.551273106751566 2.015929962227062 196 150 126 255
25.530627726074698 -21.043825694413272 2.234397445273743 195 149 125 255
26.086601933802768 -20.643254076941901 2.624757434497354 188 144 119 255
25.962776840332765 -19.964435930342816 2.556743562202797 186 141 118 255
26.179007687729808 -19.426900265143601 2.717908151704790 179 134 113 255
26.565416169199409 -18.962338578744223 2.993685536535651 174 129 108 255
27.207152969495411 -18.608408574628484 3.441416520143434 168 121 101 255
27.338739759530597 -18.040719954100908 3.545273254370358 161 114 94 255
27.470397372461008 -17.473897787693616 3.649112768258419 153 109 88 255
27.602125621593387 -16.907934107268829 3.752934427985309 147 105 83 255
27.989279096918011 -16.454196503165477 4.028734975218782 143 103 81 255
28.206331410755695 -15.928134336433800 4.189869939144700 138 100 77 255
28.338335500463785 -15.365781370591009 4.293652736218831 134 98 74 255
28.129741064030441 -14.652501465240832 4.168029751222548 130 96 71 255
28.261819511391366 -14.090707265925047 4.271752534309542 125 91 66 255
28.393967365225024 -13.529721678157500 4.375453600296936 119 85 60 255
28.611400301975522 -13.008288350301314 4.536492702519467 113 80 55 255
28.488006060515033 -12.332093761038706 4.468057707177735 104 74 48 255
28.279334514377069 -11.615755605346038 4.342200755953058 99 72 48 255
28.411660125006136 -11.056285628768123 4.445779844780077 91 67 41 255
27.947087272841117 -10.218702572141353 4.147678050339181 84 62 35 255
27.823543636124128 -9.538510318003645 4.079020084691763 73 57 28 255
27.017462349088078 -8.534356724781389 3.551194631211615 62 55 23 255
26.381750328455666 -7.606256151625118 3.138023157555153 47 44 11 255
16.371153592949810 -25.998918452468047 -3.339120736510608 201 169 141 255
17.943681245606570 -25.923194940977922 -2.266892486748873 207 164 142 255
18.752473320564604 -25.572141655286572 -1.707601129052705 202 158 136 255
19.816436508572309 -25.322354765793392 -0.977207222556501 200 158 134 255
20.625945692775701 -24.982698636859780 -0.417776679179724 200 157 134 255
21.435788652678127 -24.648328444170872 0.141716398054768 200 153 132 255
21.820992108865170 -24.155246020328931 0.416140355399591 198 151 131 255
22.376387654920364 -23.730877877799657 0.804643453265157 199 152 130 255
22.591909532240692 -23.176808529424534 0.965041196866821 197 151 128 255
22.892579621027949 -22.657832893054007 1.182477580134929 197 151 128 255
23.533626289015160 -22.276386174880955 1.628097195552897 197 151 127 255
24.089864182507057 -21.864963291167427 2.016710930924120 194 147 124 255
24.646336666321787 -21.457165668466999 2.405357875345857 192 146 122 255
24.862608453784276 -20.914237376382246 2.565808275261446 191 145 121 255
25.589734475007560 -20.582506006848192 3.068626086205796 188 144 119 255
25.721170120727379 -20.008867559122791 3.172029561238247 182 137 114 255
25.767518968979090 -19.400628455089972 3.218348600086273 175 130 108 255
26.069427761823533 -18.900043151707237 3.435870467473251 168 123 102 255
26.627042914898368 -18.509537423273670 3.824635383055124 164 117 97 255
27.099684713882993 -18.086301773729886 4.156345977583101 158 111 91 255
27.231635667973876 -17.519778558867827 4.259721054711406 148 104 83 255
27.363656521604042 -16.954114540327822 4.363079618602200 144 102 80 255
27.666257804711762 -16.463544160446119 4.580617479942816 137 99 76 255
27.798450399126381 -15.900116034142869 4.683950393288399 130 94 70 255
28.101288105874289 -15.412849108551370 4.901479883914732 129 94 70 255
27.721826404318790 -14.624019293764988 4.662112147379247 125 91 66 255
27.598199657767481 -13.947369604300235 4.594019201839444 117 85 60 255
27.474543889217699 -13.269901033882675 4.525877888964146 113 81 56 255
27.606917903595502 -12.707848553386313 4.629065854304685 107 76 50 255
27.910098612443477 -12.224626659057336 4.846493867033388 97 70 45 255
27.871870103754162 -11.586107516149241 4.835376137769430 91 67 41 255
27.919045980722132 -10.986837687933345 4.881356828270896 83 62 35 255
27.112075943598342 -9.989434244342448 4.355853333199150 74 56 30 255
26.561118235561594 -9.107121112375069 4.001669947453337 63 52 23 255
25.582714147367454 -8.019296540346531 3.361611078751395 51 49 18 255
15.218959139652242 -26.372250665884138 -3.310233735276569 191 169 137 255
17.048729362421199 -26.382280893054173 -2.072288527109293 199 163 138 255
18.113773812674594 -26.121061566844062 -1.345104324560623 205 160 141 255
19.179249904620946 -25.866762191528480 -0.617829199514091 200 158 135 255
20.330240245325058 -25.651363510955733 0.166315365986776 201 157 132 255
20.715802180501584 -25.153113144191224 0.439510564225202 200 154 130 255
21.016418581407549 -24.624928735329789 0.655938097338407 199 153 130 255
21.317172118541265 -24.098789893893482 0.872376239581399 199 153 130 255
22.043803045832846 -23.740012177053401 1.372806339186212 198 152 128 255
22.430076321146032 -23.252627584544214 1.646087062824847 197 151 127 255
23.157241640630616 -22.902224224148767 2.146606683112680 195 149 125 255
23.799509470870447 -22.522664883262010 2.590369692856882 193 147 123 255
24.015977492079770 -21.976559631782195 2.750105878945675 195 148 121 255
24.317778617208830 -21.466334502519231 2.966659426003304 193 146 120 255
24.619715663584458 -20.958108903971691 3.183220152689927 190 143 118 255
25.262837209086513 -20.591690527997244 3.627097802943752 184 138 114 255
25.650389183870800 -20.123747560546448 3.900521439546168 180 134 111 255
25.867519529383145 -19.587335768596219 4.060286640957031 173 128 106 255
26.340685617737790 -19.159648221761046 4.390571325329120 165 120 99 255
26.472742391708351 -18.590867667017150 4.493496236997061 158 111 91 255
26.946243272860812 -18.168183597266676 4.823807968936592 156 109 89 255
26.993144220089306 -17.565652523198651 4.869867728388812 143 100 78 255
26.954705572530145 -16.926593566752658 4.859043790825297 139 97 75 255
27.172448178793246 -16.398655207946064 5.018777582643423 134 98 74 255
27.219474570421681 -15.797325754406117 5.064767039963726 129 94 70 255
27.608237025555894 -15.346926206088597 5.338223082472524 125 91 66 255
27.228193689269602 -14.557608041647583 5.099788704038986 117 85 60 255
27.018938261298359 -13.842257060221257 4.975045258146906 115 83 58 255
26.809620460441181 -13.125545034326692 4.850245524522393 105 76 50 255
26.771220291057546 -12.484950198153115 4.839172452015248 101 72 48 255
26.903835134341762 -11.922091643275152 4.941853472656732 92 67 41 255
26.865471719170131 -11.281440103107158 4.930710956830183 85 64 37 255
26.827110024664876 -10.640474121389957 4.919527933405647 76 60 34 255
26.189863416035223 -9.720365173147528 4.509927948697651 67 53 26 255
25.295675854711931 -8.675802269666434 3.929472302299530 52 46 17 255
22.347058324763537 -6.656434619561665 1.982788498747510 23 26 1 255
14.149450190191146 -26.781590456863015 -3.219999868306417 187 169 133 255
14.874730671092863 -26.381524053621604 -2.722200936342546 196 157 134 255
16.111338170071463 -26.173277459780607 -1.885156154482360 198 157 137 255
17.348442155864603 -25.973033833901937 -1.048001600186950 203 156 140 255
18.671246074597065 -25.812500859604967 -0.154197420393501 203 157 137 255
19.568478685128696 -25.500588001585882 0.457002576534478 201 155 131 255
20.039895036240353 -25.033247596638304 0.785532372926866 200 154 129 255
20.426260722080457 -24.536516301211449 1.057538660377276 200 154 131 255
20.983333421965966 -24.107952084461118 1.442680732694640 201 153 130 255
21.796496035619299 -23.782227121274232 1.997546704709549 200 152 129 255
22.439387422951626 -23.395110915539817 2.439343524381570 196 148 125 255
23.082545236097616 -23.012179453371871 2.881186126835189 194 147 121 255
23.555300993350301 -22.565686908502741 3.209923364882144 192 145 119 255
23.516154960069059 -21.917448872053768 3.199208708815178 192 145 117 255
23.818480930663640 -21.406697264224277 3.414804460381788 190 143 117 255
24.120942160049765 -20.897945564843241 3.630408566229221 187 141 115 255
24.423538451567680 -20.391186826883242 3.846020531544781 178 132 108 255
24.897100812213040 -19.956853932537612 4.174835477018974 170 124 101 255
25.199999194166168 -19.454600452336805 4.390470714795669 167 122 101 255
25.930272903019215 -19.133121227668724 4.889146646597226 165 120 99 255
26.062592448832106 -18.564094488152691 4.991594103179210 156 109 89 255
26.536903837668063 -18.141149019054552 5.320492648273387 150 103 83 255
26.669426028991893 -17.574948499647618 5.422932300856843 143 100 78 255
26.545476735507947 -16.899080746089311 5.355482748451124 136 94 72 255
26.507027557564243 -16.259554171236317 5.344620888200069 125 91 66 255
26.383035387949832 -15.582403934574259 5.277091192824429 121 87 62 255
26.772386116731496 -15.130394228662951 5.549351799177344 114 82 57 255
26.648431537322352 -14.453280472887130 5.481762370083743 111 81 55 255
26.438851883632452 -13.737160857035846 5.357479896334098 107 77 51 255
26.314820005856603 -13.058149252879815 5.289795483420477 97 69 45 255
26.019502782621259 -12.300829440386920 5.108749564982702 91 65 40 255
26.323593838812258 -11.814667212242270 5.324274044044273 82 60 33 255
25.599898924286919 -10.858973411742596 4.859793449715454 78 60 34 255
25.390000796805396 -10.135947396625326 4.735228716550466 68 54 27 255
24.323115020349150 -9.013237380832507 4.043839819559082 55 46 18 255
22.398753189470057 -7.482669741062352 2.785482814981776 32 32 3 255
11.884098036835894 -26.770695949627608 -3.913388601709443 204 170 137 255
13.718684305072998 -26.760275344593182 -2.686098708743003 199 163 133 255
14.786368089009329 -26.483530920940765 -1.965269837707410 197 158 132 255
15.854482599887547 -26.213717665893029 -1.244347144037306 199 154 134 255
17.264325805627834 -26.076588881487496 -0.298125515917661 200 154 134 255
18.589388948823654 -25.916826871094997 0.591918712077756 202 155 134 255
19.488194171456286 -25.605704084736189 1.200531744757996 203 155 133 255
19.789749652832228 -25.074676858827544 1.415018405598232 202 154 131 255
20.433000370241786 -24.675772994076695 1.854794000611264 200 154 128 255
20.820299192130591 -24.182710677582136 2.125647669924632 200 154 128 255
21.207766369379755 -23.692227764175414 2.396522508374602 199 153 127 255
21.851717777446567 -23.304297474010397 2.836414668079811 195 149 123 255
22.752299900840455 -23.021341047348770 3.445363709477988 191 145 119 255
23.311360230564759 -22.608718030607591 3.829021658521469 190 143 117 255
23.528703015570443 -22.063184570259864 3.987334659283079 188 139 111 255
23.746148000718932 -21.519118851469912 4.145648790182292 187 139 112 255
24.049215143368258 -21.011189688949898 4.360318075229344 183 136 111 255
24.266880224546696 -20.470308248228889 4.518637433899897 179 132 108 255
24.741305083649792 -20.036521417050366 4.846047032658930 169 122 100 255
25.301498048674205 -19.641281225779295 5.229850926912604 161 115 93 255
25.861922445693921 -19.249635304665148 5.613689712091912 151 106 85 255
25.823366999733537 -18.609388530960928 5.602922984255940 150 103 83 255
25.956050295986927 -18.041531458871461 5.704889998225042 144 98 77 255
25.917533244645483 -17.401407136013873 5.694072437979599 135 93 71 255
25.964669190268637 -16.797899557111577 5.739614828645415 131 89 67 255
25.583506579165146 -16.009156190933226 5.503157547806211 118 84 59 255
25.544947746058483 -15.367527675635856 5.492231485779598 117 85 60 255
25.592090031542739 -14.763301803831510 5.537677235222276 112 80 55 255
25.896413050052104 -14.273127107295153 5.752326743603589 106 76 50 255
25.772208662615469 -13.593888307390500 5.684909318791171 94 67 40 255
25.905217035394571 -13.029225465762167 5.786703753414827 92 64 40 255
25.266412268065835 -12.116738688069844 5.380671299267988 83 58 33 255
25.056283310176610 -11.395194156561018 5.256677170073544 75 55 30 255
24.245511328206391 -10.397303311807818 4.737597916906935 66 52 25 255
23.005380619458322 -9.196449950396968 3.936208396234036 54 44 17 255
20.649011312107206 -7.469957594578887 2.400898331822106 43 35 7 255
11.662269110395272 -27.494436231120488 -3.250651501770562 202 182 147 255
12.474785371603957 -27.114054903741206 -2.701214561922171 206 169 142 255
12.945982986222049 -26.616488771214804 -2.375923594395402 201 162 136 255
14.357102768503239 -26.461958096962064 -1.433958001770691 201 156 135 255
15.939673958046370 -26.378846726925232 -0.379737226988425 199 154 135 255
17.266485471247591 -26.211586298380595 0.506429939430518 199 154 133 255
18.337390285740298 -25.957747267438108 1.224503861887172 201 154 133 255
19.066747068647345 -25.582924713116270 1.718369000612768 203 155 133 255
19.454359965661041 -25.083879390110184 1.987972226393936 201 153 130 255
20.184248776946873 -24.717481845065748 2.481936968904478 198 152 126 255
20.828892649609486 -24.323043620743775 2.919870788827780 196 150 124 255
21.217123392083408 -23.833643904895126 3.189573150257985 192 148 121 255
21.691097502774568 -23.380140574038592 3.515395297274324 191 145 119 255
22.250863660891270 -22.963336372987357 3.897350152637443 189 142 116 255
22.639645263533282 -22.482447514912835 4.167130267178180 188 141 115 255
22.942969071301121 -21.969980796156037 4.380819717490880 185 135 109 255
23.417709007381575 -21.528325968087969 4.706751920028665 184 134 109 255
23.806990722236918 -21.055079980372355 4.976592596142808 179 129 106 255
23.939418000151733 -20.479542007311849 5.078078313321413 169 121 99 255
24.414673035029097 -20.045759522849906 5.404072945256786 160 112 90 255
24.890126455783985 -19.615037814288584 5.730095063997140 147 101 78 255
25.280055611408955 -19.151617538661512 6.000005935861140 122 76 53 255
25.155717950883769 -18.474565712531913 5.933077077131742 139 93 70 255
25.288614975470551 -17.905648632585553 6.034553010619305 135 90 67 255
25.335807952514187 -17.301036366897506 6.079866157085121 128 87 62 255
25.468822863946173 -16.733578356604056 6.181315437954368 123 86 60 255
25.258689272199007 -16.018551492757894 6.058108029956770 117 83 58 255
25.134312014087016 -15.339578720117302 5.991017145837276 112 80 55 255
24.924066951911783 -14.622169010825147 5.867715064791383 104 74 48 255
25.143020779100084 -14.093009036448279 6.025237696257165 102 74 50 255
25.362072824825105 -13.565209532395926 6.182755428437019 92 66 41 255
25.323567274811040 -12.923380364819124 6.171714539708091 83 59 34 255
24.340145747034484 -11.855214539388982 5.542559722789974 74 52 29 255
23.785954543444831 -10.975798939356665 5.194235826089255 64 48 22 255
22.114425427210165 -9.582241153132415 4.115239560692885 52 39 15 255
11.440640557355948 -28.217576398028129 -2.588327757214785 202 183 148 255
12.596464757822673 -27.955147316800605 -1.818044972216057 210 176 149 255
13.325083000709981 -27.548431081163372 -1.326731684442791 209 169 144 255
13.626250434916642 -26.993382946999247 -1.114453733457452 203 161 139 255
15.039916152618758 -26.842039628013623 -0.176448203871132 202 157 138 255
16.454141657176109 -26.699783125875527 0.761688681915643 199 154 135 255
17.783327766260385 -26.535176257073005 1.644124141542818 198 153 134 255
18.256888228945030 -26.062091484218229 1.968311717535300 199 152 132 255
18.816280699534531 -25.624121857980739 2.348374591476954 200 152 130 255
19.118962565261995 -25.093107626651701 2.560942270199234 198 150 128 255
20.107092318102417 -24.824227710896395 3.220327414761925 196 150 126 255
20.924256645444672 -24.496149080352964 3.768089040396745 195 149 125 255
21.570357567529499 -24.107248631346508 4.204200256231275 193 149 123 255
22.131010116576249 -23.689221611540432 4.584497656905853 191 145 120 255
22.348977362337251 -23.140486898819958 4.741363395088001 188 141 116 255
22.652791493457130 -22.627093151922580 4.954106048479360 182 134 110 255
22.956739304663074 -22.115714710969385 5.166861587817579 178 128 104 255
23.175042444190751 -21.571946591664116 5.323748089000645 175 125 101 255
23.307651845705607 -20.994972017655414 5.424751612654632 169 120 97 255
23.440329144795584 -20.418911930255121 5.525748643349147 165 117 95 255
23.916382036609576 -19.984592146709403 5.850318690237231 156 108 86 255
24.650162381812606 -19.659768897744073 6.342616062887259 145 98 78 255
24.954940147050593 -19.160877758819979 6.555448648077657 132 85 65 255
25.002222545890305 -18.555895741143956 6.600565143410478 129 82 62 255
24.791862841849479 -17.842381652394550 6.477924033927422 128 85 63 255
24.667347769760255 -17.164132952679950 6.411154650861306 120 81 58 255
24.628725908248924 -16.521952413649544 6.400270091676532 116 80 56 255
24.761986743731597 -15.953744653135388 6.501210470784230 110 76 51 255
24.465527318045105 -15.199520121316127 6.322481924350598 105 73 48 255
24.168970572488348 -14.443422492647301 6.143695489293776 96 69 42 255
24.216275197327775 -13.837098505085393 6.188613731363688 89 63 38 255
24.435624174260994 -13.307421005600204 6.345400774131633 79 57 30 255
24.052914241155520 -12.509899257938372 6.110532784060808 72 51 24 255
22.895726187164598 -11.361370006997248 5.372001398478318 61 45 19 255
21.393894469195857 -10.049488968562571 4.409476677716441 51 37 10 255
10.791100745816181 -28.792410931023923 -2.204251123784843 197 188 147 255
12.119843314558921 -28.584770964927657 -1.326201592644509 212 184 154 255
13.449113225986139 -28.385700876083291 -0.448027157592946 209 175 150 255
14.693239307079011 -28.164844344113760 0.374691302646994 206 165 143 255
14.481176582674721 -27.431462002215397 0.252579786622903 203 162 140 255
15.211792643379198 -27.036725547370551 0.741918215506701 200 159 139 255
16.199866476698844 -26.740244246922984 1.398100513557978 200 155 137 255
17.359808405457528 -26.513008316601528 2.165567750645920 199 154 135 255
17.576934435285267 -25.944557009369618 2.321511790060754 198 151 131 255
18.051468739207905 -25.473535326318057 2.644285450133168 199 151 129 255
18.697772737104799 -25.070125402797757 3.078316621885591 197 149 127 255
19.944950436541177 -24.898469574369358 3.901711112973800 196 150 126 255
21.020985399234519 -24.669240282305367 4.613978615893387 193 147 123 255
21.668278054628786 -24.281678545603157 5.048217841685243 192 148 123 255
22.058284201759307 -23.798364440050193 5.315620252174341 188 142 118 255
22.104990633709292 -23.183279727361523 5.360511587930546 182 135 111 255
22.237615337547027 -22.602453663447704 5.461028791647152 177 128 105 255
22.628004939240071 -22.124937369894866 5.728470197276465 165 113 91 255
22.846729351809358 -21.581181078821359 5.884639822783697 160 108 86 255
22.893690673099030 -20.969558354406644 5.929510246808576 159 108 87 255
22.854738839512521 -20.323376201234581 5.918710136828309 154 103 84 255
23.159645333453085 -19.817838787712418 6.130529045931183 152 101 82 255
23.636644461490391 -19.385231056445619 6.453690297889409 137 90 70 255
23.941846987167452 -18.884187946374510 6.665541500830415 126 79 59 255
24.161167940366255 -18.349095886618741 6.821729319424321 125 79 58 255
23.864412193861796 -17.597708183123544 6.643844996156048 118 76 54 255
23.911741386231711 -16.990709346295063 6.688640709265229 112 74 51 255
24.045165270176540 -16.420857042496166 6.789106570997433 108 73 48 255
24.695122553797205 -16.074442258278410 7.223719290254394 103 71 47 255
24.312208393143379 -15.283702630345971 6.990009937763801 95 65 41 255
24.101384753573910 -14.565827341291580 6.867638722785273 86 60 35 255
23.718241572271040 -13.770791429707074 6.633806481723070 80 56 32 255
24.110255322923848 -13.316952730210858 6.901307965371075 70 52 26 255
23.296198824314843 -12.327215289234758 6.388803238052475 69 54 25 255
21.620090899359155 -10.945069812645542 5.318977742202009 57 43 16 255
19.081442898044713 -9.162358718095490 3.691689867845469 44 33 5 255
3.654365332103112 -0.804079136801022 -6.251962300452618 36 34 13 255
10.356305733033139 -28.772352090951784 -1.663330007620800 208 184 151 255
12.116126010111628 -28.713442597715243 -0.512381536090231 215 184 155 255
13.276092794543871 -28.455248891219185 0.251344061567380 209 174 150 255
14.779753458379759 -28.325932615665039 1.236562950265039 205 164 142 255
14.824989588718154 -27.685770338895225 1.280964603896621 200 162 139 255
15.556988897707186 -27.293171204104155 1.768199929876857 198 158 138 255
16.203428784948159 -26.874195360784299 2.200139374869053 199 153 137 255
17.279500175597946 -26.616576913820793 2.908952441182947 197 152 133 255
17.411213233322059 -26.017246286390787 3.008812862764756 196 149 130 255
17.800712987801688 -25.514795584890422 3.274791992233446 197 149 129 255
18.963678947280954 -25.305041229687745 4.039192062065723 195 147 125 255
19.869288859180386 -25.005224238889795 4.637553771503917 190 144 121 255
20.689305452102559 -24.678457511759348 5.180608923005479 190 144 121 255
21.079795510454034 -24.191760211259691 5.446781973064020 185 140 117 255
21.728413118747540 -23.807572142033465 5.879165227885466 180 134 111 255
21.861272235276232 -23.226085308303979 5.979203789813909 173 125 103 255
22.080218714609089 -22.679393264913585 6.134643977791569 164 115 93 255
22.471337304092486 -22.202418994428768 6.400907195502839 153 101 80 255
22.690515748001701 -21.659212967625777 6.556368430711927 132 80 59 255
22.823724852291633 -21.082809230300853 6.656417646134031 137 84 66 255
22.612660654100523 -20.367599270675740 6.534775084283751 132 81 64 255
22.659836309796873 -19.756738277417938 6.579371080792129 137 86 69 255
23.137633055289854 -19.323590737121052 6.901107856105625 128 80 61 255
23.529492011372355 -18.857756801702251 7.167439916110141 120 73 53 255
23.835364097311640 -18.358418741949109 7.378353232120418 113 68 47 255
23.538202249703261 -17.607068126941869 7.201165760946679 110 68 46 255
23.499490501459320 -16.963538962786615 7.190273310382139 106 69 45 255
23.374579527038549 -16.282966073738308 7.123901232216468 103 69 44 255
23.680711107986980 -15.787089612194720 7.334785737016233 96 64 41 255
23.210889163019601 -14.956862463472518 7.046512861500219 87 59 35 255
23.172141729809567 -14.311855174389208 7.035504628747276 79 55 30 255
22.615808958320031 -13.439154146737778 6.691634548700364 71 51 26 255
22.749520993183381 -12.868352257876083 6.791495630997019 62 46 20 255
21.761441220389742 -11.798528496290984 6.170085213894055 52 40 13 255
19.996185704503148 -10.373970881354325 5.049165690477253 48 34 8 255
2.216729024955754 -1.012983682921273 -6.350112277196757 47 38 15 255
8.760371209690504 -29.027717811886575 -1.882075960790900 200 185 148 255
9.749434016625059 -28.693268083305426 -1.232116894474188 212 181 153 255
11.340282420698372 -28.573876140030762 -0.196344434885731 216 184 157 255
12.502108927498654 -28.314298189915263 0.564044845892425 212 176 153 255
13.750341368020543 -28.092552002698142 1.379655474393246 205 167 144 255
14.483296547989966 -27.695149952002637 1.864687080064186 200 164 140 255
14.958615018983551 -27.209885950649408 2.184421833371914 203 158 139 255
16.036092584530508 -26.945845414252304 2.890069910335654 199 156 137 255
16.855965572198386 -26.594470276827693 3.430429364964027 194 149 130 255
17.418087219709292 -26.153330695624405 3.805460082483222 190 144 124 255
17.808353885018050 -25.651955891480640 4.070260158201279 193 146 126 255
18.973320816194018 -25.443243698273903 4.831373015032710 191 143 123 255
19.622292477389635 -25.046984767417555 5.261710202081048 184 138 115 255
20.271527226732729 -24.654931280151743 5.692101336301278 187 141 118 255
20.490483817774816 -24.101888320084086 5.846765388797763 177 132 109 255
21.312411623169567 -23.783494595137867 6.387562359989943 170 124 101 255
21.445540910084389 -23.201749850198510 6.487109450754190 164 117 94 255
21.751051110810778 -22.688643306700897 6.696994549825632 153 104 82 255
21.884346449681146 -22.109319909442718 6.796547850506727 144 92 71 255
22.190087310249254 -21.599699986352533 7.006456293592208 127 74 56 255
22.409753569092516 -21.057426325375062 7.161197194719335 117 64 46 255
22.543296163246083 -20.481681958220591 7.260756585833491 104 53 36 255
22.504427653470486 -19.836452783597423 7.249928280027575 122 70 56 255
22.810578017436740 -19.332911081861411 7.459864810995185 113 64 47 255
22.944316749476741 -18.759869430318858 7.559412735887037 114 67 49 255
23.164407506003869 -18.223720732249774 7.714161744300867 109 64 45 255
23.039381558580999 -17.543879623251527 7.648073143273734 105 64 44 255
23.086961716410229 -16.936382024413817 7.692381350309518 99 63 41 255
22.961901338768882 -16.255567284759806 7.626235111584492 94 62 39 255
22.923159295327849 -15.611071461621876 7.615278805999623 89 58 35 255
22.452572876590324 -14.779535994456964 7.328153056084602 81 53 29 255
22.327360963629502 -14.095569319614313 7.261888555330358 73 51 26 255
21.683707677590377 -13.183390873851081 6.864159882680070 64 47 21 255
21.385493323804781 -12.419844060574192 6.687309611922700 56 42 15 255
19.790673803427410 -11.077726107811202 5.681693455804236 44 32 5 255
3.197006699095738 -2.320277563718975 -4.894916315276760 55 47 21 255
1.338446939355094 -0.788073808625924 -6.067637642754079 45 37 14 255
7.204855245837564 -28.627643406896880 -2.050031696843433 203 178 149 255
8.367425951103712 -28.348456998275680 -1.293254394580828 214 180 155 255
10.390957763456640 -28.374783004768304 0.012319238781316 217 183 159 255
11.554611743144648 -28.113281233326376 0.769362713323346 214 179 157 255
12.632642940562022 -27.828927924485882 1.471639575120236 208 172 150 255
13.538903362299749 -27.490300834766359 2.064254574095941 208 167 149 255
14.617755888112413 -27.219292368198126 2.766725659497126 207 164 147 255
15.955429416120467 -27.048660632055800 3.633969762622456 197 157 135 255
17.293626940184026 -26.886573252254337 4.501341426220421 188 148 123 255
17.943036045868098 -26.479533615505005 4.929644524661740 187 145 121 255
18.161806815296330 -25.916938266492465 5.083483960828602 189 144 121 255
18.897857151174350 -25.549218085981906 5.566784986143432 185 140 119 255
19.203138522601364 -25.023774510658882 5.775586051583218 177 130 112 255
19.853468583826640 -24.631437950007154 6.204075805354620 178 131 113 255
20.072833971294870 -24.078131376793948 6.358011341842627 162 115 95 255
20.982391757108019 -23.792751037680006 6.951366841538515 160 113 93 255
20.943251853365723 -23.143870247209819 6.940564929277684 156 107 89 255
21.249289833290618 -22.630227415602931 7.149486058535757 146 97 80 255
21.382837996281069 -22.050375717944576 7.248545154393156 134 84 67 255
21.775432037445910 -21.574602727691570 7.512436207484086 120 67 51 255
21.909160242249527 -20.997414685627220 7.611506614206007 89 33 21 255
22.042953677791843 -20.421142795384242 7.710575274024535 78 24 12 255
22.004061060477795 -19.775394162134191 7.699726000596002 88 36 23 255
22.310735166806182 -19.271317636289396 7.908705619672787 101 53 38 255
22.531130710887226 -18.733482321921528 8.062733411861785 108 61 45 255
22.838047226846442 -18.233076889564501 8.271738384417063 104 59 41 255
22.799330350268946 -17.589535899748853 8.260853264794918 98 58 38 255
22.674155104467786 -16.909239059036722 8.194964767001466 95 60 35 255
22.116579925489731 -16.044106587262760 7.854117441190425 89 58 33 255
21.904764899348152 -15.323839347741995 7.733150760919131 82 54 32 255
21.260354054915894 -14.415469126398420 7.337168817517551 73 48 26 255
21.221366092491422 -13.766449548409099 7.326091254388217 64 46 22 255
20.403531201490580 -12.776089038079874 6.819954399508305 54 40 14 255
19.498845416390623 -11.742412970215867 6.258699594985472 45 35 10 255
15.996707743001878 -9.549821150340918 4.046933138987697 35 25 0 255
10.848110056513775 -6.599710760531920 0.789429176814281 29 19 0 255
3.186090710186534 -2.486751820490042 -4.064305009273539 38 32 8 255
0.804995636239312 -0.720220488961175 -5.562240959127649 48 40 17 255
-47.162164105021787 -18.745438833717188 -35.883576314523907 165 117 95 255
-45.408235815545908 -18.446079971016573 -34.751313931168966 157 112 89 255
-44.685910466135311 -17.832775291520349 -34.273957001914681 151 110 86 255
-46.114305118468820 -16.539952773054111 -35.161391168518207 140 105 78 255
-46.682643862579681 -15.514967908542090 -35.502987496967307 131 100 72 255
4.309384191035065 -28.460236182505128 -3.073928525622222 188 183 146 255
5.731642046504533 -28.256975035562661 -2.156776822730251 202 173 149 255
7.585312771384224 -28.210475255817059 -0.966338002500720 216 182 157 255
10.043014910067598 -28.384364716468511 0.606722070082981 219 185 160 255
11.294814217964102 -28.152889360644608 1.415088458326096 215 180 158 255
11.771126330463261 -27.656416705669585 1.731789645575617 206 170 148 255
13.109998522972262 -27.469172047571689 2.595004833360292 204 163 145 255
14.276889642956831 -27.228733071964939 3.349045712777666 201 158 141 255
15.961851334773144 -27.182629978744771 4.431135041060173 195 154 132 255
17.129756688469882 -26.958746717411557 5.185424911023091 191 151 126 255
17.866613855982223 -26.583912453401240 5.666500164690916 187 145 121 255
18.085861107199861 -26.022128750155716 5.819624164998828 183 138 115 255
18.391541714202106 -25.494090226764712 6.027434436251411 179 134 113 255
18.611004202273762 -24.935616921574891 6.180587019984301 161 114 96 255
19.435129808480525 -24.607978019975363 6.716531903649184 160 115 96 255
20.000434358339419 -24.186527059959758 7.088488298911329 146 101 80 255
20.738765278714993 -23.835330396702375 7.569875283612760 141 97 76 255
20.440408890234607 -23.086028017430266 7.394969308473691 137 92 72 255
20.660543503456978 -22.538008460544177 7.548225046375364 125 79 60 255
20.707880814237853 -21.923248421255295 7.592079502389538 120 71 56 255
21.101106134475486 -21.446394727448407 7.854765059607416 109 59 45 255
21.148573381417464 -20.833488973893353 7.898619544223465 92 40 27 255
21.455561811465344 -20.325715745075883 8.106621494786822 70 20 8 255
21.503141638817254 -19.714365058706562 8.150469845591061 65 15 5 255
21.637281846276124 -19.138834391938204 8.249035815571574 74 28 13 255
21.598395418272020 -18.492738992255227 8.238134552690894 90 46 30 255
21.905753090322634 -17.990446215420164 8.446161808909636 93 50 33 255
21.693772725923253 -17.272493668345405 8.325753628823264 89 51 31 255
21.654912973603359 -16.626328153010334 8.314798504347948 84 51 28 255
21.269609704231783 -15.832698472151975 8.084817344223950 77 48 23 255
21.057426389979980 -15.110837407908207 7.964288159364742 71 47 23 255
20.325318119118577 -14.163540793423991 7.515156118717329 62 41 18 255
19.852923057395685 -13.324532277297607 7.230221202368227 54 37 12 255
19.033660056732884 -12.330979673466729 6.726137902225929 44 32 6 255
17.520567073271764 -11.026957955040388 5.783753273983137 30 20 0 255
14.793005844096314 -9.175326995774512 4.074282057327821 29 22 0 255
10.329947304112494 -6.532429027011787 1.268826509611273 30 20 0 255
0.270993620462036 -0.652372410884610 -5.055904659841275 45 37 14 255
-48.617378668136183 -20.145066488877646 -35.809470673826809 172 121 102 255
-48.325363833889043 -19.383763166218472 -35.606233334040724 171 116 98 255
-45.793850810961686 -19.315307192589117 -33.989956211805321 164 116 96 255
-44.725828743913354 -18.806866867282295 -33.297390330379756 163 117 97 255
-43.829700719629187 -18.251241299392305 -32.713429100258622 159 113 93 255
-43.967345966241027 -17.373095988635498 -32.781697344864909 160 116 95 255
-43.846434644332732 -16.577342282967322 -32.686890809978280 156 115 93 255
-44.587559367134332 -15.503571114438401 -33.135762316489917 160 116 95 255
-45.932527727605049 -14.228237809605375 -33.965325521482328 163 119 99 255
-47.450465447433515 -12.887922953197233 -34.903786462584719 159 119 97 255
5.418722925453636 -28.962847603414687 -1.538888621319046 197 180 149 255
4.427435870387967 -27.944957848742561 -2.148624694036727 206 176 152 255
7.319669139137545 -28.249719677658078 -0.310687848194220 215 181 156 255
10.213012110616177 -28.572748555674082 1.527539703060000 219 184 160 255
11.639669902716264 -28.402969130859972 2.441190175436788 213 178 156 255
12.203312538881079 -27.938971713501545 2.810896172806991 208 172 150 255
13.026305854642715 -27.570492773056770 3.343891533903843 202 162 143 255
14.367964929730050 -27.392562367103139 4.203467958759205 198 155 138 255
16.055770416873600 -27.347742307398235 5.280861805290925 190 149 128 255
17.312117658149106 -27.156574763873707 6.086290296863979 183 142 120 255
18.050324055873972 -26.783335697701091 6.565255669745227 172 130 106 255
18.443006065107255 -26.287067104838812 6.826547637890059 173 128 107 255
18.662910231786043 -25.728965237312053 6.978991524623751 169 124 103 255
18.623451558218477 -25.074919829723825 6.968115989702284 153 109 90 255
19.016511192712159 -24.584551960626158 7.229469189512287 134 91 72 255
19.236694700704533 -24.030714525896144 7.381946359893192 131 90 68 255
19.716584177288325 -23.578262752509218 7.697808202242726 120 79 57 255
19.590803317859837 -22.893961438034552 7.632473792923776 125 84 66 255
19.984400869565292 -22.411998577216551 7.893914165805910 119 76 59 255
20.464745441485178 -21.966697414521079 8.209854503553601 102 58 42 255
20.858683517504943 -21.490111000781042 8.471356719082252 90 45 32 255
20.992931516123889 -20.912133363241693 8.569446502784615 81 35 23 255
21.040609880271461 -20.300157556670669 8.613052146086261 74 28 17 255
20.828369976033088 -19.582996152691081 8.493181029467621 67 22 13 255
20.789395384782239 -18.935485375690789 8.482260960121039 56 15 3 255
20.837101055123753 -18.323512674778272 8.525820416267067 70 31 16 255
20.884836893583781 -17.711885153146909 8.569369681194900 77 39 21 255
20.845887756043993 -17.064328786158171 8.558400764434168 78 44 23 255
20.633473436536832 -16.343487570175753 8.438387319149768 73 44 21 255
20.507738082921634 -15.658150391944545 8.372851541217102 67 41 16 255
20.208439274695991 -14.897887103501077 8.198242673555910 61 40 15 255
19.214799692605965 -13.836973871294489 7.587376728155846 52 34 10 255
18.394390110061352 -12.845092332459984 7.085448082329862 46 30 5 255
17.226433122430677 -11.696514523938930 6.365272400189809 36 24 0 255
16.144876559429150 -10.578781503175975 5.699492559462243 30 20 0 255
14.455008890982725 -9.185233312870437 4.651765479269329 28 21 0 255
11.722181449964154 -7.316639735132782 2.949246459408954 28 18 0 255
5.600113759841406 -3.910882312463528 -0.881187965597491 29 21 0 255
-48.662360675046983 -21.126714552562618 -34.823367168531178 185 131 113 255
-47.421194828851384 -20.651603182388371 -34.025983230474566 181 128 108 255
-47.042037903562090 -19.921697611933027 -33.769548547377980 175 121 104 255
-45.541245527505083 -19.539798668386965 -32.809621140930659 170 123 104 255
-44.643841648830545 -18.979812350532654 -32.228356380867325 166 118 99 255
-44.522766689992437 -18.181883255704790 -32.134088799460500 171 120 101 255
-43.365835325848963 -17.713456485083725 -31.390309204643387 164 112 93 255
-42.208442921110731 -17.252574595939464 -30.646414138478690 167 114 97 255
-42.173113881231615 -16.436455397582620 -30.606146204334749 173 123 106 255
-41.965018715562536 -15.677220327091959 -30.457601603073982 160 116 99 255
3.335438127066993 -28.393024064370422 -2.015418879851950 202 172 149 255
4.330212780522686 -28.042589147215494 -1.377108892644941 205 174 154 255
7.054292809151178 -28.288997764198740 0.344510566714945 209 176 152 255
10.471111291461568 -28.790916497185492 2.499725204919258 215 181 157 255
12.592061586569571 -28.863440782504284 3.842743051266126 212 177 155 255
12.637962505249902 -28.221495562361298 3.885798161007358 206 170 148 255
13.202962008722636 -27.763619904969900 4.253922151692876 200 159 141 255
14.546933102914096 -27.587255446738595 5.109743603127072 193 150 133 255
16.237598757972449 -27.543986358060749 6.182446068772151 183 140 121 255
16.976762975848771 -27.165955781518903 6.659205760811375 177 135 113 255
17.456494246496561 -26.697669579376310 6.973445236665214 162 120 98 255
17.936421720641135 -26.232530512504255 7.287726239780312 158 116 94 255
18.416545149709464 -25.770532539581566 7.602048472084675 148 105 86 255
18.463742304386670 -25.149253163611704 7.645362880720938 132 91 73 255
18.770894329314018 -24.626665828266070 7.851315702321131 121 82 63 255
19.251490332277314 -24.172167423836243 8.165728326572662 117 80 60 255
19.472261806420647 -23.620909143691208 8.317511181531842 114 78 59 255
19.606441021908068 -23.037580985066612 8.415078889905345 95 58 41 255
19.653978948463077 -22.421366931315333 8.458417541618900 96 58 43 255
19.874992270338652 -21.873754097912325 8.610223643493811 91 52 38 255
20.096101898434938 -21.327612138448202 8.762041299202622 80 43 31 255
20.317307543768834 -20.782933970552108 8.913870155175488 71 34 22 255
20.538608912397024 -20.239712430919170 9.065709856628843 66 29 19 255
20.239284162977810 -19.486854382405042 8.892030099409425 64 25 17 255
20.113465818367217 -18.803099088752717 8.826824850027293 58 23 11 255
20.161251093934311 -18.190058967857937 8.870121025790581 65 32 17 255
20.035394427118831 -17.505380851446390 8.804870845942474 69 37 20 255
19.909501841134158 -16.819958339827082 8.739592959316383 66 36 17 255
19.609836555562140 -16.060717816578972 8.565731165662356 63 36 15 255
19.570723046083060 -15.410041981752528 8.554669753518112 60 37 14 255
19.010200608874868 -14.536694392069137 8.217865977803882 52 34 9 255
18.101810100660174 -13.510481470809410 7.663819688274714 44 27 3 255
17.193089016014795 -12.478603041825465 7.109660053591909 39 23 0 255
16.631835130942761 -11.592591440126085 6.772590158942421 33 21 0 255
16.070379959991413 -10.703057810832689 6.435442605444450 34 23 0 255
14.812866213333706 -9.502563140398806 5.663734790702421 29 22 0 255
12.684905957322627 -7.907184946388512 4.348724388168421 29 22 0 255
7.336614135027560 -4.856544453109024 1.023641781597803 29 24 0 255
-0.363508070150715 -0.712907487550268 -3.768791184314750 27 28 2 255
-47.359345362475409 -23.348884395955011 -33.017024724812671 194 140 128 255
-48.965461830903251 -22.029838244988909 -34.000622152249690 192 137 121 255
-48.585987835988050 -21.293374121665011 -33.745511792608596 188 136 115 255
-47.947230461888040 -20.637701690495518 -33.328757077168945 188 136 115 255
-46.876267962295145 -20.117811853778832 -32.642572907185837 185 133 112 255
-45.372856538470813 -19.737735920084432 -31.686893254235258 181 132 115 255
-44.214535063104989 -19.260075765560728 -30.946587191491432 179 129 110 255
-43.142189319099003 -18.762878965789113 -30.260049839014357 180 129 110 255
-42.328773987658366 -18.190604205454633 -29.735075910990474 177 124 106 255
-40.736806743644337 -17.872417400879129 -28.724965857503378 176 125 108 255
-40.527982259928223 -17.118028344143781 -28.577085707463993 176 124 110 255
-39.800046120730229 -16.534277397574542 -28.105763936631291 169 123 108 255
2.198708654147566 -28.142161678292695 -1.889461067217610 208 173 154 255
4.926339326620251 -28.374222815996887 -0.175610045341045 210 176 159 255
6.009938513476186 -28.062657321133130 0.513921464467188 210 176 153 255
11.250720355488482 -29.187787847605406 3.792226996243386 214 180 156 255
12.682410960649122 -29.023282948976075 4.697926573554071 209 174 152 255
13.161708365097070 -28.534312798919998 5.010434208775337 204 168 146 255
13.034667567567993 -27.834362345852227 4.945378075793883 195 154 136 255
14.640878096007867 -27.751074739477559 5.959271678320164 187 144 127 255
16.074346686722777 -27.615688735279193 6.865419236634665 177 134 115 255
16.901492578353583 -27.269574857343912 7.394006757341316 171 129 107 255
17.295400038393211 -26.770413753320284 7.652863641053472 154 112 90 255
17.862928789131558 -26.337742351165829 8.019686903717712 144 102 80 255
18.430685366679086 -25.908751253316851 8.386561484848102 131 88 69 255
18.478099990828241 -25.288558033330503 8.429634887268520 118 79 61 255
18.525546968823164 -24.668798918513858 8.472704997793812 110 72 54 255
18.746614186966298 -24.115504040750068 8.623740235620687 99 64 45 255
18.880967873302410 -23.530419789410033 8.720800621492145 91 58 41 255
19.102212150559836 -22.979845965114166 8.871859114501262 91 57 43 255
19.149867020182683 -22.363102225068133 8.914935078959275 78 44 32 255
19.371270969202243 -21.814952097888707 9.066010941138472 72 39 26 255
19.766521189575798 -21.337007268376667 9.325113570664769 67 36 25 255
19.901257060277914 -20.757694924336377 9.422212021968704 59 30 19 255
19.949147657207845 -20.144392546259269 9.465297282090773 55 26 16 255
19.388599519931375 -19.285220217136853 9.130231180545707 49 15 8 255
19.349495155174480 -18.635310898276117 9.119245770081392 48 17 6 255
19.571257063895729 -18.092366521014284 9.270333349568006 56 27 13 255
19.619167066304612 -17.478873081513598 9.313362691856753 58 29 14 255
19.580116371761335 -16.829458788172460 9.302344923750383 58 31 12 255
19.106034472386170 -15.997190178639499 9.021091516250380 54 31 11 255
18.979871549372064 -15.309191572680163 8.955966739095828 48 28 4 255
18.418481531682289 -14.435073601484618 8.620550170540383 42 25 1 255
17.508674185400736 -13.408106377985334 8.068829517896290 40 24 0 255
17.120957912812059 -12.601141232624371 7.841369130368946 41 26 2 255
16.558931716095486 -11.715985408151681 7.505718321053308 47 33 7 255
16.258012269417463 -10.941768059706916 7.332205290926339 49 34 11 255
15.085795657118780 -9.781400815828889 6.617883692974118 39 29 4 255
13.216064050141085 -8.304125589019364 5.470774470103891 33 27 1 255
-50.911134330779845 -22.453598680213659 -34.197007184815135 200 146 132 255
-48.974744975154266 -22.169441052222425 -32.977979277696704 199 141 127 255
-48.162005605102166 -21.563034043485217 -32.455931394623434 193 141 122 255
-47.781479606330123 -20.831986129166509 -32.201967544966095 196 143 124 255
-46.535533925727719 -20.366503588378180 -31.411582850410440 194 143 123 255
-44.250598249014018 -20.227760201063646 -29.977359234181648 193 142 125 255
-42.051337188272413 -20.076757693040733 -28.596548124827223 192 140 122 255
-41.755851984209102 -19.343775464787996 -28.395843725762916 191 138 120 255
-41.633412341455909 -18.558242286266250 -28.302421756505424 189 138 119 255
-40.904658253028259 -17.967198622658486 -27.833366058892665 191 142 125 255
-40.088984692256503 -17.408900757286773 -27.310572360275700 188 141 123 255
-39.186343173712061 -16.884149633043052 -26.734027622809236 197 153 136 255
4.093569192933757 -28.905529819939801 0.119627865757167 209 173 155 255
5.091960209494744 -28.559595852317074 0.752309629864641 213 175 158 255
6.090743425680870 -28.220090683872783 1.385090877392258 211 177 154 255
8.044018786821312 -28.214614031695859 2.608628024668235 213 177 154 255
10.952322007655283 -28.552044141683766 4.423068548994479 210 172 151 255
12.126353969891511 -28.301317993361096 5.163704725728479 203 162 142 255
13.561197361485227 -28.149846106837018 6.065586026345528 192 149 132 255
14.996594047368063 -28.007468884994722 6.967610691040733 186 143 126 255
16.172091011082500 -27.780795669526739 7.708623149877241 177 132 112 255
16.392871250042589 -27.216214587157921 7.858799069422503 159 114 95 255
16.874299482793532 -26.748172803599402 8.170174356694218 149 105 85 255
17.355922696103420 -26.283278697560931 8.481593321185386 135 92 74 255
17.750858084241742 -25.789320173094566 8.739319217766422 123 81 63 255
18.145955440086681 -25.297958254638388 8.997079230355752 111 72 55 255
18.367384451631978 -24.743696592821877 9.147382069900885 101 64 48 255
18.762772438712886 -24.256969918523723 9.405200425946958 90 55 42 255
18.984426560617294 -23.706252362934478 9.555542940811790 80 47 33 255
18.945285343747457 -23.056365634490632 9.544623064234429 72 42 28 255
18.906142265270859 -22.406346236884787 9.533690508648647 62 31 20 255
18.780000792216526 -21.722093370911978 9.468976750722533 55 26 15 255
19.262911636454447 -21.277695645696269 9.780649436325888 50 23 12 255
19.397899758492571 -20.697848926898715 9.877253933580874 46 23 11 255
19.445904781804643 -20.084016252140316 9.920080724569857 45 20 10 255
18.971571595035499 -19.259514444217828 9.640183857045400 40 14 5 255
18.845381956845301 -18.573905996251725 9.575390239278931 37 13 0 255
19.154624217755355 -18.066137350299115 9.779549856660708 41 16 1 255
19.289772078089669 -17.488368209081088 9.876130250535994 44 19 4 255
19.076475238003184 -16.766460938944476 9.757494154914809 44 21 3 255
18.514538258602784 -15.897162216821499 9.423586050079365 40 20 0 255
17.952400574214096 -15.024396577887259 9.089605881342408 43 25 3 255
17.564411751091683 -14.222284893673034 8.863190162530060 48 31 6 255
17.089095160283364 -13.380431653152726 8.582896655179042 57 41 16 255
16.962439207525136 -12.686050251991531 8.517849811580049 62 46 21 255
16.661295900694086 -11.915112098861371 8.345110316067121 60 45 19 255
16.272807248489300 -11.104130423170005 8.118486919680180 53 39 14 255
15.360642229275982 -10.060179207768371 7.568756722999780 45 33 9 255
14.186325213439233 -8.894439311115590 6.857374407320521 38 28 6 255
10.567486282967138 -6.630377364269961 4.638021890351780 32 27 2 255
-50.835731531683933 -22.617170822794904 -33.117866776104563 200 147 133 255
-49.762187213357464 -22.079825224754842 -32.438170574297487 198 144 130 255
-48.601584603645364 -21.575272305281558 -31.704967462156532 196 145 126 255
-46.747351199474252 -21.286385741743018 -30.544451730028101 197 146 127 255
-45.759022929336453 -20.746588295551433 -29.917778006000049 199 148 130 255
-43.383439170283935 -20.638063812394506 -28.436475780833035 199 146 132 255
-41.527111010035327 -20.383733387879474 -27.275402458874794 200 147 131 255
-40.884021355428416 -19.762050190378332 -26.861972972847013 199 148 129 255
-41.107942652887374 -18.871128342298462 -26.982690079427186 202 152 134 255
-40.551231031341018 -18.227766780105142 -26.622599283556184 197 150 132 255
-39.386968221870831 -17.783437055111449 -25.888440680366244 205 159 143 255
1.002270795296653 -28.693871065057792 -0.971715724334615 207 171 152 255
3.477639550889393 -28.828586072178879 0.566540888314734 210 175 155 255
5.346063851974748 -28.774206299906425 1.730882602336010 214 176 158 255
5.564913481232793 -28.170963151929271 1.879730422872399 213 177 155 255
7.260714235433198 -28.075531651949120 2.937444238643593 212 176 153 255
8.262046680107375 -27.750444155401411 3.567601760465180 208 170 149 255
11.610235020885710 -28.250324413024487 5.641563615586222 199 158 138 255
13.916622223140763 -28.404117516437708 7.074167706240502 191 148 131 255
15.441439383129875 -28.294692388610684 8.025690704920322 187 142 124 255
16.097293150880347 -27.883649176542150 8.442526968872954 175 130 109 255
16.231580480846674 -27.288479271434852 8.538495323126256 157 112 93 255
16.800868977099356 -26.852625342161204 8.901937850286146 135 91 73 255
