ply
format ascii 1.0
element vertex 656
property float x
property float y
property float z
property uchar red
property uchar green
property uchar blue
property uchar alpha
end_header
21.618140851637889 -24.378094711364042 5.054343725686145 190 144 118 255
21.993413876660810 -23.540051504776471 4.991262419808429 189 143 117 255
22.436600131349763 -22.776372484866869 4.914891543160131 188 142 116 255
22.745595510835187 -21.861757126039578 4.864803832304332 190 145 116 255
23.725923697763761 -21.701309049046557 4.683216297066593 191 146 117 255
24.168817369661696 -20.938022679379259 4.606888204222464 187 143 118 255
24.611934979067740 -20.174433683537870 4.530518185674488 183 141 116 255
24.789016990149889 -19.105808539982206 4.506306255235600 179 137 113 255
25.498842562286541 -18.646347164699137 4.377652693146004 175 133 109 255
26.273852487801264 -18.264930562500012 4.236189055746095 175 135 110 255
26.584898471315626 -17.347545513722025 4.185723855016953 167 131 107 255
26.237581267908155 -15.658499979390996 4.264477994312116 162 126 103 255
25.499763556391116 -13.500365364430110 4.419970341823756 156 120 98 255
25.620774151943294 -12.341401347287785 4.406954216088131 154 119 96 255
25.547288173421464 -10.946876118190005 4.432174144075319 150 115 92 255
25.476593379603941 -9.548586031367336 4.456902611359581 144 110 86 255
25.408689738911136 -8.146531153247963 4.481139727736355 135 103 77 255
25.538460496375365 -6.975750812042861 4.466579925710484 127 100 73 255
25.151654456400649 -5.174001718566785 4.553621172742062 119 103 71 255
25.868132991124241 -4.705563020608565 4.423780657819051 107 100 65 255
25.358430034192622 -2.737645551041055 4.535123866369879 96 98 60 255
-29.421753459924673 -28.550402772572795 15.529751307856166 144 146 93 255
-28.100470505670216 -28.427405600242565 15.281682642466969 140 122 78 255
-26.633970652970902 -28.440344917229567 15.004831647292143 151 110 76 255
-24.800941262855872 -28.788425301885979 14.655426708765830 153 106 75 255
-25.339338291491458 -27.026164073935860 14.774795994103620 158 112 81 255
-25.282776543435205 -25.788650942970548 14.776593641516918 141 95 66 255
-24.561530919001086 -25.147743651219741 14.646937593481169 100 59 31 255
-21.931354934296451 -26.245563394139367 14.139514776003018 133 98 70 255
-20.409599628486944 -26.349863668317028 13.851268235998816 208 177 148 255
-18.672747043704703 -26.661748976028093 13.520331064291369 206 170 146 255
-18.108548373593749 -25.900850612004774 13.421490391469654 205 167 144 255
-16.743611258333345 -25.884853202372653 13.164027492463951 205 167 142 255
-15.019108675476957 -26.213389084943799 12.835231687063860 194 154 130 255
-14.242070491215514 -25.663117414084155 12.694081734917617 194 152 127 255
-13.032182643152453 -25.524436967395530 12.467093806195230 194 152 127 255
-10.093565466854272 -27.035726346721447 11.897243386067359 201 160 137 255
-5.797816665812434 -29.868677891340667 11.057964855113298 211 169 147 255
-3.673904529048968 -30.653897636630944 10.649163646646002 214 173 151 255
-2.417225938639433 -30.617999289841862 10.412286411793538 215 175 153 255
-0.877824583841715 -30.864375830773156 10.119206490595090 213 176 152 255
0.799666779178807 -31.256301085013916 9.798595611755069 213 178 156 255
1.261742493221078 -30.467221044499496 9.719239076483312 213 178 156 255
2.860450695925294 -30.799501889723189 9.414085355058056 216 181 159 255
4.029049762676465 -30.716492477789075 9.194276120869354 215 183 160 255
5.830975413336034 -31.272379407314872 8.848510732076726 215 183 160 255
6.216188256561736 -30.421062513119807 8.784263247722073 216 180 158 255
7.516890409252454 -30.491673740555939 8.537962050540372 213 177 153 255
8.533080847677354 -30.282420005215215 8.348165061129549 211 175 152 255
10.037322455546501 -30.576203319124488 8.061196976907375 205 169 146 255
11.606854504512910 -30.947824253298393 7.761119971336917 200 164 141 255
13.101724326256914 -31.254244738608605 7.475785170564379 199 163 140 255
13.965826412982096 -30.918315261970349 7.315946585333528 197 159 136 255
14.342335921264549 -30.078727817273148 7.253188054371122 195 158 134 255
15.342659241859849 -29.890866732656008 7.066143200339781 185 149 125 255
16.133361837817034 -29.488031622309052 6.920815922381301 179 141 118 255
17.060540196739623 -29.232922834862023 6.748243024275908 173 135 112 255
17.504311730098522 -28.468510875002835 6.672016234712466 166 125 103 255
17.742486574030522 -27.483697752986927 6.636801274078898 172 132 109 255
18.050299035753341 -26.570859502515191 6.587715855851201 163 121 99 255
18.700408800031767 -26.025844566335763 6.470329530715070 172 130 108 255
19.622277563849821 -25.777891866282488 6.298666597119826 179 137 115 255
20.202298523979124 -25.161507716995402 6.195217405299566 180 135 114 255
20.578490485962050 -24.322338432851865 6.132470358239487 182 136 113 255
20.955227847672433 -23.482432693829367 6.069623786279216 182 136 112 255
20.927619434982518 -22.192490387198490 6.087604226909427 182 136 112 255
21.373732065826289 -21.424912681435359 6.010930310352251 186 140 114 255
22.021549181078399 -20.882983797900238 5.893919845271306 185 139 113 255
23.137624230748855 -20.870787772413109 5.683214341537813 184 138 112 255
23.715996751559715 -20.256621227081837 5.580029706561902 180 136 111 255
24.227271936337701 -19.567052009384156 5.490262251568822 175 133 108 255
24.339341342863378 -18.420513965706874 5.480420133423991 171 129 104 255
24.917742843360855 -17.806306326533530 5.377221626963951 167 125 101 255
25.495726495972576 -17.192661639465229 5.274093818860067 165 125 100 255
25.412926552843942 -15.811253430383260 5.303376657030491 157 120 97 255
24.937661090360109 -13.963785730305744 5.411401780083899 152 117 92 255
24.992838171750321 -12.728079012877004 5.413175223151732 147 113 88 255
24.722387564985468 -11.102064827347846 5.480316491304066 144 111 86 255
24.063319211980513 -9.004801614850322 5.625524682499730 139 108 82 255
23.475161846868616 -6.977796333215451 5.756640961959988 132 103 77 255
23.673253558969833 -5.881130855398567 5.730034661884353 124 103 72 255
22.509653775158938 -3.137157740658836 5.976936539002971 114 104 69 255
21.872324336179503 -1.010572948919673 6.118320123271765 76 81 41 255
-25.799485734195287 -29.032277435038338 15.824759475973707 147 130 89 255
-24.264914539839708 -29.118469822425823 15.530664180468946 182 134 104 255
-24.433995707813096 -27.688219975416814 15.579738263583437 182 131 103 255
-24.673631680465860 -26.187292669031564 15.643107921900814 156 107 80 255
-24.909777008645904 -24.681655674321291 15.705856959652678 137 93 66 255
-23.454211970390759 -24.708562147271721 15.427510486739195 87 52 24 255
-21.489924624058233 -25.210182333552154 15.046423103193717 169 138 109 255
-20.116475100645800 -25.182000648432421 14.784389264212244 197 161 137 255
-18.454993012105007 -25.428678502931575 14.464110031714263 197 161 137 255
-16.725681877143018 -25.749705939982078 14.129995549531550 191 155 129 255
-15.074212576773959 -26.009883717703673 13.811454345888983 194 157 130 255
-13.789825232904974 -25.935978907515874 13.566934865728150 192 155 128 255
-12.653288314601781 -25.729812412730382 13.352197634844643 192 152 126 255
-10.437797844019713 -26.555950969763103 12.919270296262169 196 156 130 255
-5.280015431850757 -30.212962001584202 11.891171718242688 205 168 142 255
-4.162945653084080 -30.033044868574279 11.679824273582746 211 174 148 255
-2.260684464599279 -30.618298700549985 11.309528611144032 212 175 151 255
-1.293649241999987 -30.309064067019165 11.128339872888034 214 178 154 255
0.812173466215199 -31.117269199398635 10.716537960916952 212 178 153 255
1.630302387373604 -30.677195565396602 10.565310729504780 214 180 155 255
2.589009013035650 -30.379188664166008 10.385561336817062 216 182 157 255
3.899773984076290 -30.435522848584981 10.134409586216790 217 183 158 255
5.842797729335473 -31.131622851512645 9.754993095238817 216 182 157 255
6.439895894993953 -30.492148792723384 9.648294212241346 214 179 153 255
7.528909784432983 -30.350055791592297 9.441804795655784 211 175 149 255
8.615252727521636 -30.211563637131178 9.235777669599933 206 170 144 255
10.329016384868225 -30.719362574762357 8.902335532825617 200 164 138 255
11.618113281184549 -30.804911657429528 8.654947236244311 196 160 134 255
13.182323594149324 -31.182744998986323 8.351583368712838 197 161 135 255
14.324446368754849 -31.134849940520496 8.133820995698514 201 158 139 255
14.631187679269800 -30.223639371743445 8.085724000598020 198 157 137 255
15.354029019729097 -29.746230023886085 7.953065064740194 188 147 127 255
16.075809395814787 -29.270250364799097 7.820586899452003 176 135 117 255
16.865411095609318 -28.868631665956343 7.674279047356514 162 124 105 255
17.241299565154804 -28.029990123991837 7.612103191923566 154 118 97 255
17.617735724076340 -27.190608725554057 7.549826038483509 147 112 90 255
17.857919409057729 -26.203324284952686 7.515299542720989 138 103 81 255
18.645204333655158 -25.804825667511523 7.369378299940173 141 106 84 255
18.886480628098951 -24.816065389109866 7.334650307301480 147 111 89 255
19.536449286355833 -24.271097511544127 7.216662209729513 158 122 100 255
20.050163983007366 -23.578228717490219 7.126425552484022 161 121 102 255
20.563780657307376 -22.885491140798820 7.036201785460435 165 117 100 255
20.402949553395501 -21.444051962990585 7.083555011685782 161 111 94 255
20.783428318708673 -20.599209843901804 7.020531513247263 160 113 92 255
21.365792062803166 -19.979583087797209 6.916308682739327 168 123 100 255
22.282500899506488 -19.738188566193742 6.743797253739594 166 124 100 255
22.863222299194774 -19.120775232851656 6.639855575902565 164 124 98 255
23.510156346460803 -18.579893007695745 6.522368787739225 152 115 88 255
23.558109180607318 -17.354360043896037 6.527292342933428 154 117 90 255
23.674522510441250 -16.202326456367445 6.518276099678040 151 116 90 255
23.792764333548689 -15.047825979817475 6.508935511614077 146 115 87 255
23.516895629492865 -13.429864111638096 6.580285564406331 144 113 87 255
23.639756592600605 -12.269132236770247 6.570127615736702 139 112 85 255
23.370431615704206 -10.642343224155127 6.640322358731957 126 105 76 255
22.515281318115029 -8.313159520939024 6.830616360483809 123 106 75 255
21.405375773203389 -5.664231448652572 7.073300362913777 114 105 72 255
19.977449457458249 -2.615052154889213 7.381398155303700 84 83 47 255
-25.633337152520483 -29.032521336363146 16.776743184943022 159 123 90 255
-24.321391579864382 -28.920827577638960 16.524671299930425 174 127 99 255
-24.415690160776705 -27.556114051652543 16.561161025257533 150 103 75 255
-24.875530087011043 -25.855556939776392 16.672787826945196 147 100 74 255
-25.624972012744479 -23.882506347815649 16.844026042454999 139 95 68 255
-24.754874475950714 -23.372107224680036 16.682650255117863 105 68 41 255
-24.544873231299107 -22.260053203494948 16.656901356973286 60 24 0 255
-24.406359709328399 -21.078643056385943 16.645887741568679 104 68 44 255
-21.496961754159258 -22.459374800227749 16.065012689337166 190 154 130 255
-17.943619998045534 -24.463541279849636 15.351323034371966 194 158 132 255
-15.564340314794975 -25.398853019295018 14.878854408588722 196 160 133 255
-14.206597101486210 -25.391137689333561 14.616441747856342 192 156 129 255
-13.358046580258844 -24.909782882244286 14.458776202068400 192 156 128 255
-10.637283532916967 -26.213376097058898 13.915352104524715 192 156 128 255
-7.207299541640964 -28.218134404298411 13.225459238758710 203 166 140 255
-4.435960822856799 -29.619281363413421 12.670941014472817 210 173 147 255
-2.462059254301721 -30.272466970381799 12.280554137906371 211 175 150 255
-1.280266233646245 -30.170504596261367 12.053363849948902 214 178 154 255
0.468565183231391 -30.629930486767165 11.709057245641546 215 181 156 255
1.500899838101930 -30.398000205644138 11.512478710011500 216 182 157 255
2.956473618077922 -30.589861663958743 11.228419242601682 217 183 158 255
3.841607618088489 -30.224918648817919 11.062056945368631 213 179 154 255
5.289905667865156 -30.426589460736125 10.779259174295966 215 181 156 255
6.311238407152700 -30.209490552146633 10.584580915534616 213 177 151 255
7.470794399606660 -30.137507053057135 10.361239173088599 209 173 147 255
8.627356877697991 -30.069559333614393 10.138415821309721 203 167 141 255
10.620485394317342 -30.862566060394840 9.742380253672053 198 162 136 255
11.769126368746811 -30.805299128807235 9.520934009469478 191 155 129 255
13.402260834987288 -31.254980154068789 9.199060041040120 192 156 131 255
14.404827305745982 -31.063182320205868 9.007635368224769 196 153 134 255
14.919813330453024 -30.368596991888722 8.917167347144812 192 151 131 255
15.573020696662297 -29.819129930612888 8.798037399297023 185 144 124 255
15.949502322178716 -28.979803794115128 8.736262161720205 174 133 115 255
16.739546988503889 -28.577320377009926 8.588707548439942 149 111 92 255
16.978810007558934 -27.591519345805523 8.555399748369965 143 106 86 255
17.219264293890518 -26.604110264335475 8.521876845893992 124 89 67 255
17.187497391180216 -25.320766689252025 8.544917674418450 115 80 58 255
17.771935623571750 -24.698271097033683 8.440020418557125 124 89 67 255
18.015798359699318 -23.706261062633075 8.405882043548360 121 86 64 255
18.668071872419148 -23.158043117519412 8.286870594906638 126 94 71 255
19.184184663769429 -22.461925025064431 8.196147591744904 133 96 78 255
19.024710461079252 -21.019274818709221 8.245970127248633 147 101 85 255
19.340069006327013 -20.096603085841082 8.197064792635516 126 79 63 255
19.790747627025269 -19.322963141331854 8.120009168988673 128 81 63 255
20.308715312121024 -18.624338965288501 8.028941494727398 148 103 82 255
20.826583992293706 -17.925847354170230 7.937886980930692 151 110 88 255
20.943880476789218 -16.772989045099621 7.930318234281273 134 98 72 255
21.928609846401258 -16.605227701239926 7.741934173932115 135 99 73 255
22.313173013530559 -15.754983372783329 7.678659446715436 140 106 80 255
22.565752168616427 -14.751205770115376 7.642940283221314 139 111 85 255
18.462693126702391 -6.028668656172812 8.551473988405505 109 104 71 255
18.600640717866014 -4.847950865471660 8.540249520568445 65 68 35 255
-67.194284778106805 -0.799813019456792 26.313530590208117 156 158 105 255
-26.685685740043368 -30.510380787200319 17.944727785068778 161 121 88 255
-25.742090058400663 -30.066313508914533 17.766895756192270 172 120 93 255
-24.948404264487920 -29.493014992410082 17.620313230120694 167 115 89 255
-24.673429207588242 -28.459357219754907 17.582086504130388 149 102 76 255
-24.766185070873689 -27.093125777230654 17.620766795041256 146 99 73 255
-25.371508613322476 -25.258250202199179 17.766726127605288 140 94 68 255
-25.237037610683217 -24.082670689222198 17.758077233243945 141 98 70 255
-24.660854282653645 -23.305586838304549 17.657038362541364 128 88 62 255
-25.328213519323015 -21.388665362060664 17.816328872966814 69 32 5 255
-26.428051788665698 -19.060790290756898 18.066367366752125 79 43 17 255
-25.263048542192678 -18.815204851908618 17.842145994641989 64 28 2 255
-21.920898871237284 -20.604477347680159 17.161530635934206 64 28 5 255
-17.648627408752418 -23.293469106933998 16.285473429013898 165 129 103 255
-16.575753821720753 -23.006425470751424 16.079863697029417 199 163 137 255
-14.999993985548770 -23.201078276618574 15.768651699482312 192 157 129 255
-12.420642724652197 -24.362068046168019 15.246628667282380 194 159 131 255
-8.557073854618864 -26.773738125645423 14.454639318568056 202 166 140 255
-5.927194705500966 -28.032282600617748 13.921252885894724 208 172 146 255
-2.233821142237161 -30.342079239830582 13.164067501999355 211 175 150 255
-1.195361882958963 -30.101437073334978 12.964438998952929 214 178 154 255
0.624026311502973 -30.630319441784906 12.600507946775188 216 182 157 255
1.229746619181469 -29.979072588688211 12.491665843827768 217 183 158 255
2.685664916756423 -30.169633203106798 12.203888695609059 217 183 158 255
3.642241281609984 -29.873712684511901 12.021072336203503 213 179 154 255
5.020160892805507 -30.003760494537431 11.749444048598676 216 182 157 255
6.534919795799908 -30.280663373264900 11.448840148474297 210 174 149 255
8.255789299397861 -30.776701199937889 11.104627686291799 206 170 144 255
9.760852916131682 -31.066676885472077 10.805710907129289 203 167 141 255
11.401144021100919 -31.505681734921495 10.478102456760652 194 158 132 255
12.199122424142814 -31.092240063246862 10.328027202704135 186 150 124 255
13.343689589559062 -31.039882636366514 10.104737887690526 188 151 125 255
14.276964429402454 -30.775375565142383 9.925951986304860 192 149 130 255
15.277484432289725 -30.585879489577167 9.732881899347156 188 147 127 255
15.722768443001684 -29.819580251868103 9.657057138657741 175 134 116 255
16.099329937235069 -28.980259405290155 9.595762149465308 161 119 103 255
16.407651230622207 -28.067266446647523 9.548912282026606 141 102 85 255
16.716842409327398 -27.153098699201507 9.501902889805351 128 92 73 255
17.026902733808981 -26.237757193843720 9.454734248964265 118 83 63 255
16.996301162147290 -24.953334224751160 9.479723700008741 102 67 47 255
17.240756907584313 -23.960764415724583 9.446531023973172 95 63 42 255
17.010510881577488 -22.448480286814231 9.513971154329042 94 63 42 255
16.919351408205358 -21.080020824325317 9.552043438277508 95 64 43 255
16.492673184597464 -19.335542971989412 9.661369750229134 92 60 43 255
17.082926948075198 -18.705120396082179 9.555086507159736 93 53 37 255
17.066687641380668 -17.401317820275182 9.577515490235200 74 32 16 255
17.590364412744094 -16.694978947031245 9.485381083970012 73 32 14 255
17.778841237366862 -15.612191819078930 9.464445226378366 112 72 52 255
18.102542944151935 -14.678438197968433 9.414821776768790 120 89 65 255
-25.721462089631530 -33.740975021832838 18.685055866965783 169 135 99 255
-25.302468830145699 -32.844622329899494 18.617172084722895 161 122 90 255
-24.659707042507364 -32.143397637528466 18.501742870170411 163 114 88 255
-24.462710435787585 -31.049518359541935 18.481054867099701 174 125 99 255
-24.338224599960938 -29.887788955138461 18.475833680252506 179 130 105 255
-24.581394368553163 -28.393701256933696 18.548892547326339 144 97 73 255
-24.747324137942655 -26.961079648164002 18.605629714754251 135 90 65 255
-24.910085150747875 -25.524181500448947 18.661798453443524 134 90 64 255
-24.188618877175429 -24.882433143737359 18.529726708337726 148 104 79 255
-24.200470164447836 -23.573282348509963 18.553878289028241 161 117 91 255
-25.086986753686972 -21.456079874199105 18.764567848360251 130 88 63 255
-26.842350887795760 -18.522979315992018 19.160774564276323 84 48 22 255
-26.622519911796815 -17.398277646612087 19.135967515243330 87 51 25 255
-24.803656325715622 -17.761092827671661 18.769932602205735 71 36 10 255
-22.628108699448319 -18.471058047707771 18.327518304973061 49 15 0 255
-18.869367360811538 -20.689902387363844 17.546656912402071 81 47 27 255
-16.278984696658995 -21.834229609272199 17.014893422803091 200 168 139 255
-12.978059968774971 -23.676671506790825 16.330880817967923 199 166 137 255
-9.115049212089673 -26.086165954822945 15.526181739335058 199 165 138 255
-5.983421357152366 -27.825649336911425 14.877369343415047 206 172 145 255
-3.006469109898148 -29.442456695096780 14.261201153737908 211 175 150 255
-1.467005017382689 -29.685151691009537 13.952378452986608 214 178 154 255
0.210173299662046 -30.073394502791615 13.613870149417167 215 181 156 255
1.456109710444508 -30.049395938368292 13.367557942004140 218 184 159 255
2.911242629185097 -30.240179685330531 13.076261747902926 218 184 159 255
4.291416643226029 -30.366415995391918 12.800865842350234 217 183 158 255
5.526601138662016 -30.356912599373430 12.556414291989235 218 184 159 255
6.969529679261484 -30.564150717232820 12.267234781266886 212 177 151 255
8.337983062930022 -30.706189112615760 11.993871310351850 206 170 144 255
9.702475808748375 -30.853567498737476 11.721195282157453 201 165 139 255
11.621964336819730 -31.577562499715924 11.329083240592681 195 159 133 255
12.628705000565645 -31.379224715043733 11.132945139836323 190 154 128 255
13.841738817703941 -31.399585663198224 10.892335421117465 188 152 126 255
14.426982033656373 -30.775862131731515 10.786674726461335 186 144 123 255
15.288709668960564 -30.441813075216999 10.621470789058762 180 139 119 255
15.389028341877292 -29.312604853665590 10.620170625439968 163 122 104 255
15.560087430788343 -28.253629839257712 10.603694183908082 140 98 82 255
15.870144890217802 -27.338471358246011 10.557309632775400 117 78 63 255
16.661139306501696 -26.934170801066443 10.407243153933678 103 65 49 255
16.971808647258769 -26.018183738141516 10.360736638740427 97 61 45 255
16.873790913304163 -24.659534450954823 10.402463513676075 90 55 39 255
16.506177790209165 -23.001915315066242 10.502506713675253 81 50 32 255
15.599148027107447 -20.746662682237854 10.719229109391399 63 34 16 255
15.037656976352650 -18.853594000949272 10.861537449769862 53 26 7 255
14.345979199168482 -16.804820327325729 11.032189377219581 51 22 8 255
14.199629658539550 -15.345703556759617 11.085108954120706 49 17 3 255
13.989098993037089 -13.807503187985105 11.152036903268240 65 33 18 255
13.782002102296104 -12.264669921773020 11.218354607490447 72 40 23 255
-24.668045521630233 -37.013560539918188 19.392296015789938 162 153 108 255
-24.179052348978928 -36.188504385852127 19.309648493932556 150 139 97 255
-24.660485385456468 -34.519730772875846 19.436701992971017 149 132 94 255
-24.466875181694149 -33.430734907433560 19.417991026767702 155 124 91 255
-24.494738874882898 -32.143700485048441 19.447228534942091 168 123 97 255
-24.297520773754115 -31.049832269158202 19.427856591115152 194 142 118 255
-24.246788448787584 -29.822368114035555 19.440241601285940 183 132 109 255
-25.006313591884350 -27.866325411451072 19.628157428781002 149 104 78 255
-25.538984757595699 -26.101058789453162 19.767152915844363 137 92 66 255
-24.669676378186011 -25.590941242397150 19.602492069346745 139 95 69 255
-23.508231312673615 -25.349132006820668 19.374422035482631 147 103 77 255
-23.594066343773875 -23.974682370448420 19.416768645125423 158 116 87 255
-25.284193866132000 -21.121199608982778 19.807344254756835 134 94 66 255
-26.818592827825455 -18.388840609915604 20.164512943914424 85 50 22 255
-26.307306479473823 -17.533676355896603 20.077773038552003 101 67 39 255
-25.650642796679620 -16.813596755096029 19.959443379553115 97 65 37 255
-24.270334179770146 -16.773324953193367 19.683788015548366 84 51 23 255
-24.699744841173128 -15.034341662484678 19.801507159980289 70 39 11 255
-7.447600959043427 -27.531376804884985 16.118705267468101 200 169 141 255
-5.538220950640664 -28.102167110689152 15.725894071938065 205 171 144 255
-2.992138973354059 -29.304447316832409 15.194051743142360 209 174 149 255
-1.595572138853925 -29.407810449975017 14.912437126120501 213 177 153 255
0.579277192473171 -30.282872324708904 14.460882870879068 215 181 156 255
1.327584827119210 -29.770325879691427 14.320297086595680 219 185 160 255
2.570368160220426 -29.749931897341924 14.071704128388021 220 186 161 255
3.527320728950002 -29.452718994365171 13.885388437095806 220 186 161 255
5.327859206242721 -30.004710000214459 13.514644382702947 221 187 162 255
7.403726761960797 -30.847679777695134 13.083449288451817 215 180 154 255
8.630667796742699 -30.848644408732724 12.837601647026958 207 171 145 255
9.784309377970885 -30.782886888271776 12.607640344917833 198 162 136 255
10.865135007366575 -30.649755126099535 12.393480579633561 195 159 133 255
12.500581699175456 -31.093238385059465 12.057733199233560 192 156 130 255
13.713776846499343 -31.112735013332752 11.814266574475539 188 152 126 255
14.230263745406489 -30.416087202920181 11.723367889291062 186 144 123 255
15.300082543325658 -30.297793431522877 11.511109211750764 177 136 116 255
15.193938271049831 -28.950670289809750 11.556737032214208 154 113 95 255
15.710302813498345 -28.254181710013881 11.465834486632872 116 74 59 255
16.157876503762196 -27.484890111363825 11.390026646873295 84 45 30 255
16.879812822463009 -27.007881512445664 11.253940748332020 89 50 38 255
16.916953880278641 -25.798660167095676 11.268326903260316 86 50 38 255
16.205913870004679 -23.777134391178436 11.447336289235054 72 38 26 255
16.044979717576865 -22.338314315923128 11.505554816719375 69 39 25 255
15.004584367754745 -19.933087668354517 11.757492629695200 55 27 13 255
14.513326218124917 -18.111873342190137 11.888810394756007 46 20 5 255
13.621376348673408 -15.837592214099232 12.108615165503394 39 13 1 255
13.342752737956971 -14.226331772979307 12.193507880402613 38 10 0 255
12.664398652432311 -12.160708002935365 12.366718512364727 32 8 0 255
12.394249482400539 -10.538013810498740 12.450105529918687 47 25 6 255
11.123957934166299 -7.780514473769983 12.754440970556928 47 32 10 255
-27.427252469728728 -34.500828649670524 20.972314855296851 138 136 89 255
-24.272260220673218 -34.714652715458499 20.329488805849856 167 130 101 255
-24.897977302693789 -32.910322157178314 20.492323623384706 178 139 110 255
-24.924184460384311 -31.621554052289525 20.523459422008180 183 135 111 255
-24.428904592685114 -30.788062195709614 20.439897556313369 192 144 121 255
-24.229260894254821 -29.691228901159263 20.421439754047874 187 141 117 255
-25.061444561014696 -27.668799157758059 20.630375812206516 161 118 88 255
-25.445638058022610 -26.035255254784715 20.740821691018432 143 99 69 255
-24.796839249895470 -25.325729717338959 20.623638993353154 144 104 71 255
-23.855121358220003 -24.883203250001031 20.441798814298153 153 115 82 255
-25.549071844076479 -22.036837075231489 20.841620053440771 138 119 77 255
-28.105850328301244 -17.043830746733107 21.458957032944696 123 104 64 255
-26.864488396390641 -16.859223102665538 21.211234307131896 123 93 60 255
-26.061232168664560 -16.272391555682475 21.060237228671170 115 87 53 255
-24.752520807816438 -16.162458983041461 20.797357841340713 103 75 43 255
-25.035443558360669 -14.557815728626537 20.886586680800498 89 61 31 255
-7.790088715419841 -27.050276211892026 17.144921101656443 203 167 143 255
-4.950330713630478 -28.516753924175646 16.540500382872096 204 172 147 255
-3.120434718581720 -29.028010431962201 16.159618933171060 207 174 149 255
-1.510117853533359 -29.338863810291002 15.827188414850568 213 177 151 255
0.095270720488372 -29.656361667900569 15.495612573213322 213 179 154 255
1.553921587835674 -29.840730909640769 15.196395729510314 217 182 160 255
2.442342867160932 -29.470040318684966 15.023709520835602 219 184 162 255
3.752554236522883 -29.523573801931974 14.757140016116743 222 187 165 255
5.270389586063573 -29.793630121701824 14.444198962415520 222 187 167 255
7.134916270068544 -30.423681051985966 14.053865202158633 219 185 160 255
8.292242742230343 -30.352372636715785 13.820715853187018 207 173 148 255
8.467457953882075 -29.288413363413042 13.806226638222192 198 164 139 255
8.993071925581518 -28.579448218631910 13.713692963699870 195 161 136 255
10.841271366759543 -29.231512248998683 13.326191546641908 193 159 134 255
12.683254127311073 -29.891959321960996 12.939774869588803 187 152 127 255
13.895389105997566 -29.912237083139985 12.693657003320013 185 144 123 255
14.896814313251298 -29.720149481104386 12.494433196391377 172 131 111 255
14.999275895830181 -28.588784170839006 12.495963147858127 144 103 85 255
15.310002487352733 -27.673077630371438 12.451011206904496 111 69 54 255
15.896192556496970 -27.047915623804442 12.344478221517498 90 50 38 255
16.618939140249608 -26.569610147029039 12.207357597295271 61 22 11 255
16.042420027649428 -24.698816285035946 12.361078546164499 58 21 10 255
15.061958507285738 -22.379719929697075 12.605519353469738 58 25 13 255
15.244557414385042 -21.305775949773476 12.589619423470431 47 17 5 255
14.885914230203525 -19.637673486898734 12.695149645485316 38 11 0 255
13.989887335799182 -17.370208083251384 12.921430106865031 31 4 0 255
13.505646775668481 -15.540461132072977 13.055592744391717 29 2 0 255
13.026127487318462 -13.704344079360567 13.188915909937293 37 10 0 255
12.820131701145073 -12.161388697713448 13.261001465857362 57 33 16 255
11.947166398185232 -9.862809323812201 13.483188071878125 66 46 25 255
10.211411025912156 -6.576159059444223 13.899755231597922 61 52 26 255
6.151309620387565 -0.631275933570748 14.839921260653192 42 46 15 255
-24.972702571597438 -35.219291912557765 21.436658892693323 173 140 107 255
-24.779243867337868 -34.131124991417579 21.420706375460163 160 125 93 255
-25.402767211373828 -32.324844144221345 21.587566686558162 161 120 90 255
-25.724162677440745 -30.772888311152627 21.687042062776179 150 105 78 255
-25.152657492629260 -30.002099533022829 21.586761350815472 184 144 116 255
-24.729068841499100 -29.099897669415242 21.519596020601973 171 138 107 255
-25.263855069513795 -27.339374075539752 21.667230804748264 181 147 117 255
-26.014666393878827 -25.373843195681644 21.863520255304664 144 110 78 255
-25.804968283200139 -24.263747631924247 21.844602070090311 141 106 71 255
-26.912778094414762 -21.952432025233406 22.121442652957576 134 125 79 255
-27.711302964510082 -15.914846002986678 22.415370278455782 132 131 80 255
-26.760996142345846 -15.460390987390866 22.230515584480919 130 113 69 255
-26.390874721929663 -14.464810718931972 22.176156678374738 124 99 61 255
-26.380614063181724 -13.127309847223330 22.202867651393269 118 89 55 255
-25.647974139044038 -12.470054933522960 22.066925488135482 106 77 45 255
-5.078073513954905 -28.241221033022953 17.513186004431184 207 177 150 255
-2.106919859893907 -29.859347905986567 16.869601884668306 207 174 147 255
-0.997523047209398 -29.686663652515648 16.645974003777198 212 179 152 255
-0.032832929158815 -29.378237942390143 16.454901506021429 213 179 154 255
1.213264888178514 -29.352084488124660 16.200088308535619 215 181 159 255
2.809530039455183 -29.680919869970921 15.865882984903912 222 187 165 255
3.554445077924669 -29.172539978680504 15.724103491313862 224 189 167 255
4.790919686359871 -29.159358144329502 15.470947377005892 225 190 170 255
6.655991761547710 -29.787456812658149 15.075196509664686 218 186 161 255
7.954434772291052 -29.856146471380782 14.807561283349500 208 176 151 255
8.410557687247746 -29.075441081350448 14.730763055095707 199 167 142 255
8.797181628211121 -28.223013842892783 14.669735421909230 196 162 137 255
9.949603010471549 -28.157731179274663 14.434867428862624 194 160 135 255
11.862503906237009 -28.886766308340441 14.027096272914378 188 154 129 255
12.799427966521421 -28.615763508186291 13.840785783741687 181 143 122 255
14.079747341679337 -28.708884691652713 13.576278999185149 168 127 107 255
14.529346552514795 -27.936964475642014 13.500567113881935 143 102 84 255
15.460509929826117 -27.673725327123407 13.315242163981083 122 80 65 255
15.635028556049065 -26.610991122263243 13.302124226106514 98 58 46 255
15.811060221967807 -25.546213886748660 13.288730324913800 86 47 34 255
14.759569556148364 -23.158843369662208 13.555263135873915 76 39 26 255
13.783500735455817 -20.835200775849842 13.804960923506130 66 32 20 255
14.513359770614244 -20.347091387267710 13.665667911215941 46 18 6 255
14.564182942399839 -19.120267044601746 13.681371189895025 46 20 7 255
14.008430346371057 -17.222452789990257 13.835766836771349 39 12 1 255
13.660148709793674 -15.541178452593272 13.942989857480363 42 12 2 255
13.989093856127568 -14.601055674306366 13.895519585174256 50 22 9 255
13.580206217833080 -12.836062737380217 14.016940509761461 57 31 14 255
12.572774522352546 -10.389245940418732 14.275637570085486 66 46 24 255
9.834976237321342 -5.974390625951230 14.931142440587443 59 49 23 255
6.446092604842278 -0.783117590120867 15.736713299301954 36 36 8 255
-27.441402069328035 -35.463051226448641 22.918109308080098 179 153 117 255
-26.422631119310324 -35.081380624980483 22.716208598452901 160 125 94 255
-25.704613220557917 -34.443776588949930 22.582526666634422 157 128 94 255
-25.359936107412807 -33.482749542476625 22.533666771890033 154 125 90 255
-26.129837401533223 -31.544119546192832 22.738354200043084 169 133 100 255
-26.819765331592976 -29.663014066243306 22.925124654026490 167 147 110 255
-26.615738519792671 -28.560892293216284 22.908622657498938 155 136 100 255
-25.671345947516670 -28.114122327595965 22.723530817032383 177 148 115 255
-25.760702340499847 -26.746123417818808 22.773936961262642 171 141 108 255
-27.024130642552564 -24.315371474296882 23.092194661171568 159 136 97 255
-29.233683181198103 -21.010599371634015 23.626706814263564 123 129 77 255
-29.183145123096153 -11.680387577374518 23.833098945567293 130 123 76 255
-29.165902473917072 -10.333965921794459 23.860753370222092 128 108 68 255
-28.067045572882023 -10.009599782819748 23.640617612673850 123 98 64 255
-5.848586555973185 -27.344588599072182 18.635616204454770 210 181 153 255
-1.950108086950365 -29.859921464294644 17.769590113620112 207 176 148 255
-1.054503571088190 -29.478893584329057 17.592803827511204 211 181 153 255
-0.160599039232324 -29.100155520135644 17.416302923229992 213 181 156 255
1.652146800216713 -29.632230127294491 17.028317512856560 215 183 160 255
3.458996256294398 -30.172254979107208 16.641357084073228 219 187 164 255
4.273113653958774 -29.735728941928414 16.482686730788700 222 190 167 255
5.156178295272269 -29.371600084685866 16.308041742199144 224 192 171 255
6.107705701433673 -29.080521964046198 16.117507742458905 218 186 163 255
7.617243222845417 -29.359966026680524 15.798134635185413 207 175 150 255
8.284055291540568 -28.791322192358564 15.672995594129226 202 169 144 255
9.507587266039081 -28.794941013761928 15.419245443267833 196 162 137 255
10.519240022238904 -28.588151667963643 15.214256385406109 195 161 136 255
11.528543311296573 -28.384528882970017 15.009670116643235 190 154 130 255
12.397099392034704 -28.039951231169539 14.837498818842747 179 141 120 255
12.987799029179968 -27.408559218774712 14.729527450511242 170 129 109 255
13.233697620427222 -26.415251369598309 14.701364662753541 152 110 90 255
14.099229675179117 -26.074745523636864 14.529694695175735 138 96 80 255
14.140398385141992 -24.861383765028165 14.549023500278324 114 73 59 255
14.320510840570279 -23.791404709515064 14.536234132059533 96 57 43 255
14.024504358676694 -22.205838420961015 14.634017211807759 81 45 30 255
14.004548825517332 -20.909517236099134 14.667898243382780 71 39 24 255
14.462446183481745 -20.126439992125597 14.590881976456068 57 26 12 255
14.988316066771432 -19.417075685490516 14.498067158503616 48 17 5 255
14.905779987383880 -18.039759952682800 14.546759287768175 43 13 2 255
14.623751096664279 -16.435328594750302 14.642030712948248 44 10 1 255
14.681819751417436 -15.199153383346811 14.658304440900146 47 16 4 255
14.540715116387219 -13.735431626869797 14.721101480469841 48 19 3 255
13.130734632347583 -10.840634379448716 15.079902997673827 46 23 2 255
9.726386296314502 -5.673942384187797 15.904474076642714 39 24 1 255
-26.976220847356615 -35.720252293835500 23.796505282672022 160 139 98 255
-26.631638850721060 -34.759546180380568 23.748504661923512 165 133 97 255
-26.957923746919164 -33.215706389321156 23.855493250018647 166 145 106 255
-26.386602785592288 -32.445164366397279 23.755237397825425 171 161 118 255
-28.044917714290648 -29.721969746774761 24.170501594659015 148 150 103 255
-30.666633696737904 -24.826263900796960 24.841742012770148 131 141 93 255
-27.424417792167958 -26.405178130436724 24.123581657026925 186 165 128 255
-27.803851197518213 -24.767667693374563 24.243922641023573 152 136 93 255
-30.195202605130021 -7.822642747171244 25.166603521865831 124 118 75 255
-3.218298067061994 -28.475872863033118 19.002420826967565 211 181 155 255
-0.969066743437850 -29.410065265424606 18.507972696378452 210 183 156 255
0.775853394723526 -29.867140949839211 18.131001684167337 213 181 156 255
2.019851536769465 -29.842528481293670 17.870911186238921 217 185 162 255
3.542946054012049 -30.102798543783507 17.545268074350140 222 190 167 255
4.075255008885478 -29.384779462525785 17.451452859986055 222 190 167 255
5.099435574867982 -29.160649825961428 17.242323495669744 223 191 170 255
5.981030239285985 -28.798171700945886 17.066485149370870 216 184 160 255
7.490540503625880 -29.076752851696199 16.743181954091249 211 177 152 255
8.925648643266896 -29.290352305784381 16.437066355409662 207 173 148 255
10.286838452656951 -29.438317563380110 16.148053434664980 199 165 140 255
10.879851745789580 -28.803736133360246 16.039374351430801 197 161 137 255
12.096266931283083 -28.816302841805310 15.784027797435236 186 150 126 255
12.133782261440842 -27.608309160242015 15.805925413093995 179 141 120 255
12.656394224228137 -26.903344202733535 15.713705843311438 174 133 113 255
13.110080708209637 -26.126010466970172 15.637709694853015 159 116 97 255
14.250682330614609 -26.075492006011586 15.399767437962552 145 103 86 255
14.634702244888189 -25.226786762107679 15.340114956412755 124 82 66 255
14.882574858268157 -24.231048617265230 15.312620775195327 104 66 49 255
14.722520427629519 -22.793522128316255 15.381531921584873 96 59 40 255
15.109787547699142 -21.940429507312160 15.321275230101762 95 59 42 255
15.565463827370309 -21.160397311000850 15.244865101416089 91 54 38 255
16.359880787207715 -20.750134704999084 15.088310834804624 78 41 27 255
16.680112469568826 -19.822119824673905 15.043926751422148 60 22 10 255
16.192624442312876 -17.999557914199841 15.190928147580635 50 9 0 255
16.516514752486103 -17.066603638077424 15.145880197842914 65 27 15 255
16.237723144219984 -15.458546266691229 15.243820568693316 72 39 22 255
15.628187140712782 -13.469928486825097 15.420474729174117 69 40 20 255
11.820521801915163 -7.858950474244722 16.356911764467846 57 36 15 255
-28.111087680535604 -33.342325423846773 25.081597093736448 150 159 103 255
-30.423176277829214 -24.892247004327857 25.796487167550104 173 170 125 255
-29.912949335302415 -24.038814901680070 25.711259822984296 172 158 118 255
-1.167734039733375 -29.063474119624715 19.491172570584446 210 180 152 255
1.356843867024935 -30.285820408163715 18.924018480956335 214 184 158 255
2.387236581746549 -30.052865729031055 18.711845279351948 220 189 166 255
3.697506539171201 -30.103486608111552 18.432872335350211 224 194 170 255
4.581771473214701 -29.737084059718512 18.255152609193594 222 192 168 255
5.745267488698289 -29.655128832979187 18.010747772146132 222 190 169 255
6.695554382194643 -29.364939039045112 17.816999199043515 217 182 159 255
8.273013350156958 -29.716240984449968 17.473421814083217 210 176 151 255
9.427046595194213 -29.647040604058162 17.230644201419132 207 173 148 255
10.021378377168077 -29.010607502945362 17.121412626061954 199 163 139 255
10.893004470415519 -28.661234643946813 16.945839276915365 196 160 136 255
12.178523481705355 -28.745217090272405 16.671121753965600 187 151 127 255
12.976668060382394 -28.329681400612657 16.512839037810160 184 143 124 255
13.221876292074143 -27.337787551495609 16.486909483303329 180 137 118 255
14.156108873870039 -27.069230097833184 16.295890002134804 172 129 110 255
15.225557992741983 -26.948829345411667 16.072300313303835 158 115 98 255
16.086951905131372 -26.613242510457553 15.898460653701726 139 97 80 255
16.331937560946244 -25.621638313905834 15.872524075689221 125 84 65 255
16.305556072040758 -24.334972847577262 15.911858363151488 120 79 59 255
16.621543652506830 -23.412865496068974 15.869021596414534 120 79 61 255
17.006216008122692 -22.563383312369240 15.809705152980371 113 72 54 255
17.662060749705319 -22.009220370606812 15.685131466615545 100 57 41 255
17.912187285883135 -21.010669467042391 15.658235079959617 71 24 9 255
17.624818362990851 -19.414931663088311 15.760966633724820 58 11 1 255
17.744255413602417 -18.262110117220942 15.765809763469598 83 40 26 255
17.664479477852069 -16.882175064169303 15.818842972503887 99 61 43 255
17.320082591677533 -15.198078626534937 15.935956634854584 92 58 38 255
15.579216171157327 -11.926868956812854 16.390803763161486 82 56 34 255
12.518528548967822 -7.130430609902021 17.165506604959440 72 52 31 255
-1.791930089212400 -28.300221828547080 20.579935997472489 214 187 154 255
1.795570146379589 -30.565200590085254 19.748009100031886 214 186 158 255
3.178324083589132 -30.682555577262406 19.448534915796394 220 190 164 255
4.275082233989053 -30.524834740172537 19.218017246909987 221 191 166 255
5.017432198727050 -30.019106634022933 19.073155106314054 221 191 166 255
5.899098239321802 -29.655877553140868 18.894440837116150 219 189 166 255
7.129187981374542 -29.648721311725808 18.631096190615686 214 179 156 255
8.495690462900740 -29.787980663549547 18.334412529176959 207 173 148 255
9.509718297087630 -29.576624871715353 18.123044631051634 204 169 145 255
10.034605515761541 -28.868576593418851 18.030361603409538 197 161 137 255
10.628780369407338 -28.232276070947023 17.920811735904685 194 157 134 255
11.637856275401873 -28.027590655181797 17.710276495930138 190 153 130 255
12.713641171402685 -27.898131642427359 17.483330514817425 185 144 125 255
13.924549248339645 -27.916828315861324 17.223275582027007 183 140 121 255
15.132141751058725 -27.939994729132678 16.963793793730098 183 140 121 255
16.130692796709411 -27.749495350346592 16.755066675643896 174 131 112 255
16.784822429017339 -27.197517952490045 16.630235754519511 161 120 102 255
16.755677029012446 -25.915076428725740 16.672225480962815 153 109 89 255
16.729009391292124 -24.629289784227410 16.713765727585290 149 103 80 255
17.112409003565716 -23.781639539833748 16.655177290921898 147 100 80 255
17.631896101398837 -23.080844689488629 16.563311857527317 142 95 75 255
18.286505415418105 -22.528207467699701 16.438340446175417 123 72 55 255
18.198430404127464 -21.160029561840020 16.495297443940800 82 29 13 255
18.045861721976053 -19.713631324609423 16.568249662035491 101 49 36 255
18.500559658168214 -18.935007824892836 16.492401354731179 116 68 53 255
18.687610890590037 -17.856557717781158 16.482275093453481 108 65 46 255
18.408523365999201 -16.250386853078993 16.586772797472996 107 69 48 255
17.333439852161064 -13.735372643408255 16.887226967620528 106 74 53 255
16.398935772996253 -11.361154517468094 17.153611485079871 93 65 44 255
13.879600513393797 -7.159591496810208 17.810650522535859 77 53 34 255
0.959754058383169 -29.590597679161078 20.882895009197149 205 193 148 255
3.262293594310279 -30.613426590105576 20.353990878063215 212 188 151 255
4.358820574555068 -30.455498977765359 20.121245788965531 219 189 159 255
4.890270525828157 -29.738603202973991 20.027427212125239 219 188 160 255
5.211211943841477 -28.810209813217512 19.985449680043381 215 183 155 255
6.512729182718459 -28.871208786870397 19.701772678400054 210 175 150 255
8.089877523474598 -29.221004155066396 19.349828218482465 203 168 145 255
9.522786216823619 -29.435061908406539 19.033128992429823 201 165 141 255
10.464947827210779 -29.155037653737082 18.837337712572875 195 157 134 255
11.058413864523118 -28.519617286565449 18.727580586452042 196 154 131 255
11.789809591023186 -28.028439692793825 18.583663205795943 192 148 125 255
13.003226302055793 -28.043108817756831 18.320350771050620 191 146 123 255
14.144476789318276 -27.989970432571795 18.074663485864768 189 144 121 255
15.282733945091877 -27.940867009873813 17.829492064001975 188 143 120 255
16.006826106724560 -27.459529555732558 17.686811721508882 184 139 117 255
16.729856792105551 -26.979621148758582 17.544306413800044 186 141 118 255
16.837964749614287 -25.842831140240548 17.554426406966485 180 134 111 255
17.152044519327831 -24.923652217629694 17.513478648851383 172 126 103 255
17.602762432012526 -24.150458983883738 17.438601668129827 167 120 98 255
18.256877142366193 -23.598350756324834 17.313113138957441 160 112 92 255
18.504870382909019 -22.603158042720565 17.288694876007995 130 79 60 255
18.821454449682165 -21.680590443216772 17.247259004294328 131 80 61 255
18.937178951164213 -20.533509999320756 17.255963787424882 139 88 67 255
19.524301932086729 -19.906607276423557 17.147156818522511 136 87 65 255
19.575640612979839 -18.681221956679849 17.172104311408646 128 83 60 255
19.629129660552593 -17.452933510648336 17.196661679388789 121 81 58 255
18.818977901418521 -15.242657200389829 17.437335703021674 116 82 60 255
18.280905330384684 -13.325970462402097 17.610377381479523 107 77 53 255
17.085089699292411 -10.645009565932241 17.948492890277912 96 68 44 255
14.575169280696713 -6.433638769627606 18.616519890140694 78 59 32 255
10.892685790339044 -0.831231029516573 19.579671860283518 55 46 17 255
0.664399290872808 -27.888699953560717 21.930055124843292 172 172 122 255
2.682225705690968 -28.633633660095228 21.465117555076795 205 182 146 255
3.850138370566839 -28.543977551071606 21.212309413299337 211 178 149 255
4.664593700051114 -28.105665054730991 21.047759768204308 208 174 147 255
5.897258580167346 -28.093743530131206 20.778311636669407 204 168 143 255
7.475460235621370 -28.441155338853036 20.421970713605688 200 162 139 255
9.327171644995104 -29.079971765908425 19.996628734969597 197 160 134 255
10.617081293389703 -29.155909103675612 19.711853500827573 195 155 130 255
11.418343856062251 -28.735375056025958 19.549554774604026 196 155 131 255
12.079972237322892 -28.173017568061766 19.422242348276519 192 150 126 255
12.671897332472724 -27.539593189591642 19.312395745730164 194 149 126 255
13.469817270661991 -27.123558276556253 19.150643910329805 196 151 128 255
14.266353854349092 -26.709386328457867 18.989122717382003 195 150 127 255
15.198470685994153 -26.442500088982371 18.793303510378941 192 147 124 255
16.128560004767451 -26.178345989149278 18.597829718218684 191 146 123 255
16.443181344001630 -25.258615674541346 18.557569916922091 186 140 117 255
16.894669576077945 -24.484435577961477 18.482785491778465 181 135 110 255
17.617735599129958 -24.004267453594792 18.339346514943507 178 131 108 255
18.339739130062895 -23.525529959390695 18.196083682278058 168 120 97 255
18.858130037063262 -22.826183309332720 18.104278371295194 149 98 77 255
19.241711179289268 -21.978505772129552 18.046609514069608 161 110 90 255
19.558642001048156 -21.055643622524656 18.005869959067262 157 105 83 255
19.742369793186583 -19.982283130202688 17.998982948086280 153 103 80 255
19.726984396737379 -18.682243703141381 18.042757862712641 143 97 73 255
19.714070748863946 -17.378867411438904 18.086084988689940 138 97 73 255
19.437417764641822 -15.770899402187950 18.196656171013721 133 97 73 255
19.098127847612318 -14.082332716906592 18.323447145408664 125 90 68 255
18.564218768999098 -12.161024492354045 18.500104874038115 110 80 54 255
17.440708481860327 -9.549244591615576 18.827398625111478 100 76 48 255
14.677361436296081 -5.022264510213517 19.573505182321377 81 62 35 255
1.828652344744768 -26.364919682139373 22.656132098217306 190 175 135 255
3.768638970163806 -27.048478479815088 22.204482246565910 202 173 143 255
5.143005558686752 -27.174815475553174 21.896289110340021 203 168 139 255
6.513411383692983 -27.306491585862119 21.588778865543482 199 162 135 255
8.853732453304019 -28.440166776324872 21.033693112982547 200 160 134 255
10.422165376852490 -28.799786530480219 20.674836345737148 197 157 131 255
11.362508864074499 -28.521426202138116 20.475916871743784 193 153 127 255
12.024508832050913 -27.958428079078118 20.347929221438406 193 153 127 255
12.823606794696417 -27.540541095976977 20.184819230150943 197 153 128 255
13.277536038584401 -26.763133676518351 20.109890199870762 202 158 133 255
13.868884327771127 -26.130404450471872 19.999782732027931 200 156 131 255
14.733555590286784 -25.789079056498679 19.819601769779858 197 153 128 255
15.937892414672319 -25.814691523534549 19.552185002001103 196 152 127 255
16.457780948943707 -25.113322126155310 19.460104230392986 191 146 119 255
17.113477635339905 -24.558804471384292 19.333131784865266 189 144 115 255
17.632850525445718 -23.858124725653141 19.241116136279125 187 141 114 255
18.422649242956538 -23.452757738898271 19.079542117287055 180 133 107 255
19.008653927848769 -22.827216160858740 18.970288004965532 182 132 107 255
19.863476414973718 -22.499156908846487 18.791761283724085 178 128 103 255
