ply
format ascii 1.0
element vertex 662
property float x
property float y
property float z
property uchar red
property uchar green
property uchar blue
property uchar alpha
end_header
15.721867839179296 -30.223533339664840 -4.344139699587430 188 147 125 255
15.598329891462811 -29.564519116681481 -4.624202022435412 175 138 115 255
15.602006953997730 -28.823941683595422 -4.633326856703690 164 128 104 255
15.605684938430358 -28.083471835916086 -4.642451014586527 150 117 92 255
15.524543758863942 -27.399718682216019 -4.832172418170870 144 112 87 255
15.443398409370531 -26.717148518856916 -5.021880005483212 135 103 78 255
15.574313035832660 -25.891525920853425 -4.760112600762284 125 95 69 255
15.747651366469157 -25.035261209161206 -4.408075952844854 115 88 61 255
15.878586605897837 -24.206314621987417 -4.146351335797050 110 84 57 255
16.306449567224973 -23.168238177031640 -3.252670755232231 102 78 50 255
16.734341399068995 -22.124845911216880 -2.359056776476024 96 70 42 255
17.119842743005250 -21.106332319534403 -1.555785104616405 94 68 39 255
16.996320058429916 -20.448643309167565 -1.835840838050018 91 65 38 255
17.042480608930319 -19.669701864303221 -1.754801133268529 91 65 38 255
17.003799271240609 -18.952306886803242 -1.854299725489795 88 62 35 255
17.219667533586062 -18.047857439159159 -1.412218508810469 83 57 32 255
17.435552198612996 -17.140772718665019 -0.970171241415500 79 55 29 255
17.736308710646313 -16.167414949336560 -0.347646808312362 77 53 27 255
17.867371440022694 -15.318681871480834 -0.086179025606953 68 47 21 255
18.337888440171241 -14.209527205292090 0.897259393674830 60 42 17 255
31.885884432572396 -1.361152848477133 29.655468147598100 23 23 3 255
15.408765467980487 -8.366094307731728 -5.520403632552870 154 155 118 255
13.672205543313083 -9.088386806810490 -9.228094082668207 187 158 134 255
12.699604084404669 -9.187230173110152 -11.311812725938893 178 143 121 255
12.151439611126875 -8.937122385526393 -12.493357955989779 160 124 102 255
12.027753581214625 -8.329963627627990 -12.772830125978317 137 105 82 255
11.819160619638026 -7.797738137894370 -13.232676285723585 151 124 100 255
11.610559833128249 -7.268171891726297 -13.692492078349858 161 135 110 255
11.529316423452585 -6.629618635388368 -13.881711043733645 152 126 101 255
11.320704582925970 -6.104543325606983 -14.341476515686878 147 120 98 255
11.069627547060080 -5.619862380569913 -14.891394160783108 142 117 94 255
10.945918064789467 -5.024286813380513 -15.170738797214995 130 108 84 255
11.204352427283112 -4.085622203061831 -14.638487940195205 107 88 62 255
11.377886644391069 -3.220766530620637 -14.286625462816232 92 75 47 255
11.551439328836054 -2.353666252651493 -13.934793906590784 82 67 38 255
11.725010699454728 -1.484313972637239 -13.582993443849119 71 60 30 255
11.941067192655723 -0.573328870940628 -13.141062210375509 55 50 18 255
17.623432094376085 -33.190433099092559 -1.986655442469868 186 173 138 255
17.541794253348343 -32.492774538044685 -2.176295955025466 193 162 138 255
17.289551954861935 -31.901962244598565 -2.726766782726571 196 160 138 255
16.781387197151702 -31.474601655852652 -3.818443885480548 198 157 137 255
16.486453576778089 -30.919096001606405 -4.459017490425367 192 151 131 255
16.404771058883895 -30.231384395580250 -4.648537544588692 182 141 121 255
16.408394264889949 -29.489883286642993 -4.657647702603384 169 126 107 255
16.497331281629059 -28.692967547713224 -4.486367996020732 160 119 99 255
16.500959158523841 -27.951143548745605 -4.495483500196571 143 107 85 255
16.419270124130065 -27.266030568017499 -4.684974383314625 134 101 77 255
16.380237621948936 -26.553527265400362 -4.784266963751264 126 96 68 255
16.426527513695220 -25.783976148513915 -4.703190013886399 117 87 59 255
16.643474017384847 -24.897525266071057 -4.261407618100293 107 78 50 255
16.817771304731565 -24.037849301204417 -3.909833007029590 101 74 45 255
17.333406924269042 -22.938869121624023 -2.836914337447098 98 73 43 255
17.806409607834283 -21.863416912472502 -1.854243529832218 91 65 39 255
17.980765420983133 -20.993465944965436 -1.502798867542083 90 64 39 255
17.813776984195158 -20.365148684322619 -1.872672079941538 92 66 41 255
17.902806817261563 -19.554661767026303 -1.701570926923665 91 65 40 255
17.949172600655828 -18.774171274495060 -1.620638383677260 87 61 36 255
17.995544203631056 -17.993209013643352 -1.539713203532528 84 58 33 255
18.169946845327004 -17.117138380554593 -1.188351274629582 81 55 30 255
18.472392717486684 -16.143525976446952 -0.566582628333038 77 51 28 255
18.774860993037763 -15.166190686556376 0.055138400167465 69 47 24 255
19.504142068526946 -13.861589542638413 1.578192752659135 58 41 18 255
33.430119368285204 -0.773054102508269 30.931905511154213 19 23 2 255
14.938563594743087 -8.597674343752161 -8.264754485746550 169 158 124 255
14.002921585060832 -8.656807549176222 -10.255859264684290 162 135 108 255
13.451507278422881 -8.402609171350548 -11.435996879354747 152 119 94 255
13.113560456657325 -7.973393076983186 -12.165610138979901 156 126 100 255
12.690197173963654 -7.621802659425853 -13.075342997625029 169 143 117 255
12.480323514746615 -7.090865835626673 -13.534605124129882 163 137 111 255
12.526663606505124 -6.339318257758080 -13.453368585432884 156 130 104 255
12.316785083510425 -5.812062256191524 -13.912591339459226 151 125 101 255
12.106900255580101 -5.287447087037606 -14.371784590158995 149 123 99 255
11.811594208420487 -4.841507306750287 -15.011084708386846 137 114 89 255
11.857948016643064 -4.092953168651803 -14.929824029064321 116 94 69 255
12.032443588766412 -3.228100372957513 -14.578390149498119 94 78 49 255
12.377805367914860 -2.205681437404024 -13.866755309031760 83 68 39 255
12.723197948997552 -1.178849861050324 -13.155178802613108 78 67 39 255
18.442524432509430 -33.120841336829940 -2.024075321205657 165 168 126 255
18.231641287913732 -32.500773482254175 -2.483788253898183 191 161 134 255
18.063644300316952 -31.857127775986413 -2.853366729172507 195 159 137 255
17.638235833526295 -31.375834089740394 -3.763498704550415 196 157 135 255
17.298605012836262 -30.846172511204941 -4.493376394652785 195 154 134 255
17.259274030452914 -30.130422867378314 -4.592568708003682 182 141 121 255
17.048324775135029 -29.525283605393369 -5.052101273942100 169 126 107 255
17.051890825734120 -28.784160661543339 -5.061182126511426 160 118 98 255
16.969644645996084 -28.099204859083798 -5.250423013782296 143 107 85 255
17.144843000384398 -27.245633627284406 -4.899188446164374 132 97 75 255
17.148415995311467 -26.504283731367877 -4.908274688830289 120 89 61 255
17.452365391262106 -25.561147647360229 -4.286868359624549 112 82 54 255
17.713423084368799 -24.643435350561091 -3.755575357380621 105 76 48 255
18.103238420386361 -23.634430564929403 -2.954130998902315 96 69 40 255
18.493079646355397 -22.620652983760110 -2.152746424695522 93 68 38 255
18.840031102709361 -21.632021336139047 -1.441478847801449 92 64 39 255
18.714917249704030 -20.971256871091441 -1.720856232782182 91 63 39 255
18.718554016771435 -20.220808168272967 -1.730062874941126 93 65 41 255
18.679274170512798 -19.501166808945769 -1.829317323226377 93 65 41 255
18.768758429680489 -18.689133191982606 -1.658434412553873 90 62 38 255
18.643639396980987 -18.032444686446993 -1.937768290350448 87 59 35 255
18.818982448089599 -17.156650502317504 -1.586822855383588 84 58 33 255
19.123115173374515 -16.183322919792204 -0.965803425571664 76 52 28 255
19.770681500170014 -14.949623009376893 0.375412926142360 67 45 22 255
21.276845575764824 -13.060857156973441 3.517073658527778 58 40 17 255
34.378092960624969 -1.497465177453321 30.954542272307236 41 39 15 255
15.571356895825858 -7.911362773439762 -8.663320588740106 137 141 101 255
14.930807905578689 -7.723710610108810 -10.022031992439082 166 151 118 255
14.290225845967512 -7.544125148063998 -11.380647117706275 175 149 120 255
13.649610813103564 -7.372600866899603 -12.739166063191021 169 143 116 255
13.266665394296567 -6.987504523240830 -13.557764306649659 167 140 113 255
13.227317710953841 -6.309557329233641 -13.656567085310428 157 131 104 255
13.145022369122444 -5.669575581420801 -13.845331477834861 148 122 97 255
13.019775486099391 -5.068362649559930 -14.124047633028766 138 112 87 255
12.808617285961418 -4.544739506727410 -14.582663114870144 128 104 78 255
12.726325968459335 -3.908881878895556 -14.771387617106853 114 93 66 255
12.901789971844622 -3.042680943932282 -14.420399145748803 99 83 54 255
13.206154332273940 -2.057752201792240 -13.799600250872459 87 73 44 255
13.295740676857008 -1.264438539351474 -13.628573643666158 74 66 37 255
13.127565734822511 -0.706151204374734 -13.997210016540521 26 33 2 255
19.482382121644775 -32.169097326981102 -1.621372015593153 185 162 131 255
18.622978797407129 -31.944389483188871 -3.430349542719568 195 159 135 255
18.238167396412777 -31.437201591370879 -4.249349865838383 198 158 136 255
18.198538489630366 -30.719438098971622 -4.348429702486811 192 154 133 255
18.115755981025131 -30.029546790039689 -4.537481349419437 187 145 125 255
17.860356723383958 -29.450795099407458 -5.086422722092834 171 128 109 255
17.820715584756428 -28.736615010803078 -5.185460885815473 161 118 99 255
17.824229052614641 -27.995055898458276 -5.194522702575483 146 108 87 255
18.086686225518889 -27.083817442011934 -4.663788233860458 132 96 73 255
18.133369163469368 -26.312275139344166 -4.582906652328063 120 89 61 255
18.395854599878319 -25.396102125524649 -4.052234661158479 110 79 51 255
18.572035983270069 -24.534998433667724 -3.701514518307562 99 69 41 255
18.964040840181127 -23.524935264999570 -2.901057070718252 94 67 38 255
19.140254379252980 -22.658340733524085 -2.550406763392061 92 65 36 255
19.186986974723396 -21.879426983046116 -2.469621828959390 92 65 38 255
19.061061260905660 -21.220809968312892 -2.748615534726810 91 63 39 255
19.194134922454850 -20.381141399141242 -2.487952720695631 93 65 41 255
19.413557057340299 -19.478471131109103 -2.047438039996280 92 64 40 255
19.546656147098574 -18.635169720676586 -1.786823282271968 89 61 37 255
19.550253508379328 -17.884121860150884 -1.796018411073533 86 58 34 255
19.597027578291204 -17.101599380824027 -1.715288443556858 83 59 33 255
20.118720061197067 -15.968704637443238 -0.645413060694295 76 53 29 255
20.985848849322210 -14.572761398300983 1.143739275167832 67 47 23 255
35.548150580149468 -1.210510421459617 31.415408249827607 36 45 13 255
15.645631551954850 -6.969386258457206 -10.238871610572204 159 149 114 255
14.871680919655219 -6.903488688548123 -11.865355914978693 168 145 115 255
14.097690701447164 -6.847265588937319 -13.491724784973030 169 142 115 255
13.842062774902118 -6.354251605885722 -14.039697609701932 150 122 95 255
13.716032288766129 -5.751999321742147 -14.318074895199544 129 103 78 255
13.762814461612891 -5.000328648042185 -14.237036705654162 118 92 67 255
13.636792109176497 -4.400111967746213 -14.515397042742848 114 90 64 255
13.467565880857563 -3.839728002387901 -14.883585883941464 109 88 61 255
13.471166580605896 -3.127206672454506 -14.892393094122241 97 82 53 255
13.734027444416242 -2.181651645516951 -14.362185468741956 89 75 46 255
13.867286344713051 -1.350048012974710 -14.101523728320984 76 71 40 255
19.527980049399545 -31.820485388338611 -3.287633746292386 193 160 133 255
19.314469550971936 -31.205228650867241 -3.746126626425195 201 163 137 255
19.144346883029456 -30.565852767859980 -4.114714194919344 197 159 137 255
18.887413254666868 -29.983182009930260 -4.663011069616147 191 150 130 255
18.587063509348582 -29.431352608006165 -5.301132699454087 177 132 113 255
18.547118197440042 -28.716896391146065 -5.400038036349457 165 120 101 255
18.593981390931418 -27.947039844247868 -5.319219784231876 149 107 87 255
18.857878777475378 -27.035275092487808 -4.789132764421737 135 98 76 255
18.991571680017231 -26.206062421837984 -4.528640360292400 122 88 61 255
19.255499924193273 -25.288822329350793 -3.998622440608017 111 80 52 255
19.432626343295382 -24.426645617018508 -3.648334494129557 102 71 43 255
19.653176656519037 -23.533024937162935 -3.208231350912939 95 65 37 255
19.960567191041534 -22.577501563675028 -2.588484482112136 90 63 34 255
19.833843175791486 -21.917437782805536 -2.867136882771831 91 63 39 255
19.707115031863111 -21.259077273665909 -3.145770226803819 92 64 40 255
19.667215164557405 -20.541504899724529 -3.244727322067973 92 64 40 255
19.800986146381490 -19.701645281721625 -2.984377344208781 93 65 41 255
20.021606217040627 -18.798245805525198 -2.544404142067748 87 59 35 255
20.198823558012066 -17.923479682874842 -2.194283981271212 83 55 31 255
20.506319341149094 -16.952010860249018 -1.574745207011489 78 52 29 255
21.117795169510842 -15.754184221485502 -0.326568928824742 72 50 27 255
22.163549412396634 -14.228101761486087 1.819602070527282 58 40 16 255
16.143648495201560 -6.397829591374048 -10.904668436983940 175 156 124 255
15.061038141851199 -6.596292886236171 -13.157319662960731 173 143 115 255
14.630098909475109 -6.250170871750626 -14.063619459288901 140 112 85 255
14.503292047206202 -5.647089700202883 -14.341658970015260 118 92 67 255
14.463389857374992 -4.970085143792332 -14.440204990347155 111 85 60 255
14.206232834217488 -4.483614636096121 -14.987429918396003 112 88 62 255
14.166339941332524 -3.808902266733128 -15.085956915544699 108 87 60 255
14.300276423604586 -2.980443664775137 -14.825565491396816 104 87 59 255
14.521145625048575 -2.072635488125414 -14.385747926928758 94 80 51 255
14.568208253809075 -1.318401963379713 -14.304860684653136 73 68 36 255
20.828270809696306 -31.459087566921113 -2.338116237695090 192 167 137 255
20.264295223782653 -31.053378013463927 -3.514184717689375 199 163 137 255
20.005829345390822 -30.466243910004195 -4.061843541230019 198 160 138 255
19.529099897201263 -30.018520768207608 -5.058248247100067 194 153 133 255
19.357902897614522 -29.384497230915827 -5.426302718419777 180 135 116 255
19.317654847091262 -28.669494296693159 -5.525078603124769 167 122 103 255
19.495674492235793 -27.815033442415910 -5.175110919680719 149 108 88 255
19.586396262463055 -27.015097060015918 -5.004657489152038 136 98 75 255
19.633469122054066 -26.242742641919889 -4.923957965383948 123 89 62 255
19.811519201468840 -25.383450380182325 -4.574052684748153 113 82 54 255
20.164216588508850 -24.405683307534233 -3.865237157684106 104 73 45 255
20.254977587689197 -23.599919642117413 -3.694860116952015 98 68 40 255
20.389408002999744 -22.763522205798694 -3.434769158128262 94 67 38 255
20.218212780931253 -22.134977832008715 -3.802769041294567 97 67 41 255
20.178002280691857 -21.418128589170564 -3.901580329631059 98 68 44 255
20.181458231990831 -20.671445400782261 -3.910668293853092 98 68 44 255
20.359583041245230 -19.801946282262961 -3.560899497897253 98 68 44 255
20.537722467965523 -18.930358195992014 -3.211158333493245 91 61 37 255
20.890551357392610 -17.931626817884052 -2.502613334514564 85 55 31 255
21.418085078918580 -16.802508961552718 -1.435304134035221 77 51 29 255
22.032996741289395 -15.603366894241248 -0.188673042287263 66 46 23 255
22.822639085906602 -14.268432674949111 1.416656087617042 53 39 13 255
37.111487358907397 -2.079412613657624 30.727165993953150 35 45 11 255
17.684729083045923 -5.672334708734923 -9.409225687098086 156 133 103 255
16.071551181204640 -6.308470895417045 -12.734822243907331 165 134 106 255
15.681799570722362 -5.922950471483531 -13.550390185370645 141 115 85 255
15.466828043421344 -5.392358327472550 -14.007375907712458 123 97 72 255
15.382953167080942 -4.751188626182127 -14.195448060921677 113 87 62 255
15.080580156473431 -4.301078226392249 -14.831639478390855 112 88 62 255
14.909306935059035 -3.739837839610871 -15.198924309616473 113 92 65 255
15.087663537847092 -2.872285956586580 -14.849239178744057 105 90 61 255
15.397158013033049 -1.886030622944105 -14.230740990113901 93 78 49 255
15.531859137124059 -1.052257928213763 -13.970744199113625 64 60 28 255
22.750051190108607 -30.728299306802967 -0.136513747314268 180 174 132 255
20.953711216735599 -31.061621187656087 -3.821482365074303 199 165 139 255
20.518103137036405 -30.582212812771616 -4.727047715565476 196 160 138 255
20.170269872200961 -30.053915214383096 -5.453254501867036 192 150 130 255
20.085819785039689 -29.365192482042289 -5.641550835787825 179 136 117 255
20.045267954862396 -28.649913012926973 -5.740194073277110 168 123 104 255
20.180326220652205 -27.823208410018310 -5.480285075639756 149 108 88 255
20.227586320179824 -27.051562727764335 -5.399661870562198 138 101 80 255
20.230946281339328 -26.308036323440149 -5.408675129695325 123 88 65 255
20.497746843312825 -25.391634263039194 -4.879929382672572 114 82 58 255
20.852380183495114 -24.413886434222292 -4.171976819414738 107 77 52 255
21.119218929714279 -23.490646564835075 -3.643317210294725 99 71 46 255
21.166526093333346 -22.712451382815956 -3.562781188174569 97 68 43 255
20.906461152058398 -22.143168811219326 -4.109546623844068 100 70 46 255
20.865947809075578 -21.426311034012329 -4.208222973876360 101 71 47 255
20.957177441752393 -20.618722567012242 -4.038073320873082 100 70 46 255
21.092331620543106 -19.779408847792354 -3.778334533427142 100 70 46 255
21.227498210123258 -18.938545916339280 -3.518616938089252 94 64 40 255
21.406594881945495 -18.064870308655159 -3.169323667774080 89 59 35 255
21.893137292652952 -16.968390315774982 -2.192902181084435 83 55 33 255
22.379712876541731 -15.866030622702226 -1.216554913989881 72 48 26 255
23.261611795545647 -14.469162039131305 0.566002702299869 54 40 14 255
18.268998522060031 -5.753443105610017 -9.887894249195341 160 128 99 255
16.910254328297782 -6.168440957071098 -12.672203828697235 166 134 106 255
16.430346188183066 -5.856195487611188 -13.665821951185791 143 116 87 255
16.301993767129389 -5.250103762646376 -13.943202792850201 130 104 79 255
16.173645707055158 -4.645571859102134 -14.220569812985246 109 83 58 255
15.957403879171238 -4.118605855631060 -14.676952511651592 114 90 64 255
15.873013260368666 -3.479438193212559 -14.864774481841778 111 91 64 255
16.140245351740845 -2.532901360344979 -14.336525722596917 101 84 56 255
16.451460129151954 -1.544221370216235 -13.718819050030817 95 82 52 255
16.630843908608085 -0.668925655247122 -13.369670163914293 45 45 9 255
21.775543046416828 -30.989937329355087 -3.860144811239621 195 168 138 255
21.293244779019602 -30.536618388370400 -4.854123179499339 199 164 142 255
20.943365500795323 -30.007753053361583 -5.579423474753895 195 155 135 255
20.990811454409368 -29.236057177649172 -5.498883641357480 183 140 121 255
20.949960881151881 -28.519419409709514 -5.597407411157178 171 126 107 255
20.953261663216921 -27.775413836610909 -5.606399128075935 154 113 93 255
20.956564884471945 -27.031512059907584 -5.615390883402114 142 106 84 255
21.004024830660512 -26.259155441482335 -5.534863967153626 130 95 73 255
21.360576609649655 -25.284574402670998 -4.827734744973839 118 86 63 255
21.628838139155121 -24.363957234434338 -4.299682984815661 109 80 56 255
21.941275345162268 -23.410823497262015 -3.682162056700662 104 76 52 255
21.723827547574231 -22.809634462874442 -4.138757274954486 103 73 49 255
21.550531915650268 -22.181325432205085 -4.505818296894404 103 73 49 255
21.333069885498503 -21.585435540384935 -4.962353608349787 102 72 48 255
21.689712339692051 -20.596516602579158 -4.255409734732666 102 72 48 255
21.825561011442602 -19.756935231833168 -3.995983297142601 101 71 47 255
22.049752141547657 -18.853830832521410 -3.557599294459891 101 71 47 255
22.141462906571263 -18.041863499355998 -3.387708417106154 93 63 39 255
22.542355773361564 -17.008192118827736 -2.591452371300818 87 59 35 255
22.899108470761604 -16.001517054154846 -1.884737120532861 76 53 28 255
23.874264035154212 -14.541646148559295 0.074592299069877 58 44 18 255
20.439629884762297 -5.253916925167758 -7.137943044532904 132 108 79 255
18.719691834835217 -5.944542421605689 -10.634376818396134 166 129 105 255
17.485781528808516 -6.250015692943450 -13.146969888798168 166 134 109 255
17.047296775703586 -5.901071184500040 -14.049933990055251 151 121 93 255
16.873968504662130 -5.332690392320671 -14.416374734645984 132 102 76 255
16.965820347368762 -4.540008692065442 -14.246351828137819 108 80 54 255
16.969295875542855 -3.822187326656888 -14.255156799827574 114 88 61 255
16.928586436009482 -3.142566024938361 -14.353369350973168 109 88 60 255
17.020489065085386 -2.347774613188378 -14.183390411844101 95 80 51 255
17.245016006140077 -1.435375807012747 -13.745250076096966 88 77 47 255
17.381165546157632 -0.598349006908549 -13.485931962402532 24 30 0 255
23.575528934270281 -30.331813878099368 -1.931986525979084 191 175 142 255
22.557714368711174 -30.194862018529321 -3.997929889336717 198 165 142 255
22.117008277890875 -29.716855352111537 -4.901208087968115 197 156 136 255
21.987067711885729 -29.052070056605686 -5.178474089602133 186 143 124 255
21.857122119634937 -28.389016540890438 -5.455720346276365 170 127 108 255
21.815972892079799 -27.671667488649646 -5.554118148268259 158 115 96 255
21.819225679373972 -26.926680303753358 -5.563098388027299 142 105 83 255
22.000093056969177 -26.067582970273079 -5.214447249345369 133 98 76 255
22.269781340569963 -25.148775490336249 -4.687013326093506 123 91 68 255
22.317461030931213 -24.372286110287263 -4.606626156237411 114 84 60 255
22.453959914313785 -23.536621405894834 -4.347450032348064 111 81 57 255
22.412839547279034 -22.817958217712643 -4.445873984641395 108 78 54 255
22.416130182301671 -22.070016720867201 -4.454900959798891 108 78 54 255
22.286195601696349 -21.412677769553071 -4.732094366104462 107 77 53 255
22.467137581144115 -20.543930802316822 -4.383574022904071 106 76 52 255
22.692507029899460 -19.642383836334801 -3.945699640107108 104 74 50 255
22.873480672437225 -18.769190846890567 -3.597238352309546 102 72 48 255
22.965640470388507 -17.956411903786531 -3.427555882793627 96 66 42 255
23.191059616184319 -17.048044390593759 -2.989772596486347 89 62 38 255
23.505332077695343 -16.073448449161688 -2.373286859271502 80 57 33 255
24.219394378202509 -14.806555645874482 -0.952559836914560 63 50 24 255
25.999573911168426 -12.755072809659779 2.612753841195854 43 38 9 255
20.630931542806522 -5.662092313667557 -8.423543115025126 136 107 78 255
18.990133317349958 -6.282256853632333 -11.736986389948271 167 126 104 255
18.104746177732210 -6.294697372739506 -13.531981872126806 165 129 105 255
17.708183260233682 -5.908788593654378 -14.344516869792272 152 120 95 255
17.667157195655875 -5.227999733794377 -14.442600052536420 132 100 75 255
17.848365482848436 -4.359037865806343 -14.094200616625926 114 84 58 255
17.940706929430732 -3.563850265952297 -13.924421331839142 111 84 57 255
17.988621323438664 -2.805779400027490 -13.843952641029887 104 81 55 255
18.036553613745468 -2.047087844118749 -13.763498203038438 92 76 48 255
18.173403737700582 -1.210147469677622 -13.504491576068062 83 73 43 255
24.361137312024979 -30.287013292970258 -2.063720633877011 175 176 133 255
23.828634439264377 -29.853245760464517 -3.144611175216369 193 164 139 255
23.206813363923587 -29.480481067143515 -4.404049712054928 197 155 136 255
23.031433493360367 -28.840717686065830 -4.770297236454468 187 142 123 255
22.677453255048405 -28.314181849467928 -5.493745544417749 172 129 110 255
22.725302406564865 -27.539996459081394 -5.413410642421553 162 119 100 255
22.639204787852279 -26.850212117746707 -5.600983143040480 148 108 87 255
22.865668383866819 -25.961761686848973 -5.163464220194413 136 100 78 255
22.958188200433185 -25.157166096511759 -4.993859554229232 131 96 74 255
23.095370663772030 -24.322494073064888 -4.734978175739656 117 86 62 255
23.187909008462270 -23.515652687852139 -4.565404470051590 113 83 59 255
23.280456555471659 -22.707818865311239 -4.395844898347377 110 80 56 255
23.373013655519358 -21.898989344711879 -4.226299649955592 111 81 57 255
23.242286609471563 -21.240014063459029 -4.503156269187599 110 80 56 255
23.245538048700752 -20.491414629409832 -4.512172418728682 110 80 56 255
23.293456560083143 -19.712178257282986 -4.431919494139265 109 79 55 255
23.475370697119629 -18.839529543660717 -4.083872031152652 105 75 51 255
23.612637373225652 -17.996037697510147 -3.825117345919040 98 68 44 255
23.794582821782228 -17.119467379060652 -3.477123481034027 91 65 40 255
24.021210977929712 -16.209004754904754 -3.039900416832864 81 57 33 255
24.605195291105019 -15.039412084254508 -1.888675343581866 68 52 26 255
25.591233001540061 -13.571877095326684 0.065724729973340 55 46 19 255
20.816756912171940 -6.070245035526526 -9.706701772828580 148 112 83 255
19.658283219419346 -6.290127411809479 -12.034806167484163 166 124 101 255
19.080716165607299 -6.044069476079528 -13.203201116480244 165 123 101 255
18.637201691056674 -5.693417361997604 -14.103939940716998 153 117 93 255
18.640592698966316 -4.973532574244189 -14.112728084504511 125 93 68 255
18.867463280043197 -4.064948907032431 -13.675594115595032 116 85 60 255
18.915585523158086 -3.305588317245892 -13.595231131661222 109 81 57 255
18.919030829135949 -2.583880951593230 -13.604061906339240 98 76 50 255
18.967189241897955 -1.823554759338307 -13.523724808728474 86 71 42 255
19.104763123958236 -0.984984916762073 -13.265057344252796 70 63 33 255
24.522382641101885 -29.861786949131613 -3.453837356194185 189 164 137 255
24.166389834199293 -29.325807003939417 -4.176483802682725 193 153 133 255
23.989965454402494 -28.684405174773303 -4.542282185922460 186 141 122 255
23.589047949713475 -28.183954216032902 -5.354033395939155 173 130 111 255
23.547300039393107 -27.464427891757254 -5.452186277800905 164 121 102 255
23.505552919272361 -26.745545506317200 -5.550333003363761 151 109 89 255
23.778111859721804 -25.827477630558221 -5.024171507088397 138 102 80 255
23.601669819094568 -25.194432828877083 -5.389877547425783 129 94 72 255
23.739543692016397 -24.360034479975496 -5.131301672590780 118 86 63 255
23.742716510626593 -23.612177848161110 -5.140275260699099 115 84 60 255
24.060231173214646 -22.657017070949195 -4.525038640599746 114 83 60 255
24.243047833395039 -21.787851554803851 -4.177358367463427 114 84 60 255
24.246248942439280 -21.037276774636496 -4.186372042758620 113 83 59 255
24.159638527189912 -20.347654763111322 -4.373714268688531 111 81 57 255
24.028119917066263 -19.689894232222585 -4.650205685419309 110 80 56 255
24.076245275642435 -18.909912562903159 -4.570052518199930 107 77 53 255
24.124380018253220 -18.129456561426466 -4.489908329232946 100 71 47 255
24.352178055541245 -17.222451522322785 -4.053171917201411 94 67 41 255
24.714739227030392 -16.217441611129857 -3.349029584877911 86 60 35 255
25.122243048942053 -15.176108563684053 -2.555798520208242 75 54 30 255
25.709444170679333 -14.000656331576522 -1.406066909207283 64 47 21 255
27.509472721190633 -11.938103525159761 2.150285055163124 42 34 5 255
20.952170370340340 -6.514749274978442 -11.076510367762268 165 122 97 255
20.236548978179940 -6.371327669801772 -12.510797018062988 170 128 106 255
19.880402244982037 -5.941180657374090 -13.232305128535614 166 119 99 255
19.569189534022740 -5.478118569321069 -13.864686212735876 148 110 87 255
19.482674702858446 -4.831506775309080 -14.051636329513912 126 91 69 255
19.710759448437130 -3.921840593290725 -13.615054645903882 113 83 59 255
19.804045966626589 -3.123390629856715 -13.445729702290777 105 78 54 255
19.807467040278993 -2.400315120527509 -13.454563501335201 94 73 48 255
19.900795624616123 -1.600088425692576 -13.285275271531106 82 67 41 255
19.994147209524371 -0.798692681310243 -13.116009112867431 57 51 22 255
25.667531857815433 -29.601176045360106 -2.872105656468761 183 165 135 255
24.993494931709165 -29.252805570822375 -4.217510689761156 190 151 130 255
24.816022855035484 -28.610576324150585 -4.582850313112203 184 139 120 255
24.277374599502096 -28.192480059357663 -5.660842494939288 173 130 111 255
24.280470532046408 -27.444943210183283 -5.669778570650180 163 120 101 255
24.238421282716303 -26.725782557958922 -5.767793402364703 151 107 88 255
24.331822203666647 -25.921631828617635 -5.598577086546300 138 102 80 255
24.199478087192489 -25.260566041534020 -5.874733853362955 128 93 71 255
24.338042637100813 -24.426711346111645 -5.616460426735841 126 93 70 255
24.521771684157301 -23.561971914672341 -5.269142211026804 123 91 68 255
24.750669010640095 -22.665534245160529 -4.832789115067158 120 88 65 255
24.798962300554010 -21.886057221359223 -4.752705720507720 118 88 64 255
24.802107442748209 -21.136285147709145 -4.761686329229377 116 86 62 255
24.760101426312190 -20.417024629876821 -4.859721446025731 113 83 59 255
24.718099857600436 -19.698377348086069 -4.957752347584801 110 80 56 255
24.721262890992023 -18.949364678599380 -4.966733257541193 107 77 53 255
24.724433430550846 -18.200417253467222 -4.975716854717319 103 73 49 255
24.817935989441963 -17.388501734957643 -4.806624337534259 96 70 43 255
25.137267480154151 -16.416640544010235 -4.192366562536819 90 62 38 255
25.727609961406614 -15.248726087503385 -3.043959360646994 83 57 34 255
26.137329563997568 -14.203139970125093 -2.251759205290114 75 51 27 255
26.863246322588481 -12.924579716430245 -0.836435505189826 56 40 14 255
22.795238620507916 -6.313818858902977 -9.053445710466548 143 106 80 255
21.397892816458480 -6.704617863928036 -11.820789080711165 177 130 108 255
20.949362417479264 -6.342629199632555 -12.719406104029929 171 128 107 255
20.636380661386994 -5.875259535454092 -13.351041985872939 163 115 95 255
20.233023762191849 -5.485983151453624 -14.160581877137957 143 105 82 255
20.100790847355171 -4.876799322770523 -14.436263826832970 123 88 66 255
20.375273357393723 -3.929677625251514 -13.911253629224973 110 77 54 255
20.604597682444449 -3.017239468589565 -13.475252638581196 100 73 49 255
20.698376456180910 -2.216811158785788 -13.306167166708775 92 71 46 255
20.746985449011376 -1.453752171428832 -13.226058585128101 79 64 38 255
20.795615932295334 -0.690063664250800 -13.145965948091913 42 38 11 255
26.139815686890429 -28.989562233355031 -3.636327936031307 186 153 126 255
25.598151444149536 -28.564284957234435 -4.713048000874920 183 138 121 255
25.192649050067843 -28.062417846536178 -5.522769319498707 176 132 117 255
25.150300039515599 -27.341524335719001 -5.620668015442675 162 116 101 255
25.062554972068767 -26.649544354079566 -5.807528181911323 156 109 93 255
25.020207848521835 -25.930204817047581 -5.905412012392048 142 101 81 255
24.932463234028845 -25.240313132184795 -6.092251273343237 135 96 76 255
25.207924246268050 -24.318948452323212 -5.567417008633527 131 95 73 255
25.301796505346502 -23.511836150345871 -5.398440776341999 128 93 71 255
25.350275797254938 -22.733351521277726 -5.318430281444279 124 90 68 255
25.171743197176980 -22.103867172587030 -5.683168243862866 121 89 68 255
25.174828444727794 -21.355977797628157 -5.692103118750452 119 87 66 255
25.359545319452309 -20.486438606369688 -5.345273846545410 115 84 63 255
25.408056203308917 -19.706916392540535 -5.265287924532942 112 81 60 255
25.547393811463323 -18.864979754993186 -5.007440859627820 109 78 57 255
25.459698131608164 -18.177695913764282 -5.194275579638685 105 74 53 255
25.553649225755322 -17.365506533460817 -5.025385813111058 102 71 49 255
25.738437355223795 -16.488730895147768 -4.678661452759002 93 65 41 255
26.241134725727079 -15.385488043289186 -3.709511124053705 90 62 38 255
26.653038539738318 -14.340997699281345 -2.918273739173202 78 54 30 255
27.019557769485999 -13.324283974017092 -2.216014431298447 69 44 22 255
28.203601410139612 -11.711790770937199 0.086613601519389 50 35 8 255
23.155345360007004 -6.574656710051116 -9.977822467087776 158 115 91 255
21.977412796894214 -6.785389028976482 -12.297343471896937 175 130 108 255
21.617226397955676 -6.350614452404116 -13.017097242138078 168 126 104 255
21.211603116106232 -5.957023794687856 -13.825670257312851 158 112 92 255
20.942281112019060 -5.456705334520706 -14.367611311373707 139 102 77 255
20.809271778648920 -4.847223725933006 -14.642950099221167 120 85 63 255
21.085213784643287 -3.899830297430213 -14.118593374663959 106 73 51 255
21.452067474509192 -2.873150500026227 -13.416583920307204 96 70 47 255
21.591758434659425 -2.033368743355126 -13.158872619403382 87 67 42 255
21.731476500232674 -1.191883803873338 -12.901190618571690 74 61 34 255
21.689450633960405 -0.503884213657258 -12.998900915197282 28 28 2 255
27.564936640649023 -28.563327972247578 -2.524134450765104 182 156 125 255
26.928961699850021 -28.188593943615729 -3.777282292289698 184 138 120 255
26.338603561728092 -27.793814015562134 -4.941477454736031 178 134 117 255
26.113381947147772 -27.182195712818427 -5.394712075935530 166 120 104 255
26.025091974131655 -26.488582189533020 -5.581345803457111 158 112 96 255
25.754212507370397 -25.910298685800797 -6.123380483906232 146 105 85 255
25.711566623172459 -25.191316737933576 -6.221127495516924 140 99 79 255
25.988470004330821 -24.269423705196388 -5.696941661455270 135 98 77 255
26.082789482298722 -23.461770206318604 -5.528170294998858 131 96 74 255
25.994512424583192 -22.771595326005610 -5.714775024796978 127 92 70 255
25.677973380810627 -22.232025563644783 -6.345554627781240 124 92 71 255
25.635348854897273 -21.515366603914401 -6.443287682519042 122 90 69 255
25.866658990143222 -20.616752957653460 -6.008032347998238 119 87 66 255
26.143643701315483 -19.684812399376867 -5.483984330909351 117 86 65 255
26.374992439603531 -18.780668369131703 -5.048802106209791 111 80 59 255
26.332410999683006 -18.061319751567268 -5.146581556870274 107 76 55 255
26.335495588974936 -17.311063033271452 -5.155540066203088 104 74 51 255
26.566891976823484 -16.401970397968952 -4.720429104445202 97 69 45 255
26.980955747139745 -15.362036855055720 -3.930108693372574 93 66 42 255
27.440712642599394 -14.284974031299612 -3.051042302492505 85 59 36 255
27.717847291180732 -13.332908956802456 -2.527264544699108 76 50 27 255
28.223331628254499 -12.213353460405926 -1.559521684760597 54 37 12 255
29.870505600731207 -10.259696014258935 1.628106767200677 39 34 2 255
25.107448902678186 -6.314531617667598 -7.784982541381140 135 102 73 255
23.329243833841531 -6.979878576455036 -11.255693058338977 170 125 104 255
22.647284925521888 -6.793455142514262 -12.595929139669948 177 133 112 255
22.376438979522149 -6.285365717998218 -13.137269278580533 163 121 99 255
21.968548725793795 -5.891189244663636 -13.944837469546286 151 108 89 255
21.697705925774557 -5.390293501973176 -14.486106300939440 135 98 76 255
21.609606823487582 -4.742797190369572 -14.672358999570037 119 84 62 255
21.887011228231685 -3.794591084674309 -14.148662509911134 104 73 51 255
22.210137386736193 -2.805089716781936 -13.536274912392145 94 69 46 255
22.487612346427682 -1.849987517923779 -13.012679582448413 80 62 36 255
22.536673379298094 -1.084190921145819 -12.932800216497128 66 55 28 255
22.311611064212073 -0.550539739411306 -13.385317809431314 17 22 0 255
29.227446064771414 -28.001342032939419 -0.971685068260712 170 161 121 255
28.496169950395569 -27.675785977786276 -2.400832875509593 184 142 119 255
27.673077088515868 -27.414438825553191 -4.007382279139875 181 134 117 255
27.217101996125905 -26.938982410603927 -4.903826909439459 174 125 109 255
26.944690082230181 -26.355979654808280 -5.445226037428228 159 112 94 255
26.855854506806097 -25.662183047901991 -5.631618354800622 152 109 90 255
26.675225001846201 -25.027172514460133 -5.995477253381580 144 103 83 255
26.815880397663818 -24.190894041612268 -5.738160543438937 138 102 80 255
26.818849757241736 -23.441118562069008 -5.747062812670919 134 98 76 255
26.730024347889469 -22.750659414178941 -5.933425929274222 129 94 72 255
26.549398168142858 -22.121133907135388 -6.297230870493223 126 91 71 255
26.460575614677751 -21.433537935786831 -6.483566320842783 122 90 69 255
26.693082017323206 -20.534120497019316 -6.048852474885479 119 87 66 255
26.833797628488739 -19.693464930845437 -5.791606853871485 116 84 63 255
27.112245709029054 -18.758360947566089 -5.268243264633071 112 81 60 255
27.023460166948695 -18.069963976884679 -5.454603312873360 109 78 57 255
27.164219778596660 -17.225180089874328 -5.197419036807077 104 74 50 255
27.396814031356186 -16.315281535255622 -4.762850297371273 100 73 46 255
27.767160256071094 -15.306599262502104 -4.062216104150451 94 67 41 255
28.183446244048497 -14.261330142134526 -3.272940413814268 86 60 35 255
28.278376352903848 -13.439340945218390 -3.104586199569610 80 54 31 255
28.832458246899620 -12.287760472334725 -2.049340729361234 65 44 20 255
29.753896577515178 -10.864737259590655 -0.284676395645363 49 32 7 255
25.101899663993379 -6.860188982995510 -9.419401117040252 155 115 90 255
24.094716632178319 -6.915861260229420 -11.378643809856584 182 135 116 255
23.363070254061725 -6.765196790370297 -12.805858814844498 174 128 109 255
23.136630285349156 -6.220166621079144 -13.257877184401309 159 116 98 255
22.680542720622270 -5.862306201360113 -14.153083066011106 149 106 88 255
22.729702815244323 -5.100891334261050 -14.073203579083383 134 97 78 255
22.595151802655337 -4.488651229367790 -14.347882879932200 116 84 61 255
22.736220447626494 -3.651690157450361 -14.090757319402201 104 73 52 255
22.923252703733795 -2.775056051388532 -13.745032088144711 91 68 44 255
23.248126745260777 -1.781425903749863 -13.133465528216448 79 62 36 255
23.389287065740604 -0.938022869229982 -12.876445954025371 55 48 20 255
29.842099431036104 -27.300405402265113 -1.471805041859199 183 151 122 255
28.876061313982092 -27.118370720714054 -3.342301243186341 184 137 117 255
28.186840804020534 -26.779855237121737 -4.680836959544536 178 129 112 255
28.051320899219462 -26.110423446376672 -4.955662338241581 163 116 98 255
27.823509335919084 -25.499774634617978 -5.407732413468437 153 110 91 255
27.595692406785560 -24.891924405401198 -5.859771809613903 148 105 86 255
27.506311891874731 -24.199654569150610 -6.045905730044609 144 105 85 255
27.555377683918550 -23.420529652086060 -5.966163202067918 140 104 82 255
27.558302830679196 -22.670562104911980 -5.975047700029137 138 103 81 255
27.468934360423788 -21.980440941365728 -6.161165272934056 130 95 75 255
27.518023073919210 -21.201022726301076 -6.081435929158715 126 91 71 255
27.520969389066067 -20.451561627604661 -6.090324746263150 124 90 70 255
27.708537912640139 -19.579402977474544 -5.744793377931188 118 86 65 255
27.665351158182347 -18.859962817846167 -5.842303870113227 114 82 61 255
27.806794000453209 -18.016197203087074 -5.585413925029656 110 78 57 255
27.809783071079153 -17.265377816941566 -5.594335533862079 105 75 50 255
28.182044498406299 -16.260436120621435 -4.894517439290041 99 72 45 255
28.508175207782699 -15.283268394001041 -4.283344779551072 93 66 39 255
28.742012606808402 -14.366992444450858 -3.849394765165272 89 61 37 255
28.975872769536380 -13.448059537808248 -3.415481755343222 84 56 33 255
29.255918375415860 -12.493613310317897 -2.893025935833606 72 46 26 255
30.089948611890577 -11.138500068247509 -1.307691419021978 61 36 16 255
31.339510893537749 -9.473174416188684 1.074684528188101 51 36 11 255
26.840323144429803 -6.789201518245363 -7.676848050196327 135 105 69 255
25.319753780257258 -7.226694166143545 -10.607767104283738 170 126 102 255
24.399409685844702 -7.212798144938617 -12.387442979220481 184 137 119 255
23.848452158290030 -6.918783492291439 -13.458692830100517 174 127 110 255
23.620731530777704 -6.374797163754195 -13.910129658306033 156 113 96 255
23.254480996326024 -5.944165172566812 -14.627137819910729 145 103 85 255
23.396215636228646 -5.108931620758455 -14.370291736983091 127 91 72 255
23.353251609693984 -4.421780519099642 -14.467575172160508 111 81 57 255
23.587402940595723 -3.508845887774456 -14.033731354117151 102 71 50 255
23.636851959915475 -2.745060142614150 -13.954004649958136 90 68 44 255
23.917251704006432 -1.789406849144086 -13.431718925884269 80 65 38 255
23.966756624104974 -1.023028376927257 -13.352043351481910 44 42 12 255
30.406337265223925 -27.391762411848475 -2.050932649420076 172 155 120 255
29.527797253711839 -27.155033024439078 -3.742005592703720 181 142 117 255
29.159532144084920 -26.620823873199470 -4.459162448470664 179 134 113 255
28.930433557695778 -26.006269503949795 -4.910698170850765 169 122 102 255
28.654935770015044 -25.423044818008918 -5.450723683486586 158 115 96 255
28.333036146125465 -24.871957009468971 -6.079229652863546 155 112 93 255
28.382295220841911 -24.092198008825065 -5.999579710327737 149 110 89 255
28.524356567994232 -23.253310354371280 -5.742916225984004 144 108 86 255
28.434441050491074 -22.560930623841003 -5.928812722506166 139 104 82 255
28.437326719427375 -21.809955854339862 -5.937689799506643 135 100 80 255
28.440220182758083 -21.059059521139886 -5.946569558897352 130 95 75 255
28.443121935691238 -20.308237940270530 -5.955452258706032 128 93 73 255
28.353228182268282 -19.618865453361892 -6.141328063166412 120 88 67 255
28.309742714040652 -18.899681054304835 -6.238702786613743 114 82 61 255
28.498286180326829 -18.024954165018841 -5.893632061831369 110 79 57 255
28.686848396053193 -17.148126267152350 -5.548590932573404 104 77 50 255
28.968242657749613 -16.205655266370627 -5.026615381073839 103 73 47 255
29.203253613608325 -15.292034370229089 -4.593161769283540 99 69 43 255
29.438287153417946 -14.375760285437551 -4.159745043824046 94 64 40 255
29.626934285372471 -13.489407518368395 -3.814838047726113 91 61 37 255
29.908424342688761 -12.535235016956491 -3.293023480352787 86 55 35 255
30.421999640192666 -11.412262806788632 -2.328922566432482 72 45 26 255
31.260502792106735 -10.049660831032469 -0.745658022815860 61 38 20 255
32.656027100951690 -8.273464898518199 1.899000702364532 41 31 4 255
28.543774000852210 -6.766105397891963 -6.027711996315247 112 94 51 255
26.875749677689754 -7.295297918397424 -9.220441959234876 152 113 83 255
25.764736554956201 -7.414091624948057 -11.351741006492574 179 133 111 255
25.025079676893910 -7.257114442915125 -12.775448279555889 183 134 117 255
24.563956456373248 -6.890597779873815 -13.668496471664668 172 125 108 255
24.288535331828541 -6.382931783702844 -14.207792455264922 155 112 94 255
23.920265520829048 -5.952253471814842 -14.923900776417042 142 101 83 255
23.969856139050933 -5.191340174944202 -14.844208171838233 123 87 68 255
24.065900453003280 -4.392392021523321 -14.676117846304038 109 79 55 255
24.301264811089368 -3.479178567965548 -14.242817683152481 98 70 48 255
24.350934601494657 -2.715101403910722 -14.163192356851340 87 66 41 255
24.586364019567512 -1.797417954318405 -13.729966381659267 74 62 34 255
24.728959948747345 -0.953982710736284 -13.473587209249075 35 37 8 255
30.316103799325475 -27.867363808202228 -3.867289988617529 151 158 108 255
30.552116514898955 -26.970037425791929 -3.434118321557207 176 144 112 255
29.948611708493416 -26.573824177983354 -4.592466436848042 179 134 111 255
29.764860374741914 -25.930452358733689 -4.955017957861685 174 126 106 255
29.254607476848292 -25.489013856283336 -5.936412476072547 165 118 100 255
29.350705832840276 -24.679282616977588 -5.768455235655864 156 113 94 255
29.400169692734693 -23.897627290566959 -5.688915765152927 150 112 91 255
29.496287940451424 -23.086184728867053 -5.520984690801129 149 108 88 255
29.359183812508491 -22.421774144344369 -5.795052980610365 145 109 87 255
29.362024471261691 -21.669439199528057 -5.803923737483188 136 101 80 255
29.411522081940433 -20.887036556317582 -5.724406868512887 132 98 76 255
29.367730867766937 -20.164999766382351 -5.821674103536651 128 95 73 255
29.323946823243404 -19.443573674923499 -5.918938362561278 123 89 68 255
29.140214902674359 -18.815622073840515 -6.281342679146775 115 84 62 255
29.283055188154691 -17.971311627245839 -6.025081300829186 110 80 56 255
29.379258571990277 -17.156935568379396 -5.857217835351520 107 78 52 255
29.708752336112809 -16.182704374147178 -5.247514936189134 105 75 50 255
29.991616633697646 -15.236779620374932 -4.726229719346605 101 71 46 255
30.181191861240279 -14.352272796820714 -4.381717863305511 97 67 42 255
30.277472298702463 -13.530799127278371 -4.213960491864015 94 63 41 255
30.420429766881568 -12.675436668468933 -3.957863068544782 86 55 35 255
30.703388580668843 -11.719139943730553 -3.436724827163488 79 49 30 255
31.359665688737579 -10.492548080626563 -2.208814259022205 66 42 21 255
32.249300381833734 -9.090144891271663 -0.539255498180921 50 34 10 255
28.394545329145785 -7.409607753876671 -7.925562713780636 137 98 68 255
26.950871819790038 -7.765804534060422 -10.672600293207864 169 123 101 255
26.113874275166481 -7.673126217437783 -12.271245375225305 185 138 118 255
25.510217717267949 -7.409715157986085 -13.428183532265734 178 131 111 255
25.139919477376679 -6.971517303727211 -14.143463467953751 168 120 103 255
24.909647712988999 -6.427726242958116 -14.593760880185442 153 110 91 255
24.679385677647957 -5.886588561893191 -15.044035811132346 138 98 78 255
24.729195969703554 -5.125114675132238 -14.964446815841143 118 82 63 255
24.872387412973254 -4.288174399557647 -14.708267509651336 104 76 52 255
24.968929567688221 -3.487252829919058 -14.540419096234018 95 67 45 255
25.112180673502905 -2.647205264048168 -14.284297797961329 84 63 39 255
25.302144980336635 -1.767214544654394 -13.939913769111087 73 62 34 255
25.538826798597370 -0.846463181186579 -13.507277194298808 27 31 3 255
31.110997146286707 -27.062248254665647 -4.010848752619296 168 150 111 255
30.785539191108313 -26.498913274051588 -4.637892003337839 179 137 112 255
30.366291374138569 -25.995966465222963 -5.441495741625687 173 126 104 255
29.900139709019385 -25.526504484715645 -6.333342486682426 166 119 101 255
30.090468646855896 -24.659458867205544 -5.988990188445399 159 114 95 255
30.233918519914681 -23.819404429892757 -5.732957581398438 153 112 92 255
30.236697983919214 -23.065813122166887 -5.741813752856928 150 107 88 255
30.145694052736133 -22.371511086572397 -5.927244402199108 145 108 87 255
30.195383527387406 -21.588753530091395 -5.847816664416911 137 102 80 255
30.151288665394105 -20.865818390480726 -5.944957596000165 135 100 78 255
30.107200904451503 -20.143497308742710 -6.042095487043781 130 98 75 255
30.063120776590807 -19.421786402822249 -6.139230613995437 125 93 70 255
30.112849811421711 -18.638776222198430 -6.059823067797140 118 88 64 255
30.115690111609723 -17.886510831759082 -6.068692961779931 114 84 60 255
30.118541710769904 -17.134303409045515 -6.077567307579812 109 79 53 255
30.309019437405567 -16.255098832196666 -5.733404244616594 106 76 52 255
30.640231636003989 -15.277685932958889 -5.124499680640753 104 74 50 255
30.830754430485570 -14.393446699865805 -4.780407599306443 100 70 46 255
30.880579112227110 -13.604806214212445 -4.701099606291592 96 65 44 255
31.071143247460242 -12.717134378277450 -4.357060652072249 90 62 41 255
31.308639338282262 -11.794222011623205 -3.924808968754149 87 55 34 255
31.780710543909407 -10.701725557116418 -3.051388995100382 75 47 26 255
32.346640782491960 -9.536548221630710 -2.001563622946492 60 38 17 255
33.616292818723565 -7.856079294333753 0.371702105271936 40 30 4 255
30.109981235752713 -7.393804535800172 -6.281696565702845 128 94 59 255
28.564775117751680 -7.806139953458171 -9.201885426791847 155 111 87 255
27.441782430603965 -7.916398866498625 -11.327929566537364 179 133 114 255
26.787952821991354 -7.681477747303759 -12.571703619265037 184 139 120 255
26.321795508201163 -7.309760832052945 -13.462559887087764 176 131 112 255
26.043324338981975 -6.798003565238858 -14.000537339374262 162 119 100 255
25.811784257005129 -6.252823944236155 -14.450283298175236 150 109 89 255
25.627179156465502 -5.673406190784874 -14.811807745227696 135 99 77 255
25.677214319847081 -4.910290777283933 -14.732335602137169 120 86 63 255
25.727275223606981 -4.146576045964949 -14.652880993183032 101 73 49 255
25.730434825958568 -3.419956274203130 -14.661634037060708 92 67 41 255
25.921334501183424 -2.541380089452772 -14.317652751364989 84 64 39 255
26.206129074104993 -1.584081842595452 -13.797343118984287 74 58 34 255
26.537895237921902 -0.584944716952137 -13.188905122020770 22 25 0 255
31.671059573625115 -26.396100415014729 -4.595771209733527 174 141 111 255
31.108107233498089 -25.976779718809951 -5.662939620594841 173 129 105 255
30.686558079001287 -25.478489344800991 -6.465470226435485 169 122 104 255
