ply
format ascii 1.0
element vertex 654
property float x
property float y
property float z
property uchar red
property uchar green
property uchar blue
property uchar alpha
end_header
14.032957544441672 -32.070167769497743 1.102440228310641 216 184 159 255
14.824759166748947 -31.667721049505928 0.965101689286939 210 176 151 255
15.615179086909450 -31.267137585230273 0.828004521400132 207 173 146 255
16.195959871267917 -30.650275284589696 0.726812752045078 203 167 140 255
16.984098637220171 -30.252768002550596 0.590114062561661 201 164 137 255
17.425369791616333 -29.491382968693756 0.512815633678045 203 162 137 255
18.418356354769088 -29.316615713622980 0.341048397825553 204 162 137 255
19.408994374527822 -29.145015492317441 0.169691306523660 205 163 138 255
19.985598891124624 -28.533784944919176 0.069228938340800 203 161 136 255
20.561785934398415 -27.923117356813066 -0.031160556319712 202 160 135 255
21.205847771850387 -27.387246359022697 -0.143168410491413 203 161 136 255
22.462355027835997 -27.522424537643133 -0.360015700753536 203 161 137 255
23.307403439400332 -27.214500422614833 -0.506417966486360 203 161 137 255
24.489798706216561 -27.283292879615317 -0.710557864895293 203 161 138 255
24.789441411296394 -26.380242243373090 -0.763593442559873 204 162 140 255
25.292418575100641 -25.701972347496621 -0.851433448188637 203 161 139 255
25.862627916453306 -25.099365594788082 -0.950779684218510 202 159 139 255
26.701089776789019 -24.800323362696531 -1.096032326952269 202 157 138 255
27.269822859741254 -24.199707281011854 -1.195121093046133 199 154 135 255
27.971831960253809 -23.752019993345783 -1.317014691179736 195 150 131 255
28.272668810880191 -22.847358802494909 -1.370259851226521 195 150 131 255
28.707424459518592 -22.094759601313882 -1.446422134783937 192 147 128 255
29.275136098754842 -21.495520741904016 -1.545333412910814 192 145 127 255
30.173454004183469 -21.282088172018291 -1.700805305502158 189 142 124 255
31.267884806525018 -21.303174660789892 -1.889820592863757 187 140 122 255
32.359335821608653 -21.328279356628258 -2.078315781904863 184 137 119 255
33.053470179661588 -20.891210816223548 -2.198835989209435 180 133 115 255
33.287612618289188 -19.910160807057650 -2.240670989450187 178 131 113 255
33.457544928303264 -18.849372271552568 -2.271528050809295 175 128 110 255
34.281411770434289 -18.570010819245567 -2.414235110260925 170 123 105 255
35.233751071406687 -18.450055770464928 -2.578908278105622 171 124 106 255
35.924072851156495 -18.018128104960795 -2.698764520605074 171 124 106 255
36.224777987887222 -17.113643617748323 -2.751990675250418 170 123 105 255
36.526358523740470 -16.207978539646092 -2.805370173944858 167 120 102 255
36.957697622401241 -15.459985520656716 -2.880940473642148 164 117 99 255
37.710678707876895 -15.109887179266252 -3.011506018573655 165 119 100 255
38.269933798491252 -14.522050828018848 -3.108945844943619 165 118 100 255
39.084631448771916 -14.255053296171610 -3.250055222782514 164 117 99 255
39.387241932553707 -13.347998731027644 -3.303617179332882 164 117 99 255
39.881656926566706 -12.681273074350088 -3.389970349950460 162 117 98 255
40.693399646499842 -12.418259913214342 -3.530565354989584 162 117 98 255
41.440146525514479 -12.076567711092196 -3.660045448279739 163 118 99 255
42.059218258696944 -11.574393680726018 -3.767699725266183 158 113 94 255
42.236570626054345 -10.503597328434353 -3.799860468018402 156 111 92 255
42.792499042061252 -9.920245937027033 -3.896724113475592 156 111 92 255
43.159995086639640 -9.092017966189758 -3.961386798348578 153 110 91 255
43.715628371638246 -8.509064238584529 -4.058200316562612 150 109 89 255
44.083792046312567 -7.679935622622452 -4.122981079348406 149 108 88 255
44.701339655949567 -7.179815922211787 -4.230373409771339 148 107 87 255
45.194102995297555 -6.515315968534367 -4.316445003404667 141 103 82 255
45.624925197520611 -5.768017614531232 -4.391935420536520 143 105 84 255
46.117732882813300 -5.103457484445983 -4.478016400818071 142 103 80 255
46.117983005241939 -3.772504268341606 -4.479961402905857 135 97 74 255
45.875123598980537 -2.104080608944457 -4.440392464354694 121 90 64 255
45.697290403748127 -0.514294676239672 -4.411945315416716 95 80 47 255
-24.506825446299842 -27.381493306702822 8.730846044057962 217 188 162 255
-22.089330770936328 -28.278041572380261 8.307554542036677 221 186 166 255
-21.302052792861502 -27.715167568847164 8.169891541449836 223 182 162 255
-20.221541194463384 -27.421916912203358 7.980848953927570 217 174 155 255
-18.482704706912727 -27.737275392904053 7.676456734824008 212 174 153 255
-17.335074552101275 -27.519777465860102 7.475649450959580 214 176 155 255
-16.263188429748965 -27.238158004187369 7.288111693670714 213 175 154 255
-14.172737334995276 -27.910675445845982 6.922101916780775 211 173 152 255
-13.326072374177556 -27.433979749468875 6.774022147922139 209 171 150 255
-10.883611867357729 -28.463123931882734 6.346326643982572 208 173 151 255
-8.232321864996408 -29.709448512417509 5.882035062722323 193 158 136 255
-4.723177582918311 -31.794104288381391 5.267423573137506 215 180 158 255
-3.679230269907407 -31.550160183381678 5.084763233991879 217 182 160 255
-2.493721012507365 -31.447844324209484 4.877296031379679 221 186 164 255
-0.736874132532023 -31.905178114853243 4.569714123911382 225 190 168 255
1.444176190673829 -32.788047490624791 4.187797357025318 222 190 167 255
2.331291854790152 -32.423066034256038 4.032608574455089 222 190 167 255
3.359321287766704 -32.200586917008252 3.852726221686822 223 191 168 255
4.527295517945447 -32.121916831171717 3.648319625085854 223 191 168 255
5.976213799779316 -32.329442995067268 3.394680973669118 223 191 168 255
7.279204343266400 -32.401228017516019 3.166610693421596 222 192 168 255
8.013266904482236 -31.910113594289612 3.038232675276369 222 192 168 255
8.182271578008397 -30.850880769584364 3.008870637185602 221 191 167 255
9.056186381467825 -30.503700046041843 2.855983913392116 220 190 166 255
11.121417487693975 -31.376489443239734 2.494334342761128 221 191 167 255
13.389514087438755 -32.474501949049937 2.097131089693583 219 189 165 255
14.531775741093696 -32.430504961443688 1.897212419573457 213 181 156 255
15.183185294892468 -31.884585298359212 1.783308197609131 209 175 150 255
15.694791277065292 -31.194665851016339 1.693902205671080 204 170 143 255
16.345047848713705 -30.650300735255456 1.580198199132589 201 165 138 255
17.132988257698571 -30.252793652991869 1.442365128414878 199 162 135 255
17.298095585017080 -29.198815210096598 1.413678344836100 200 159 134 255
18.360275670369191 -29.096545345655898 1.227784285948552 203 159 134 255
19.213600710335811 -28.777129205719007 1.078489316087058 204 160 135 255
20.408057139691039 -28.829009446582347 0.869410607626506 202 158 133 255
20.709917297552153 -27.923144112261440 0.816755613846773 204 160 135 255
21.285628664698407 -27.313040006984977 0.716108170799295 203 159 134 255
21.997091534319992 -26.852399769407612 0.591669392301903 202 157 134 255
22.911265033132850 -26.617191508396502 0.431704116024477 202 157 134 255
23.823413006061315 -26.384714611503313 0.272092234815979 202 157 134 255
24.598331024535810 -26.004767321780491 0.136528867586073 202 157 136 255
25.169542007657526 -25.400731473759038 0.036664935940642 201 156 135 255
25.874897785676524 -24.948326207654816 -0.086709506027063 200 155 134 255
26.780555215097110 -24.724601527381509 -0.245189401025456 199 154 135 255
27.416350247612201 -24.199736273309952 -0.356375159689684 196 151 132 255
27.717411164835482 -23.294947381420997 -0.408896442621554 193 148 129 255
27.752785242964336 -22.083387005077356 -0.414853368457521 193 148 129 255
28.322137599507329 -21.481856789507248 -0.514395966222388 190 145 126 255
29.222663167519897 -21.265051975303408 -0.671981827761890 189 142 124 255
30.055011803947394 -20.973921183582718 -0.817620247717286 187 140 122 255
31.017656490205326 -20.839611175206358 -0.986096468446071 184 137 119 255
31.648780279888399 -20.321044374200113 -1.096469791236665 182 135 117 255
32.410522858664791 -19.958863131403547 -1.229737312620557 178 131 113 255
32.450217354743728 -18.741475582568825 -1.236453324302524 177 130 112 255
32.884198659607847 -17.989967409563832 -1.312275611810549 173 126 110 255
33.513996286449583 -17.473188490643281 -1.422419354798159 169 122 106 255
34.468238809159317 -17.350208405708173 -1.589430323354200 167 120 104 255
34.836276951722567 -16.521361679452752 -1.653696651913968 167 120 104 255
35.399012585180600 -15.928753002995592 -1.752088866201497 167 120 104 255
35.961341778716076 -15.336692306712536 -1.850410573235919 163 118 100 255
36.909631584096388 -15.221739236755241 -2.016383208227971 158 115 96 255
37.727127641277718 -14.950636301703355 -2.159432143990372 159 116 97 255
38.286643909763058 -14.362368600745867 -2.257263752235779 162 119 100 255
38.717930825773408 -13.614492832467619 -2.332619893143054 161 118 99 255
39.021949941975208 -12.705712299602993 -2.385668639245374 161 118 99 255
39.326850675818832 -11.795742747147045 -2.438872003310358 157 116 96 255
40.266975024073218 -11.691800459250658 -2.603420463585223 157 116 96 255
40.572043207740535 -10.781604860397636 -2.656654114589060 153 112 92 255
40.941111317334986 -9.951367866400858 -2.721106206192793 151 110 90 255
40.995975304219940 -8.713521644516220 -2.730482171125438 148 107 87 255
41.743745550107548 -8.370180560865265 -2.861316892257825 145 108 86 255
41.989091499296308 -7.374257116774714 -2.904082349120799 144 110 85 255
42.235649075258692 -6.376699623603145 -2.947060095146249 138 106 81 255
42.421105030973422 -5.295274795378702 -2.979327026622400 133 101 76 255
43.043181292245436 -4.788906253013010 -3.088130901683705 133 101 76 255
43.354580399723829 -3.870172199400315 -3.142475166303754 129 99 73 255
43.666878778585811 -2.950225324863084 -3.196977110421315 125 100 73 255
44.226781750891121 -2.361434427129836 -3.294883787121776 117 94 66 255
44.109633162631638 -0.856757341086279 -3.274104185467301 108 91 61 255
-24.785042820607714 -26.983140611336808 9.759590770445122 217 191 161 255
-22.146226736038216 -28.078238110854329 9.289711591896484 222 184 163 255
-20.990197081036740 -27.848896948369656 9.085178757775772 223 181 160 255
-19.763303309820003 -27.690194023205152 8.867949084763531 218 175 154 255
-18.979549164739439 -27.131871659946967 8.730025507838725 215 174 156 255
-17.611254438401176 -27.114886576003954 8.487459442927559 213 172 154 255
-16.465699562148529 -26.899669417517487 8.284750050824243 211 170 152 255
-14.594060247866906 -27.367315552189950 7.952040658050947 208 167 149 255
-11.855759812571591 -28.660655276645969 7.464142829645539 206 165 147 255
-10.142953739162579 -29.010090173311198 7.159809770752226 203 167 143 255
-8.001057870812105 -29.778090561716510 6.778623017642282 189 153 129 255
-4.999610167032785 -31.381371807642608 6.243490807227992 203 168 143 255
-3.594697617725927 -31.481205398761432 5.994204123270826 214 180 155 255
-2.193743025421014 -31.586376119728499 5.745607712736224 222 188 163 255
-0.366283562551786 -32.113598277721422 5.420609687243143 224 190 165 255
1.741609548206441 -32.927451258568226 5.045359094185656 223 191 168 255
3.128105108696559 -33.052119648820621 4.799285692801277 223 191 168 255
3.940564578309363 -32.621284120640212 4.656014914005908 223 193 169 255
4.964941438946141 -32.403274528955393 4.474776029671922 222 192 168 255
6.270719799316538 -32.470590591181463 4.243115504999665 222 192 168 255
7.431309686549014 -32.401295253883546 4.037448165080789 223 191 168 255
8.518293009081503 -32.265059232117750 3.844953687417544 223 191 168 255
9.038981659725010 -31.562879573461800 3.753908404339953 222 190 167 255
9.981330901011830 -31.289284202329213 3.587308776195201 219 189 165 255
11.763222293702398 -31.877953997526163 3.270262748426994 218 188 162 255
13.819097442419007 -32.761952761931951 2.904092315322906 217 187 161 255
14.750856259555832 -32.502638253101225 2.739340302441256 216 183 158 255
15.402000215866479 -31.956936589145698 2.624869443545627 210 177 152 255
15.704975961103912 -31.049744309417747 2.572795667717635 205 171 145 255
16.563425290838097 -30.723087922264000 2.421162089760209 198 162 138 255
17.212677801171480 -30.179936082421420 2.307018009259224 196 159 134 255
17.585179229890173 -29.345186555804560 2.242479500415477 198 158 135 255
18.095913629918073 -28.656427699732973 2.153161226568251 201 158 134 255
18.949958391938424 -28.335709990085718 2.002292806349573 201 158 134 255
20.076379287844134 -28.312489298967535 1.802581410902654 200 158 131 255
20.721292244528087 -27.775188211376587 1.689190027020523 201 159 130 255
21.433664168165876 -27.313117609690408 1.563698096808452 201 157 129 255
22.213012572482739 -26.926928165104499 1.426190028148120 201 156 129 255
22.923101213754279 -26.467936202856208 1.301095143244723 201 156 130 255
23.564412577445239 -25.935491063902276 1.188329082729162 200 155 131 255
23.867206904379742 -25.028540119388083 1.136272516312701 200 155 132 255
24.710027604730612 -24.722956729137906 0.987357954084345 199 153 133 255
25.214974275019273 -24.042000404644256 0.899040470806142 199 153 132 255
26.256413093093329 -23.967177798655428 0.714483191312290 197 152 132 255
26.759882534331155 -23.288213163678904 0.626422077202456 194 150 130 255
27.062999077672856 -22.380826525811898 0.574304072680306 191 147 128 255
27.300391511907605 -21.395869334805838 0.533981042780617 190 146 127 255
28.070423571584286 -21.022241288590408 0.398092159539004 186 143 124 255
29.037889473669566 -20.880971378413363 0.226768886874019 185 141 122 255
29.672462530031140 -20.357611090068247 0.115171617446528 183 139 120 255
30.240350151791688 -19.757976688646494 0.015537570426993 180 135 117 255
30.676244578884052 -19.003936364118545 -0.060410141951998 177 130 113 255
31.177996469377547 -18.327286357697659 -0.148177891007428 174 128 110 255
32.007001228773049 -18.040332281529231 -0.294686741921240 173 126 109 255
32.246533933240130 -17.052487251789955 -0.335390819002598 172 125 109 255
33.138742409884117 -16.846502117953719 -0.493256167834325 167 120 104 255
33.639009586977608 -16.171853690119008 -0.580767131363913 161 116 100 255
34.268844176969083 -15.654882195074833 -0.691541586944545 161 115 99 255
34.509943999539871 -14.664923164735114 -0.732522519579597 161 116 100 255
35.461822234448789 -14.544672525803435 -0.901127315864883 157 114 96 255
36.282678277938658 -14.268706548456890 -1.046215386054321 154 112 92 255
37.101849189603598 -13.995012973940675 -1.191009229415918 156 113 94 255
37.599200089696524 -13.324296547240351 -1.278013642731402 156 113 94 255
38.032602353494781 -12.573615305427808 -1.353533231448566 155 114 94 255
38.211415696088039 -11.501449277901287 -1.383322886397323 154 113 93 255
38.137561396225180 -10.105207475496712 -1.367718686445507 151 115 93 255
38.446832772665317 -9.189517258389913 -1.420927856353252 146 110 88 255
38.820215081633563 -8.353572780173351 -1.485651148090923 145 110 87 255
39.320297312107073 -7.679172338063381 -1.573136008691087 142 106 84 255
39.568676669255751 -6.679395077837825 -1.615395685979856 138 103 81 255
40.382992299467816 -6.412248357658939 -1.759343976329163 133 103 79 255
40.507174600125410 -5.247551527086273 -1.779280912805703 129 103 76 255
40.321067779834038 -3.670281591456785 -1.743445359143507 124 97 70 255
40.636555930643965 -2.746207057118625 -1.797744307367040 116 90 63 255
40.952938857825330 -1.820925799451913 -1.852199992514088 113 90 59 255
41.394115527814989 -1.059759256540417 -1.929083577036288 107 87 55 255
-68.299731478539229 -0.991898786787658 18.645191625063582 168 162 112 255
-66.968026544479812 -0.691280306062367 18.407135768506876 132 139 85 255
-24.914800452815655 -26.717620624877270 10.764538013665401 221 193 163 255
-22.276662420531295 -27.811846892822587 10.286967668078901 224 183 161 255
-20.899462330729989 -27.782146680396352 10.039757888107040 221 180 158 255
-20.113684278170979 -27.220895637832172 9.900608662902044 218 174 151 255
-19.109010162469446 -26.862868770885257 9.721437426582114 214 173 153 255
-17.813745688428810 -26.777521817227949 9.489126839832068 211 170 150 255
-16.813746175419141 -26.425797588541087 9.310767114565735 209 168 148 255
-13.193967473769106 -28.522175490185248 8.653396517418273 205 164 144 255
-11.985820699231851 -28.388170288206027 8.436891871058151 201 160 140 255
-10.200625315467391 -28.805098084058017 8.114834449374058 197 159 136 255
-8.203974144256563 -29.435283845606676 7.754056580906408 182 146 122 255
-4.842419732212619 -31.381471156376193 7.143572194953798 196 160 136 255
-3.077981606970354 -31.826389713954768 6.825137131531363 211 177 152 255
-1.606549795936132 -32.001885156440636 6.560258341347314 221 187 162 255
-0.569580577577682 -31.766440153429812 6.374832551810137 224 190 165 255
1.180398734926541 -32.230855706906738 6.058918806209512 224 192 169 255
3.067552788368431 -32.842562013305354 5.717854858673974 223 191 168 255
4.806062798753715 -33.322443661792107 5.403942463688423 222 190 167 255
5.757435697521970 -33.036288578265669 5.234055889740837 222 192 168 255
6.281445487543493 -32.329618901200206 5.142380621522435 222 192 168 255
7.159010204941012 -31.976857729837519 4.985976412302591 221 190 166 255
8.458277016124214 -32.052244405066745 4.752346546069994 221 189 166 255
9.753906139933605 -32.132536278666919 4.519350826351953 221 189 166 255
10.413693511018522 -31.575040026076294 4.402763176610058 218 186 161 255
11.563330636802846 -31.519930323056258 4.196453194028322 216 186 160 255
13.199432375952256 -31.971772336466415 3.901013235989119 215 184 158 255
14.341955262040813 -31.926255815156821 3.695943743648286 215 181 156 255
15.342284665340799 -31.740215650515893 3.516897797318073 209 176 151 255
15.923630302450277 -31.122360728268262 3.414597450868513 202 170 145 255
16.712394510711874 -30.723208534488180 3.274284057312080 199 163 139 255
17.361541889040410 -30.180057881362728 3.159543465877817 194 156 133 255
18.009950502165538 -29.637903076605824 3.044930212442125 192 153 129 255
18.657620038955685 -29.096744549412392 2.930444393463304 195 155 130 255
19.304550239576997 -28.556582659891887 2.816086096834006 200 158 133 255
20.361581117726502 -28.460214303440296 2.626532838897674 199 158 130 255
20.937754362730118 -27.849331786884420 2.525124347585241 199 158 128 255
21.649812991235819 -27.387479082813826 2.398792348878246 200 157 125 255
22.360810304049835 -26.927057277484352 2.272644402051284 199 154 123 255
23.138576476970258 -26.542733225734054 2.134239363980818 198 153 123 255
23.711952080517619 -25.935622067179025 2.033313809521566 198 152 126 255
23.879857985053235 -24.878471270038858 2.006769286693171 197 151 127 255
24.655405617230201 -24.497138062028455 1.868747840186785 197 151 128 255
25.026447672433278 -23.664465019671525 1.804938756794634 196 149 129 255
25.733169071417649 -23.209807581475872 1.679529916307082 196 151 130 255
25.903902026221402 -22.148842880958057 1.652484692623823 192 150 128 255
26.743199580172273 -21.847677852322960 1.502730567381583 190 147 127 255
27.381160941586216 -21.319606655317642 1.389921621592784 188 145 126 255
28.283922694870057 -21.098995849795415 1.228487970569205 183 142 122 255
28.853543734017734 -20.496945229375825 1.128207045339622 180 142 123 255
29.422749443869463 -19.895454455915257 1.027997652223426 176 137 118 255
29.793830952947701 -19.062725851877218 0.964171366707802 174 133 115 255
29.968232325417347 -17.996811954364034 0.936475439707223 172 129 112 255
30.537638905427656 -17.395049544592013 0.836227638982706 170 124 108 255
31.172054644386179 -16.871758187240260 0.724031477106678 167 121 105 255
31.805737674143870 -16.349454751916824 0.611962646345127 163 118 102 255
32.113181262537580 -15.436404480197353 0.559838748097981 159 117 100 255
32.356555168886416 -14.443615750619955 0.519496905068799 156 118 99 255
32.730683952630727 -13.606776066232698 0.455130574766635 150 112 93 255
32.911502588109698 -12.532206370349513 0.426304956971379 147 110 90 255
33.351678660384607 -11.772437603162700 0.349808062094567 144 109 88 255
34.113592007454685 -11.409486981199819 0.214152890641863 144 109 85 255
35.002420619351398 -11.207663586664523 0.055145641511167 143 108 84 255
35.569342297485349 -10.609250577589108 -0.044674822242463 139 103 79 255
36.008220750565471 -9.851231269271551 -0.120946823962285 135 101 76 255
36.320017512664890 -8.932308938609538 -0.173838655595439 132 102 76 255
35.870689694618562 -7.046127375848755 -0.086686280941315 129 100 73 255
35.996146854093467 -5.880074485433170 -0.105257779188371 129 99 73 255
36.060265890247223 -4.630599453161892 -0.112524913142636 126 97 70 255
37.260918878356506 -4.838962362787868 -0.328957005524138 124 98 71 255
37.577930536629651 -3.913006837138141 -0.382763301110145 121 99 70 255
38.146632748351976 -3.312192007650253 -0.482898008668791 113 92 62 255
38.214617348711158 -2.057503689685234 -0.490842554176631 109 89 57 255
38.160009008681556 -0.635858866778051 -0.476192403134021 108 91 58 255
-61.158438277188452 -1.250409463732353 18.468728224729951 175 155 117 255
-24.305081547826831 -27.116140746279399 11.633805846471589 214 195 161 255
-22.185494588718484 -27.745344347717690 11.245108907561615 222 185 159 255
-21.029425922967050 -27.514917001372311 11.036048738668967 217 180 156 255
-19.655733030766839 -27.489238418278944 10.786355501091649 216 174 152 255
-18.578731483320041 -27.199359679641276 10.591971505490420 213 172 152 255
-16.919235405283871 -27.452561963136873 10.288861422568246 212 171 151 255
-15.045836931335259 -27.915532255272865 9.945769645017016 210 169 149 255
-13.760578332678648 -27.843032883973336 9.712383530394938 204 163 143 255
-12.551248333023239 -27.706850611409806 9.493129049552344 200 159 139 255
-12.214394974713883 -26.754338310910782 9.436732165211559 197 159 136 255
-12.238131868483123 -25.457720863191554 9.447675608583069 197 161 137 255
-4.901662140745827 -31.175211956811694 8.084064624473747 203 167 143 255
-2.849657155523460 -31.895545578199801 7.707148477557560 209 173 149 255
-1.379007936979548 -32.071260690155242 7.438751442226248 214 180 155 255
-0.485839202380987 -31.697131122953778 7.278195378466904 215 181 156 255
1.049026986678228 -31.952320835593525 6.997705239968973 220 186 164 255
3.078577606083769 -32.702933100844490 6.624704840328022 220 188 165 255
4.958932495684138 -33.322591448616578 6.279506855749752 221 189 166 255
5.625995653110039 -32.755146962549560 6.161050416898703 222 192 168 255
5.938111071440687 -31.835987975209605 6.108947291038291 222 192 168 255
6.957922546177116 -31.623221894826941 5.924512730549871 224 190 168 255
8.327988542610058 -31.768498136119661 5.674539968971210 223 188 166 255
9.483016713983346 -31.705535930056868 5.464740297850732 219 185 162 255
10.213864301009153 -31.218147427385560 5.334257970984716 218 185 160 255
11.363873565666296 -31.161952376774991 5.125330900953053 214 182 157 255
13.069894181724692 -31.684553885874493 4.812314566318975 211 180 153 255
14.491485538357153 -31.926419043741674 4.552463191147403 211 177 152 255
15.491474935082323 -31.740380410677034 4.371477986268651 206 172 147 255
15.864585353683907 -30.905036732861731 4.307826286273688 200 166 141 255
16.653633401434462 -30.505234580433864 4.166294687579644 199 164 139 255
17.510368977504385 -30.180227721221144 4.012067278966192 191 153 130 255
18.572127399097269 -30.076964331208330 3.819414566592421 185 145 121 255
19.149977317912686 -29.463744438269600 3.717379268191330 190 150 125 255
19.795997218091856 -28.924669237173873 3.602563867186142 197 155 129 255
20.304424766321716 -28.238991963136641 3.513520613822273 197 156 128 255
21.222349693139932 -27.997541754306610 3.347725667217759 196 155 125 255
21.865829174997828 -27.461891001281543 3.233348098418269 196 153 121 255
22.780344770654267 -27.225037664202318 3.068145730317504 197 152 121 255
23.353918619877874 -26.617581385399063 2.966845353421093 195 150 120 255
23.927074456953676 -26.010688365400512 2.865616076162702 194 149 120 255
24.027580235301173 -24.878655539062976 2.853032895616550 193 147 122 255
24.870229106649703 -24.572640564546958 2.701247300563715 193 147 123 255
25.106911237832406 -23.589118006315260 2.663133602037178 192 146 122 255
25.545721195259944 -22.831243391656727 2.587102421291014 193 148 127 255
25.450202417439016 -21.465329392064689 2.611358132736882 190 148 126 255
26.224039599503470 -21.086032904488832 2.472455213159932 188 145 125 255
27.262488703100502 -21.014197833936009 2.283853402809164 185 142 123 255
27.966586016569636 -20.562872543557262 2.157999852264666 179 138 118 255
27.941676827673888 -19.267812154012006 2.169043958866027 173 135 114 255
28.315340151351478 -18.431712637444832 2.105250910703752 171 133 112 255
28.887119559469198 -17.826671539515331 2.004243615005365 170 129 109 255
29.786963864265715 -17.609598715883408 1.841586501120069 166 125 105 255
29.898363891519210 -16.462869030533199 1.827075152922951 162 119 100 255
30.665347800374718 -16.092812471495364 1.689361300018682 159 117 97 255
30.583163016094176 -14.708912460229726 1.711266563474574 154 118 96 255
30.894100145676333 -13.791324294739212 1.659289995301670 150 114 92 255
30.686752523902356 -12.244059412735908 1.704790288008155 147 112 90 255
30.871245422163327 -11.164834545398321 1.676633389526280 141 107 84 255
31.250973468121572 -10.320553565526893 1.611767539627557 136 104 81 255
31.373598354291261 -9.158683991420105 1.595282537801317 131 101 74 255
31.690819237032571 -8.232620322829206 1.542200714054339 130 100 72 255
31.944821041906010 -7.225734278691448 1.501028508974201 126 97 69 255
32.455753292728758 -6.536669450607803 1.411504373951985 124 96 67 255
32.775281125954677 -5.607494146461477 1.358016650490129 119 94 64 255
33.286527703673272 -4.918005199083041 1.268436544436135 117 95 64 255
32.845889161553373 -3.021036416040658 1.358140497102248 109 95 63 255
32.220089277531628 -0.875537530107522 1.482787180836873 106 93 61 255
33.115178318886450 -0.664875141701089 1.320951400775648 106 94 61 255
34.323140475337908 -0.862669582029639 1.100128870330238 107 97 64 255
35.276254331466731 -0.739834604353007 0.927292863148409 105 97 63 255
-34.702424163587409 -29.408682400244203 14.513487564283743 164 154 113 255
-33.593301230850386 -29.075046898825065 14.311566221808626 181 152 120 255
-31.606521894289926 -28.221879891550543 13.951588714713054 210 169 141 255
-24.582337246633699 -26.717880235799811 12.668457709086098 203 194 158 255
-22.020554512016645 -27.745492132295368 12.189755606343290 213 182 154 255
-20.350077833264606 -27.982928142648660 11.880534312932660 214 180 155 255
-18.978043824257128 -27.958779379889307 11.628037723456870 212 171 149 255
-17.829294513709044 -27.737703660150089 11.417987627526138 213 172 152 255
-15.660408639223363 -28.465092141550144 11.013649689368478 211 170 150 255
-15.466881950320499 -27.374021524519179 10.985386474049712 208 167 147 255
-13.889876129423072 -27.571490500223774 10.693622596230860 202 161 141 255
-13.551197445958422 -26.616697237152948 10.637696415083120 197 156 136 255
-12.559934326785424 -26.275969925759085 10.457432586764298 199 161 138 255
-9.836717114080670 -27.583908179943080 9.947058144075775 203 165 142 255
-4.600216168220442 -31.312985187811705 8.957460308840105 206 169 146 255
-2.261828169978457 -32.309823080810645 8.520051406169081 209 173 149 255
-1.008062499467542 -32.279144135624904 8.289330594027973 213 177 153 255
-0.330432632348220 -31.697314220899386 8.168433476886825 211 176 152 255
0.989440480841552 -31.743496664318826 7.925009972012909 212 177 155 255
2.662077468479652 -32.144020063804049 7.614221491851161 217 182 160 255
4.400582497120013 -32.621728811391591 7.290777043513351 218 186 163 255
5.636812863206501 -32.614693341197494 7.063105198681306 221 189 166 255
6.161768620683887 -31.906723330061112 6.971156753039359 224 192 169 255
7.322348149675094 -31.835692963555829 6.757841692751306 224 189 167 255
8.338988176375608 -31.626746838158454 6.571963211590365 221 185 161 255
9.564216956909377 -31.634544722221847 6.346202199884395 217 182 157 255
10.154771352208229 -31.004120766870813 6.241633527499353 215 181 156 255
11.374819808487644 -31.018903260585262 6.016772348956430 211 177 150 255
13.150181660868981 -31.612916536287401 5.685726446264198 211 177 150 255
14.431977178965496 -31.710441461532014 5.448928552643125 207 173 148 255
15.223590305197831 -31.306914341064953 5.305785885287143 201 167 142 255
15.944475867969118 -30.832753759684493 5.176142478610501 196 162 137 255
17.148591123298758 -30.869020333669084 4.954055104646841 198 160 137 255
18.280368192405177 -30.836825645371931 4.745749395734265 187 146 124 255
19.478014999255208 -30.881814362971966 4.524788935037598 182 141 118 255
19.985334091113117 -30.197619026540679 4.435883160556621 187 147 122 255
20.561098372316991 -29.587133758696808 4.333871482636731 195 153 128 255
20.657788431372495 -28.460615591377064 4.323569096737899 194 153 125 255
21.438499732327500 -28.071785304108687 4.182311122340430 195 154 126 255
21.809480880201761 -27.239420650767670 4.119502238829888 193 149 121 255
22.656288118421429 -26.927468175434200 3.965547552993918 195 150 121 255
23.094973225959080 -26.169812704606613 3.889760281563184 192 147 118 255
23.871760857686496 -25.786271584897548 3.749179048555654 191 146 117 255
24.444921518259946 -25.179293252636000 3.647604250297313 192 147 119 255
25.084918310863173 -24.648195200109967 3.533206219890445 191 145 119 255
25.589988877012729 -23.967026088814237 3.444667170626801 190 144 120 255
25.894164286166188 -23.058735533808346 3.394655934017642 191 146 123 255
26.065662271296162 -21.997341083059837 3.370109619130709 188 146 122 255
26.638340209128017 -21.391011156051320 3.268607964911830 189 147 125 255
27.077698554856340 -20.632443439485201 3.192683975133768 181 139 117 255
27.649863674713117 -20.026804217599391 3.091268226597812 177 136 115 255
27.229658231813943 -18.269234081959041 3.180378891372790 171 134 113 255
27.803397805868997 -17.661470609516186 3.078683444019468 167 131 109 255
28.442531213754364 -17.131532771606601 2.964418400615266 162 126 104 255
29.474823367883005 -17.067477511475147 2.774604853513971 161 123 102 255
29.456636751223442 -15.763839502218076 2.786608570680748 154 116 95 255
29.832893043224999 -14.924352201967992 2.722838807122216 151 115 93 255
29.688353273319194 -13.459080816285677 2.759198004744100 143 111 88 255
29.546927237568241 -11.989609742207563 2.795009982744453 139 107 84 255
28.889833732914752 -9.887437833776971 2.930051815805101 137 106 83 255
28.561854483985826 -8.171502778848861 3.001876964520754 135 104 81 255
29.012277364746240 -7.398008616758688 2.923995269866751 128 101 77 255
29.527298684263883 -6.703413006079586 2.833684279708933 124 99 72 255
29.464368930959694 -5.294095937035934 2.854626016717482 119 98 66 255
29.340187157427010 -3.801366735623787 2.887408689368769 110 97 63 255
29.091347221392653 -2.144718653728546 2.944251740745976 102 96 60 255
29.164897710362368 -0.883375804048057 2.939057710172740 95 95 57 255
-75.947540483316004 -1.288414458572845 23.440762835042271 133 143 87 255
-74.067602443330372 -1.408389505696618 23.089394349254817 137 144 88 255
-72.344415492437975 -1.407852203197479 22.768254669310494 140 145 92 255
-33.048692238183776 -29.398460013984362 15.206918986911170 137 130 94 255
-30.893719240556493 -29.977271858845825 14.800350024703363 157 119 96 255
-29.643070499127703 -29.784225132527808 14.568868706491735 188 146 123 255
-28.768528370551223 -29.268632256362309 14.410214881247640 211 168 146 255
-27.746407719587978 -28.885918132207678 14.222921471607400 197 157 134 255
-27.172111538268894 -28.111424237172344 14.122409508190472 186 146 123 255
-26.925970456016216 -24.460427242992580 14.107326518428600 159 150 115 255
-22.518550718382585 -27.146100359677860 13.263026887951661 212 180 155 255
-19.891899450608321 -28.250459347657596 12.764031553285335 217 182 160 255
-18.741039491319270 -28.026021467077186 12.551356351540491 216 173 154 255
-17.300152157369581 -28.074260774932640 12.282307761384693 212 171 149 255
-16.593317283445600 -27.452917967954761 12.155743279121310 208 167 145 255
-15.887203919068668 -26.832546765145338 12.029298858010854 206 165 143 255
-16.490173066581463 -24.990459726900326 12.157192555180728 197 156 134 255
-14.259572691414718 -25.799162845329306 11.734486849698229 194 153 131 255
-11.674667572543513 -26.959811414091376 11.242757874294021 199 161 138 255
-8.232467554233807 -28.955739883965691 10.584162153275713 204 166 143 255
-4.587150601129707 -31.175601176115777 9.885808541201527 209 171 148 255
-2.537140767263367 -31.895939601018796 9.497494568041887 211 175 151 255
-1.067735044285428 -32.071660300624075 9.222005082113789 214 178 154 255
-0.031946407578374 -31.836441322104690 9.030811033704410 214 178 154 255
1.429864763553383 -32.022401845612194 8.756641267535485 212 177 155 255
2.816160710010422 -32.144248725957908 8.497085076502152 212 177 155 255
3.985281899600409 -32.061119109825569 8.279738371213860 213 179 157 255
5.364142611093484 -32.192991128492963 8.021474754205691 217 185 162 255
6.385298022395091 -31.977501212935408 7.832818792544032 221 189 166 255
7.615869647115090 -31.977449017862369 7.603302822917627 224 188 164 255
8.561420111567656 -31.697965480185417 7.429271862000355 219 182 159 255
10.067067318122781 -31.990754473550908 7.145999605182212 214 177 153 255
10.516548579074083 -31.218600469827038 7.068590148947358 209 173 147 255
11.875517773018146 -31.377292687983129 6.813784131703876 205 170 143 255
13.370090105660353 -31.685014788947228 6.532439545005488 204 170 143 255
14.720816730533329 -31.854821432910057 6.279069671305066 203 167 143 255
15.511907767918359 -31.451731530738272 6.134851183163157 197 163 138 255
16.163019752292001 -30.905511397505336 6.017929728400979 193 159 134 255
17.228217733181850 -30.796569428021542 5.820126414416578 189 151 128 255
18.152792131306853 -30.545366535147025 5.649733362207506 187 146 124 255
19.350601413672820 -30.589488712771526 5.425912840583081 187 147 123 255
19.927206358724192 -29.977792979505466 5.323418357260437 182 142 117 255
20.434900511265084 -29.293076905820101 5.234381634368404 184 142 118 255
20.669168294230218 -28.313292285622424 5.198798404342895 186 144 119 255
21.381829393084985 -27.850014055381450 5.069679745378480 190 148 123 255
21.889396141319224 -27.165467393670781 4.980654801630180 192 148 123 255
22.532566613200657 -26.629950141570959 4.865092566655768 191 145 119 255
22.836550195137647 -25.722096222548089 4.815893146405635 189 143 117 255
23.749159400568601 -25.487023298028731 4.647566877744730 188 142 116 255
24.659743165980785 -25.254681367757001 4.479592877897311 188 142 116 255
25.501094738045140 -24.949752757328639 4.325133852274931 189 144 115 255
25.670276733839131 -23.891784111323375 4.302315776001109 190 144 118 255
26.175398728342657 -23.210529815644378 4.213698498275342 187 142 119 255
26.213346134113010 -21.997637166539619 4.216642564559720 183 141 117 255
26.586269691400304 -21.162758846062474 4.153956719831250 182 140 117 255
26.494908493380478 -19.792344713956822 4.182325403805265 176 134 112 255
26.936291551051340 -19.031093440167325 4.106252451888942 175 134 112 255
26.584898471315626 -17.347545513722025 4.185723855016953 167 131 109 255
27.226426549548364 -16.814236004256401 4.070417647903845 163 127 105 255
27.275354296618303 -15.586531113691933 4.071421634295206 158 122 100 255
28.179261941506780 -15.363187175246026 3.904592447578189 158 122 100 255
28.099522725719481 -13.977095696608330 3.930909670455286 152 116 94 255
28.740673456680781 -13.444293453308774 3.815662406907464 148 113 91 255
28.208906525232123 -11.506134904505444 3.930882591506027 136 106 82 255
27.942020032914712 -9.874569547731369 3.994143364575528 132 103 79 255
27.419684034801861 -7.923690841051126 4.107705827449614 128 103 77 255
26.967024040197117 -6.044799259801323 4.207671119823445 114 99 70 255
26.841481138306079 -4.554521824265578 4.243386859920314 107 101 68 255
26.719051347331572 -3.060045499996932 4.278555310877557 87 93 53 255
-34.514136735934756 -29.280098585988696 16.483170912349912 198 160 134 255
-32.279376494247970 -29.915860553449875 16.055107550752737 189 149 126 255
-30.950641169547339 -29.782818790501125 15.805759304882486 207 164 145 255
-29.550455273695491 -29.719305788001577 15.542218192834241 214 170 151 255
-28.377627631341795 -29.464739495024162 15.323498878122798 213 170 153 255
-26.984191758472207 -29.410325829434896 15.061122863286791 208 165 146 255
-25.965659751067051 -29.032061098705810 14.872750753978863 203 160 141 255
-26.579220496830885 -27.205278587065095 15.006962511775384 183 137 114 255
-27.926999847369700 -24.709772138558719 15.286460865670982 135 90 67 255
-27.200833596232542 -24.062230598713143 15.155951023568427 103 65 39 255
-23.457385688880947 -26.147027345677969 14.428502465477244 158 121 98 255
-20.756187597677240 -27.314955673945974 13.906970513271482 225 187 164 255
-19.237019545010014 -27.422745193774148 13.619177159013013 218 175 155 255
-18.087750463287307 -27.199934142694161 13.404512107104424 206 170 147 255
-16.941141796919879 -26.980709304598946 13.190305614850814 206 168 145 255
-16.962015071861714 -25.681725716257318 13.207289679731261 204 166 141 255
-16.471901744139217 -24.854846556216330 13.123079915164233 195 155 131 255
-13.952158258088815 -25.935697657459883 12.636625352555271 192 152 127 255
-10.790371571578163 -27.643688871182263 12.022684571986019 197 158 134 255
-7.135213026292490 -29.847540672374635 11.310637116852085 204 165 142 255
-4.357948407766060 -31.244651450715367 10.772381647367446 211 173 150 255
-2.021770539537556 -32.241276822289393 10.321394026111115 212 174 151 255
-0.912146760732242 -32.071918786401397 10.113612901347693 212 176 152 255
-0.162734717133162 -31.558895867228983 9.977264034272466 214 178 154 255
1.441794835915516 -31.883328488658577 9.671102100380239 213 178 156 255
2.543093426976924 -31.725193971583593 9.464761404613434 214 179 157 255
3.712748180913053 -31.640762167088667 9.244773108139256 215 180 158 255
5.233728319156825 -31.911977117459116 8.954898063204162 216 182 160 255
6.325890292358508 -31.766160755671450 8.750141317984138 217 185 162 255
7.697545769898170 -31.906974695000542 8.489749006564047 218 181 158 255
8.713343099117367 -31.698252419501898 8.300026565597555 214 176 153 255
10.709849199936997 -32.489392855783564 7.915159370905052 211 173 149 255
11.648636356035382 -32.218635415055360 7.740585044440714 206 170 144 255
12.655293705843917 -32.022236327634033 7.552449326620398 201 165 139 255
13.799072287671237 -31.972692875922888 7.336954102589722 199 163 137 255
14.661563158059977 -31.638936433186785 7.177398177725372 199 163 139 255
15.869412727052378 -31.668874209828630 6.949003332289443 192 156 132 255
16.796941142408429 -31.413295469421939 6.776378492642245 186 150 126 255
17.584262037139013 -31.015021253201724 6.631644573306446 183 146 123 255
18.094482428052402 -30.326886897829553 6.542115831910372 176 135 113 255
19.154755933049586 -30.224063907787269 6.342890669300395 171 130 108 255
19.800713522190108 -29.684651000222260 6.226241628899288 180 139 117 255
20.309038540832319 -28.999069890435749 6.137032158945175 171 129 107 255
20.748981863010101 -28.239818077631355 6.061464152603207 178 136 114 255
21.529775221132240 -27.850341555321108 5.917849399582842 182 140 118 255
21.969364979720524 -27.091564746729887 5.842335354794017 184 139 118 255
22.273573065847700 -26.183584033332636 5.793866281577380 184 138 115 255
22.646291413060908 -25.349098800201148 5.731725192030751 183 137 114 255
23.289482881146654 -24.813410203831268 5.615533721983041 183 137 112 255
24.268539951056397 -24.654219613808522 5.432171039166001 185 139 113 255
24.640806544043386 -23.820341256044202 5.370098697714127 185 139 113 255
24.879619226117370 -22.834659120671773 5.334733497863930 185 139 113 255
25.186459162696764 -21.923124037243440 5.285781650113506 181 136 113 255
25.627523043048825 -21.162352729993188 5.209981165996673 177 135 111 255
26.135329457331778 -20.477461262618021 5.120819836611361 175 133 109 255
25.714033599033598 -18.723103021199847 5.217737485344095 167 125 103 255
26.290091431985445 -18.112055740950694 5.114947835821020 165 124 102 255
26.139329408870253 -16.656411866273459 5.157802768284483 159 123 99 255
26.782194652640584 -16.121156459355007 5.041638846683917 154 120 95 255
26.372870055199996 -14.350649975084451 5.136444515209831 149 115 90 255
26.557939858626867 -13.271548877793293 5.112130742621027 146 112 87 255
26.417542945514157 -11.801923236116295 5.153156663762744 142 108 83 255
26.345492946050172 -10.406013782829376 5.180540986852563 137 103 78 255
25.495340141948702 -8.068776565641230 5.364213731657763 126 99 72 255
25.495710323493455 -6.741089202259786 5.377239609920224 119 98 69 255
24.656748629865859 -4.388757432890372 5.558943835891135 106 98 65 255
24.147392310854258 -2.421367485320218 5.674578159402564 68 77 38 255
-35.640890822939411 -32.023265183049432 17.668794574038934 211 185 151 255
-34.907409811941477 -31.365747245295324 17.536515817887050 211 175 146 255
-33.571880402617637 -31.222908151307507 17.283201859738455 219 174 150 255
-32.465180135221658 -30.891189451565708 17.075798343455070 229 182 162 255
-30.985701808959845 -30.885867283650896 16.793357327680901 204 159 140 255
-29.959303630886382 -30.496614126469865 16.601945915607146 214 171 153 255
-28.785511645169606 -30.240234415012935 16.380814534669511 215 172 154 255
-27.912499130596871 -29.726181946833719 16.220143509780890 213 170 153 255
-26.817724772674296 -29.410535698847696 16.014780048058164 212 169 152 255
-25.725275975525562 -29.098023616226186 15.809814511763108 215 172 153 255
-25.819921762942499 -27.733217772356198 15.843913305105126 201 152 130 255
-26.576695084728499 -25.768925685835313 16.011498566780155 159 112 90 255
-26.664191194093974 -24.394473348637291 16.044326526789675 113 68 47 255
-25.424715814837327 -24.215323764974528 15.809678237586596 103 58 37 255
-23.527612936831702 -24.641725200409269 15.442313761582575 154 109 88 255
-20.757531959319465 -25.880732562336021 14.898673707474991 220 179 157 255
-18.216457833315218 -26.931100508747733 14.400977523013246 207 173 148 255
-17.725833720782475 -26.103589424953782 14.316927306406207 205 169 145 255
-16.871190462630238 -25.614287771642978 14.159375431495384 201 165 139 255
-15.509768647876371 -25.602321436890520 13.899424011245706 196 159 132 255
-13.210376537543198 -26.481138743225557 13.449868606759992 194 154 128 255
-10.485202762299025 -27.780698858681973 12.914048969154173 194 157 131 255
-7.265047012975600 -29.573504075290401 12.277898556288406 203 166 140 255
-3.769139930958033 -31.657732422465784 11.585657265620881 211 173 150 255
-1.722257155690642 -32.379602406369656 11.186144747310358 212 176 152 255
-0.899838268758913 -31.933747967327889 11.034186939046400 213 177 154 255
-0.436104793422885 -31.142487013655284 10.954779672594519 214 178 156 255
1.026075315305235 -31.326278054874763 10.673232854774085 214 177 158 255
2.697390707070838 -31.725504918979453 10.349209882723962 217 180 161 255
4.434433180483808 -32.201916765203123 10.011722590160929 217 180 161 255
5.386920705770535 -31.912295940455863 9.833057357757326 217 180 161 255
6.408039293645601 -31.695943599035076 9.640418682733454 215 178 159 255
7.215328881499033 -31.270482637868980 9.491065714867474 214 175 154 255
8.583899502087917 -31.414682506008035 9.227826783658692 211 170 148 255
10.580052369210165 -32.204955570725730 8.837144336167917 208 167 145 255
11.939251259490931 -32.361792256986064 8.575537462738708 203 162 140 255
13.504037269637877 -32.738850520619053 8.272078547235473 199 158 136 255
14.227641944707415 -32.260415589946319 8.139302842766377 198 157 135 255
15.158767638321706 -31.999594038118431 7.964335976909233 199 158 140 255
16.434695466261758 -32.102900422891111 7.719241744193852 197 156 136 255
17.153349274965422 -31.631138892992965 7.587318004069168 186 145 125 255
17.732855697857360 -31.015378664724949 7.483652786770762 175 134 114 255
17.898650042306343 -29.962594019052034 7.464119272869823 167 126 106 255
18.753175358060275 -29.639244536972853 7.304490710441385 156 118 98 255
19.194631538390240 -28.878003539771612 7.228881207264926 155 118 99 255
19.773113206092887 -28.263620719790396 7.125375338956658 148 111 92 255
20.487654626296262 -27.797398627485848 6.994142841960759 152 114 95 255
21.609602686720109 -27.776703018700005 6.779875964907795 166 125 107 255
22.253138636929066 -27.240411194455675 6.663017750033198 171 130 112 255
22.421639617221302 -26.183968302022777 6.642975158232097 170 126 107 255
22.726842746883165 -25.274819834816270 6.595093646052874 174 124 107 255
23.100348138231709 -24.439383956389833 6.533299236082669 172 120 101 255
23.474399105670756 -23.603211316807290 6.471404971036335 176 129 107 255
23.848995464775044 -22.766302195505631 6.409411017556430 176 130 107 255
23.956325198443096 -21.626523248755518 6.402004392315739 174 130 106 255
24.399446789309394 -20.863025252272990 6.326055161572590 165 124 99 255
24.443001503619712 -19.643425034273662 6.331754834299268 161 126 98 255
25.020476797218208 -19.030388350258278 6.228376740645089 160 124 98 255
24.801805160628192 -17.501119579458276 6.287775349883880 155 118 94 255
25.446520916492148 -16.963227114412376 6.170668840904135 148 113 89 255
25.298620573549641 -15.504340388963556 6.215718862588226 146 112 87 255
25.417150183636920 -14.349450475430729 6.206322096610315 140 110 84 255
24.421135643049524 -11.878585662651460 6.425184902824398 137 109 85 255
24.611557827159714 -10.792565639464044 6.401243305140092 131 106 81 255
23.692566611191467 -8.383650609342340 6.604659831929581 124 107 79 255
22.324217736029510 -5.419952554663951 6.900382159548904 109 99 69 255
21.550319537900492 -3.147014604163928 7.074484879993896 83 83 47 255
-35.244869439846241 -32.214784438346271 18.591319210860284 147 130 96 255
-33.681944155267331 -32.261927073075299 18.288712123159989 158 126 98 255
-32.499753896975562 -31.993716549859045 18.063902502991006 200 159 135 255
-31.320202461464817 -31.729062242508661 17.839543825741060 228 184 165 255
-30.218263629519754 -31.403311838812868 17.630992550258810 215 172 156 255
-29.492693933809107 -30.756320472625248 17.499474722295425 204 161 144 255
-28.693177830930267 -30.175364515041082 17.352769676317422 214 171 154 255
-28.118148398263884 -29.399862865829618 17.252046745471219 216 173 156 255
-27.320203678575922 -28.821021224762092 17.105595526417773 216 173 156 255
-26.374964729086003 -28.375060214445938 16.928885850271037 220 177 158 255
-26.171415712795351 -27.271719773692382 16.904319245380385 204 162 139 255
-26.187830747018950 -25.967734330888874 16.924942689323892 156 114 90 255
-26.422756233081657 -24.461143498152722 16.990501472250898 154 109 88 255
-25.845519110200541 -23.682650048107661 16.889328663081159 154 107 87 255
-25.048290405921932 -23.104759756168619 16.742940360972582 107 62 41 255
-22.934642937863998 -23.735261906627414 16.325929395089140 94 55 35 255
-18.563910879264682 -26.460482068481468 15.444620979742034 206 172 147 255
-18.363596649540597 -25.361488069009596 15.420550624099214 202 166 142 255
-18.452571260368416 -23.989578306541091 15.456037058457738 194 158 132 255
-16.652526004628868 -24.379948667144760 15.102816466504272 194 157 130 255
-12.541762231367187 -26.958470101466787 14.273685105998233 193 155 128 255
-9.530250898058426 -28.533010624368131 13.670447688727116 192 155 129 255
-6.241561382341160 -30.396796144306649 13.009759245080005 202 165 139 255
-3.612324457495845 -31.658059087628857 12.484586845731087 208 172 148 255
-1.996868519334157 -31.965835511494191 12.168111177979355 211 175 151 255
-1.245258057206570 -31.449446166663080 12.029620884390603 213 177 154 255
-0.494700152154536 -30.934474493173155 11.891306918584611 215 179 157 255
0.967340951979082 -31.117617079623017 11.606128412626425 214 178 156 255
