ply
format ascii 1.0
element vertex 647
property float x
property float y
property float z
property uchar red
property uchar green
property uchar blue
property uchar alpha
end_header
-26.686356466558010 -12.171175161264472 -8.213152450689989 165 118 100 255
-26.818276517575356 -10.984457774181237 -8.225846615011278 155 108 90 255
-26.951583319149279 -9.795188292598937 -8.237464022237134 151 102 85 255
-27.390747996677931 -9.144092623033885 -7.877091579673561 162 113 96 255
-27.742858961889624 -8.338619060319616 -7.622743522018737 175 127 107 255
-28.008642980047085 -7.377430025298736 -7.473855467841275 177 126 109 255
-28.792689752069975 -7.349989188918300 -6.691982372347354 178 127 110 255
-29.230405395654827 -6.701566684548993 -6.332741024463672 178 126 111 255
-29.839388656470078 -6.367131661737432 -5.763660984918602 173 121 107 255
-30.318797345156327 -5.799278623938278 -5.352836593033771 166 114 100 255
-31.096218281093172 -5.784043103135673 -4.576118871653819 160 107 95 255
-31.573710955248288 -5.219722291484686 -4.166787848720844 153 99 87 255
-31.965854790810965 -4.497887226269143 -3.862158545964064 143 92 81 255
-32.019651471599161 -3.140375388445477 -3.973960019520575 128 84 72 255
-32.033167674353649 -1.699701842159470 -4.136254560378262 110 78 66 255
-32.385181045020147 -0.894435995427557 -3.882008336477242 33 13 5 255
-10.877633835072544 -19.091537063270124 -24.522384800984639 204 170 149 255
-12.313898426793173 -19.900395550677047 -22.976681870434049 212 176 157 255
-13.652061978367982 -20.575945007628150 -21.546265237336257 215 180 164 255
-14.523138693003091 -20.541860027837743 -20.674104535593926 215 182 166 255
-15.345610999660096 -20.440297166495753 -19.859238399340143 219 181 167 255
-16.395674264454556 -20.704502443041150 -18.769862774062432 220 182 169 255
-16.387699714668145 -19.306618915239284 -18.951847082371501 218 180 167 255
-16.701931169514353 -18.414224978245613 -18.746739563526944 217 178 164 255
-17.427035657187332 -18.177991886812748 -18.046579448654711 215 177 162 255
-18.059388534572719 -17.798603719413506 -17.457550834507458 212 175 160 255
-18.055337888524491 -16.393481295409714 -17.636472096479451 213 177 161 255
-18.867778666208750 -16.310358924037757 -16.829375628533455 214 178 161 255
-20.309673869712526 -17.265757788752296 -15.259723378431005 218 182 163 255
-21.430905671474278 -17.712820506355285 -14.075958103002137 221 185 165 255
-22.054500665607520 -17.349541129766806 -13.493721570959195 224 188 168 255
-22.855843924464665 -17.286839326241648 -12.695239426752835 224 187 168 255
-23.654931437123935 -17.228288526049766 -11.898508465452323 223 185 166 255
-24.451764600360292 -17.173886423024641 -11.103527847581631 224 183 164 255
-25.201949223242991 -17.048409413115195 -10.364325401884628 222 177 158 255
-26.038673670029908 -17.077518703554460 -9.518814121694220 211 166 147 255
-26.387217573819271 -16.278878183935944 -9.267484570504990 206 157 140 255
-26.383674015743367 -14.872801339840919 -9.445992442553745 194 145 128 255
-26.338328416177092 -13.386728004494387 -9.676513173136755 185 138 120 255
-26.733239398936519 -12.659678112403981 -9.369621894440741 172 125 107 255
-26.953405426321240 -11.626519425326961 -9.276640469407397 160 113 95 255
-27.000279074892660 -10.284577948073519 -9.396440326675247 152 103 86 255
-27.396443930690339 -9.555220924186926 -9.088575856858370 149 100 83 255
-27.922465432571585 -9.057659661064577 -8.621214159513499 160 111 94 255
-28.231770363033888 -8.174306740977499 -8.419908282983783 167 118 101 255
-28.455368214938517 -7.134834790279911 -8.324264466746399 167 116 99 255
-28.980482279557179 -6.638948709153851 -7.857612167304097 168 117 100 255
-29.590460007432341 -6.300737994004550 -7.285956545409164 166 115 98 255
-30.071066024634376 -5.729842047858426 -6.873424376897276 161 109 95 255
-30.465971055406158 -5.002816964597912 -6.566550562747921 151 102 87 255
-31.158049188232269 -4.827374610118511 -5.892044276168264 145 96 85 255
-31.467324771345261 -3.944092146012338 -5.690776432142570 132 84 74 255
-32.199227343971444 -3.852293281726304 -4.965799802814104 118 76 64 255
-32.297672002141326 -2.572389564644141 -5.026019664034152 99 66 55 255
-32.355783582719027 -1.209789492349955 -5.137115064493230 27 10 4 255
-33.604555661281921 -0.637328182476608 -3.951934829733119 1 2 0 255
-10.549264746005150 -17.667806880400008 -26.362844638702711 196 183 145 255
-12.539077868566977 -19.328362396798411 -24.140895436385335 211 179 157 255
-13.828348122231432 -19.929851918344184 -22.761403606047793 216 180 165 255
-15.020869611311554 -20.396282765861912 -21.496833107551367 215 182 167 255
-15.887853788844041 -20.365934500393394 -20.624332358186280 216 179 163 255
-16.294504288356706 -19.617214799845556 -20.308265473049062 216 178 165 255
-16.655411770667740 -18.796118945118792 -20.047612202985306 212 173 158 255
-16.879861314977404 -17.756484996403344 -19.952609827160899 214 172 158 255
-17.559383169311673 -17.444900068657319 -19.305254078737391 214 172 158 255
-17.965586329012069 -16.696985843956526 -18.989518052106860 210 168 152 255
-18.010302982056203 -15.361890565020161 -19.113659194940396 205 166 149 255
-18.822806369990587 -15.275228319627075 -18.303339623420669 205 166 149 255
-20.307047713627242 -16.300658172758773 -16.672942674765835 208 170 151 255
-21.382084040793870 -16.670174049791314 -15.539377495229644 212 174 155 255
-22.229953065331216 -16.674981406993794 -14.681697787127007 220 179 161 255
-22.941613335868112 -16.460794151848773 -13.989477406136757 222 181 163 255
-24.318232174466289 -17.371182941067161 -12.482450580871557 222 181 163 255
-25.157517382273056 -17.391789083092647 -11.631437379926865 220 175 157 255
-25.817481958666463 -17.116185674426106 -10.999257307126271 215 170 151 255
-26.343665585519602 -16.617118562909184 -10.530650446135070 209 163 144 255
-26.649230200734024 -15.741287447768912 -10.332840495238145 201 154 136 255
-26.648305527762062 -14.333610040416971 -10.512298841527240 186 137 120 255
-26.999268757825860 -13.530783105529395 -10.259337321629829 177 128 111 255
-27.263203201135553 -12.575006639950118 -10.113747378468247 162 115 95 255
-27.397355238542389 -11.388405418170464 -10.128623740857194 152 105 85 255
-27.272735802397108 -9.738694029419889 -10.463816124023225 145 97 77 255
-27.713055328748311 -9.084532200039916 -10.101674869092648 145 97 77 255
-28.325540347617022 -8.739754177878069 -9.526262062639915 153 103 84 255
-28.979751337910898 -8.474745271070930 -8.898554927624417 155 104 86 255
-29.032188082545304 -7.125416369537362 -9.016677606256565 154 105 88 255
-29.514050434594253 -6.551365691151773 -8.602388849027648 152 103 83 255
-30.038006189848943 -6.056408498077786 -8.135520995210811 143 91 72 255
-30.476154145424374 -5.406256328294148 -7.775078140985158 137 88 71 255
-30.702042702218932 -4.363951614543112 -7.678937580877886 128 83 69 255
-30.886572900200804 -3.241205623323822 -7.634809963989966 115 77 67 255
-31.662376196954739 -3.222120380973877 -6.853020218218433 107 76 66 255
-32.141743914954532 -2.652681683311016 -6.440687914083782 72 48 37 255
-32.201484442289512 -1.289929581610295 -6.553156413941679 17 4 0 255
-34.137029006517650 -0.544888080162082 -4.691191652617334 0 4 0 255
-12.537223068714468 -18.399843110745508 -25.588739913641632 203 180 154 255
-13.824543176900505 -18.997803670480323 -24.204164340332881 215 176 160 255
-15.428015062577401 -20.107225973734614 -22.432405746903385 215 176 164 255
-16.385089517165341 -20.219658173029728 -21.445952675416038 214 178 162 255
-16.746459349073348 -19.397987697209203 -21.185196489172370 215 178 162 255
-16.971574665377716 -18.358512116835385 -21.090959714695231 214 172 158 255
-17.787132626533719 -18.262817760129707 -20.275106872137002 213 170 156 255
-18.012448345391874 -17.222963009814862 -20.180704888991670 211 169 154 255
-18.328868695233155 -16.327809324151019 -19.975073680033944 205 162 146 255
-18.915612307191338 -15.872275541586419 -19.438088883517537 201 157 141 255
-19.187249126228323 -14.903344982925518 -19.287464683215092 202 158 142 255
-20.399158824201294 -15.483883984382345 -17.981668710060632 201 160 140 255
-21.472758492428596 -15.850405320821125 -16.843992430601361 200 159 139 255
-22.053126742257575 -15.406597689659151 -16.311951648414379 198 157 137 255
-22.898732685212707 -15.411776697302514 -15.452513023075880 201 158 139 255
-24.184435274895804 -16.168889704834811 -14.048942156051197 206 163 144 255
-24.891420508706290 -15.960622174058983 -13.357863871122362 205 161 142 255
-25.464585364331299 -15.530070866148037 -12.831415886684596 205 160 141 255
-26.124501999381437 -15.252239662721053 -12.197126193931467 201 155 136 255
-26.432692971039017 -14.372210610000792 -11.997866017742069 190 143 125 255
-26.653989217501362 -13.339722464522026 -11.906556634601088 181 132 115 255
-27.137383752885569 -12.762004604709915 -11.490292659572901 168 117 100 255
-27.359752402182608 -11.727540974935380 -11.398148839573793 154 106 86 255
-27.279981967626981 -10.155804261654055 -11.682286231205268 148 100 80 255
-27.159635471673425 -8.502551273847359 -12.018167200197041 139 91 71 255
-27.730918793687948 -8.075462574858591 -11.493180101088143 139 89 70 255
-28.301171456734266 -7.650273100644597 -10.968995548659620 140 89 70 255
-29.041626373699756 -7.536607792267205 -10.231698725583982 141 91 72 255
-29.225156429908964 -6.417433992291137 -10.189952780749991 135 86 69 255
-29.409835728857729 -5.296146066201288 -10.147315303416718 119 72 52 255
-29.850337664976109 -4.641188409906476 -9.784605895027511 96 49 31 255
-30.163568323785938 -3.751891215228511 -9.581438721350821 84 40 24 255
-30.181801214892630 -2.312173075885937 -9.749002802404277 67 28 14 255
-30.707151469767524 -1.813452201502173 -9.279942309898388 43 16 6 255
-31.483500009303270 -1.789947122818319 -8.494562359393086 15 0 0 255
-31.839210689153646 -0.978675849267574 -8.238185849064479 7 0 0 255
-35.001085153264057 -1.093189603338260 -5.012425455715544 1 3 0 255
-13.825988468244361 -18.066396730943325 -25.652399366319372 212 181 159 255
-15.700062777297376 -19.603004640897268 -23.538020643981497 218 179 164 255
-16.928934233725101 -20.145597687350175 -22.212815651650914 217 181 165 255
-17.290684242259715 -19.323499126974895 -21.952016006089110 219 181 164 255
-17.697876698941911 -18.573580113798045 -21.635341136323575 221 177 164 255
-18.330791988998101 -18.187326486162306 -21.040471297718966 217 174 158 255
-18.962412647126314 -17.803451768373890 -20.446603301787150 213 168 153 255
-19.278310248837982 -16.909900283456011 -20.241971389611848 201 155 140 255
-19.505017741097390 -15.868851493609498 -20.147756170895065 199 152 136 255
-20.134698977365645 -15.488534411692029 -19.555383341605847 202 155 139 255
-20.718533919062565 -15.036771444706204 -19.019190451992728 204 159 140 255
-21.345754391107846 -14.660978685326540 -18.428724301073430 203 158 139 255
-21.439935150643493 -13.396357722738401 -18.499147478685813 195 150 131 255
-22.110222666974664 -13.097119076623869 -17.854653302863795 190 143 125 255
-23.087472694093748 -13.323684249385423 -16.827729577873754 184 137 119 255
-24.500991686277757 -14.305541276375976 -15.256228547916891 185 138 120 255
-25.119960652021973 -13.944932667852555 -14.672168033105663 190 142 125 255
-25.213160530382368 -12.682106706727154 -14.743343413230320 187 138 121 255
-25.525913480895639 -11.794313849219975 -14.541126683650759 182 131 114 255
-26.056405326673826 -11.284895811959245 -14.066929272890803 177 124 108 255
-26.846166791187329 -11.233243125166069 -13.267924448700256 161 108 92 255
-27.158226770785348 -10.346725043494757 -13.066245294962840 149 98 79 255
-27.255191500917874 -9.076962395143994 -13.134489931503168 138 87 68 255
-27.224838524666865 -7.574049748243539 -13.363336296727937 126 75 56 255
-27.711165012017688 -6.990095144800449 -12.944016254705502 124 73 54 255
-28.453382508832846 -6.870130486289440 -12.202518459200348 125 74 55 255
-29.150985410607007 -6.676457260541213 -11.516248005810610 121 70 52 255
-29.209365816024075 -5.321884482653388 -11.635034189489403 103 56 38 255
-29.651015102799590 -4.664342548172328 -11.270995681160571 91 46 27 255
-29.923339589996004 -3.695140144778520 -11.120758646307223 89 45 28 255
-30.322739780103973 -2.959537292324569 -10.810111666709474 85 46 31 255
-30.469996387290252 -1.753047570058015 -10.818732358964326 63 32 20 255
-30.618649393267333 -0.543990078148681 -10.826270731548277 22 4 1 255
-36.007469653236967 -3.401309037969554 -4.951971260471140 3 3 0 255
-35.862831713908690 -1.641297251611377 -5.331332902602242 5 4 0 255
-36.337032942530385 -1.079734706875058 -4.921499431384120 8 8 0 255
-14.288465644128621 -17.851286932291089 -26.542926702572885 206 191 158 255
-16.020542889644958 -19.170963235788491 -24.590539676188882 219 183 165 255
-16.974789853206431 -19.279537856975423 -23.597882801638718 221 184 167 255
-17.745183662573709 -19.104678758537403 -22.831688899046497 222 182 166 255
-18.197902307111292 -18.426323717199807 -22.458646027505409 222 180 164 255
-18.695267639358832 -17.821244129196089 -22.030004166153219 218 175 159 255
-19.102365001073963 -17.071390276432055 -21.713301311068591 214 169 153 255
-19.733026913372328 -16.687329709738066 -21.118369936259427 203 157 141 255
-20.228571710663118 -16.085586796082822 -20.691128919971902 198 151 135 255
-20.945985405354577 -15.852761280019621 -19.986979264571403 195 148 132 255
-21.217966905767724 -14.885207942483248 -19.837952047319789 193 146 128 255
-21.667574403561048 -14.212547237167826 -19.467295903976009 191 144 126 255
-21.763874770924815 -12.946506966302223 -19.538373517725432 197 149 131 255
-22.169808927891097 -12.198764577782299 -19.222546750731681 193 144 127 255
-22.926715711938584 -12.048695348914180 -18.466796383700228 189 140 123 255
-23.725369890905057 -11.977245917488744 -17.657706236541259 187 136 119 255
-24.696327037303178 -12.210496252464679 -16.631130428424910 179 128 111 255
-24.793703132111204 -10.942461766529107 -16.701359332826371 171 118 102 255
-25.413465697241804 -10.578441750899799 -16.114874214603418 169 114 99 255
-25.858842858672631 -9.913554798215841 -15.747492090733033 164 108 93 255
-26.519683804956713 -9.629387994289203 -15.108188694947501 149 92 78 255
-27.006867836543250 -9.043013138300125 -14.687422236644835 132 79 61 255
-27.278934110855602 -8.075280408623286 -14.538307524366758 120 67 49 255
-27.680036781788942 -7.336426302977941 -14.226229155761445 124 71 53 255
-28.209089197815388 -6.828452905118610 -13.752032980694764 125 73 55 255
-28.950106543074924 -6.707646776151307 -13.008639701593694 123 72 53 255
-29.519409003125247 -6.281057296942976 -12.482274244863589 116 67 49 255
-29.622284713104136 -5.002896772655731 -12.548228401991167 108 63 44 255
-29.937734125199455 -4.110783377522921 -12.344512961822232 101 59 39 255
-30.421879323993494 -3.530019670890852 -11.926123333748563 94 55 39 255
-30.821592269206064 -2.793741653048698 -11.615141197637996 84 50 38 255
-31.221251233463676 -2.057567064704017 -11.304204763240676 41 17 7 255
-35.138942836970614 -0.595548548302872 -7.484585617436267 10 8 0 255
-36.312455654358871 -1.388874144333158 -6.175326126421965 14 11 2 255
-36.704995512096104 -0.665859853124175 -5.869971819216687 15 12 3 255
-15.347727942581969 -17.160369699671492 -26.887009597050366 216 186 165 255
-17.431828926495058 -19.062003932055632 -24.481108646001957 222 184 166 255
-18.336216589018761 -19.102728100524814 -23.544234621464682 221 182 167 255
-18.788815116506214 -18.424127182499092 -23.170852191090461 222 180 164 255
-19.196306038457635 -17.673456305845434 -22.853757787615251 218 176 160 255
-19.469731238277518 -16.704273776771714 -22.704562231953389 214 171 154 255
-20.233741770869017 -16.538092955926970 -21.940479751840257 205 159 143 255
-20.862475564649174 -16.155632234820530 -21.345239270098887 197 150 134 255
-21.578512307766090 -15.922657586006693 -20.639671568911410 187 140 124 255
-21.762656112885054 -14.807606803351746 -20.602317915628475 179 131 111 255
-22.432540647113854 -14.504484242497853 -19.953848982168552 177 129 109 255
-22.529749311978946 -13.239256121565575 -20.026523637207958 189 138 119 255
-23.198146164173352 -12.938866680856165 -19.379205452401152 195 144 125 255
-23.384401310345140 -11.819911073404313 -19.340194594862055 194 143 124 255
-24.356069140500210 -12.046953042059158 -18.308524467889555 189 137 120 255
-24.672766156948171 -11.153173647849627 -18.104424310033039 186 131 116 255
-25.249847552563352 -10.710674912370649 -17.570541848035987 174 117 103 255
-25.912304684119277 -10.421216559447032 -16.927835597701886 159 100 86 255
-26.530152036221779 -10.058776989295325 -16.341035384557216 149 89 76 255
-27.361550620642674 -10.078735322518213 -15.482091478362264 143 82 69 255
-27.676319802977758 -9.188502406428427 -15.279486914661959 137 81 64 255
-27.948780963331728 -8.221049034814286 -15.130998180735901 137 81 64 255
-28.477521976682425 -7.712440733097935 -14.655924046658129 133 79 61 255
-29.090438325029027 -7.359086950732433 -14.072962812977380 130 77 59 255
-29.702083074278221 -7.008077436847714 -13.490992718902334 130 78 60 255
-29.974530425925707 -6.040655010688340 -13.342519835463150 122 73 55 255
-30.163402139725918 -4.916876907514563 -13.301470718418557 110 67 50 255
-30.437421755511679 -3.946563371173170 -13.151779251777981 96 55 37 255
-30.963380489704150 -3.443094530734356 -12.678883168885847 87 50 34 255
-31.530317156575791 -3.019300676701846 -12.152910240199503 57 29 17 255
-31.596588706216721 -1.655909182322375 -12.270856307568465 18 1 0 255
-35.961398136636831 -1.062757018743923 -7.857002818191603 10 11 0 255
-38.198283170501782 -0.976233622775680 -5.565384281774612 3 2 0 255
-40.375871385092438 -0.843864662730255 -3.341174396396411 6 8 0 255
-40.964097874108745 -0.536112828228113 -2.777536048646823 7 12 0 255
-15.497246010902757 -16.442497274400523 -28.175751050395860 210 189 158 255
-17.620582043334366 -18.412868353138947 -25.705014189928079 219 186 163 255
-18.927570186172147 -19.100875503720118 -24.257169289188965 221 183 165 255
-19.469477528582871 -18.566864635160186 -23.770785607081393 218 181 162 255
-19.743015400009028 -17.598492078355633 -23.622445580146689 215 177 158 255
-19.883782606530644 -16.410330107721506 -23.642023666427860 216 173 154 255
-20.779885180984223 -16.462126989967999 -22.707712956758598 206 159 139 255
-21.540551564923845 -16.299046415298136 -21.943396042161595 197 147 129 255
-22.255090413099964 -16.066146001564618 -21.236504935921573 183 132 114 255
-22.264057655622963 -14.656389657425507 -21.423230240067198 170 121 99 255
-23.020850423148204 -14.500430613190360 -20.661914318784767 169 118 97 255
-23.163196911658019 -13.309326412975565 -20.680232959323689 182 130 109 255
-23.830406565609309 -13.008807815981982 -20.031691612084671 191 132 114 255
-24.104560822306240 -12.039252983563586 -19.882828570183221 192 133 115 255
-24.596275176210355 -11.442861513979892 -19.456987887594892 189 129 113 255
-25.087430888120565 -10.847496863848733 -19.031579788878844 184 125 109 255
-25.621169007283697 -10.328476289344678 -18.551498524678891 176 117 101 255
-26.541279442971359 -10.490800833797067 -17.576937125877777 167 108 92 255
-27.243926011213944 -10.279780659754181 -16.879274700290637 166 107 91 255
-27.944809859444717 -10.072007757994015 -16.182983984323300 159 100 84 255
-28.345339243750232 -9.334008455624769 -15.871165137244247 153 93 75 255
-28.703266183492417 -8.519700248366973 -15.614033433603254 149 90 72 255
-29.315855824425967 -8.165002089717717 -15.029522368381777 145 88 71 255
-30.054053525104223 -8.043285077502162 -14.282664026553960 130 75 59 255
-30.537218324957479 -7.462642628784863 -13.863475567702977 119 68 51 255
-30.767526526120861 -6.419065278909159 -13.770263169382844 105 57 40 255
-30.914878745266719 -5.218728505362151 -13.784676222014610 84 42 22 255
-31.063621863979535 -4.015832146800221 -13.798009430490197 70 33 14 255
-31.463895539996088 -3.278319877642843 -13.486404372375773 67 34 19 255
-31.780976090643719 -2.384486638537339 -13.282610778447065 27 5 0 255
-34.327283465983243 -1.253449434987203 -10.805425656203226 1 3 0 255
-35.380169110876523 -1.790399848743050 -9.641457753916399 5 7 0 255
-35.612252024304098 -0.743601781532959 -9.546909407354946 3 4 0 255
-36.619020509497716 -1.210733265292731 -8.440377800113822 6 7 0 255
-37.094283361001203 -0.644717125216289 -8.027402780300008 3 4 0 255
-38.971590797886194 -1.365611416862976 -5.984994557789179 0 1 0 255
-39.764464564915329 -1.452857030959876 -5.152615927935699 0 1 0 255
-40.354290466567477 -1.140207427851351 -4.585924152212556 1 0 0 255
-41.542894820705953 -2.046380043034105 -3.230276634814118 4 6 0 255
-41.849287620683214 -1.172348283823510 -3.034904357974881 9 12 0 255
-18.171202983515400 -18.339806452281238 -26.479100963936361 215 185 160 255
-19.340656699088413 -18.810426945277470 -25.196973742550256 219 182 164 255
-20.016126174124764 -18.492425691776873 -24.539903880803990 220 180 165 255
-20.379230028125903 -17.668908561649005 -24.279047618628169 217 175 161 255
-20.786776690611049 -16.917932707533595 -23.961722323401034 213 168 152 255
-21.415049162041953 -16.532435630621421 -23.363238506962205 202 155 139 255
-21.909907516575515 -15.929443955007144 -22.934201933331508 195 146 129 255
-22.448119931554174 -15.401001181273074 -22.449545365192733 184 133 116 255
-22.635141046128950 -14.284145545786458 -22.413193011674082 170 120 99 255
-23.260063999272944 -13.904797548434715 -21.817295895016883 163 112 91 255
-23.404582777096010 -12.711807767516035 -21.835885723868671 170 116 96 255
-24.071695004692543 -12.409152387975496 -21.185273126904264 178 119 101 255
-24.520709015830505 -11.736165684331411 -20.813763182665639 184 125 107 255
-25.098983782493832 -11.288317503967562 -20.276031214951416 182 120 105 255
-25.590072338785092 -10.692237783164870 -19.849897861627909 172 110 95 255
-26.252406922446482 -10.398374915498863 -19.202994931344705 172 110 95 255
-27.341516907522248 -10.862526695717804 -18.005214811118151 173 113 97 255
-27.999596281222296 -10.576502484740729 -17.361622944564971 167 107 91 255
-28.783919461622361 -10.521178937857371 -16.554160796190757 169 108 93 255
-29.098859177334020 -9.631909216853614 -16.352607571142869 167 106 88 255
-29.541254550048677 -8.971107962359667 -15.986241275637610 160 101 84 255
-30.236695747593103 -8.770681551555469 -15.291701742917837 155 98 81 255
-30.804067241280336 -8.342919924104024 -14.762455024497768 140 85 68 255
-31.202474205097332 -7.608736764621767 -14.452200879943405 119 68 51 255
-31.140326056162451 -6.024341076081441 -14.740983019153504 98 50 32 255
-31.414713964844111 -5.055362120347013 -14.592870955522358 74 33 13 255
-31.606525125231599 -3.929663447226403 -14.552773627238224 65 30 10 255
-32.089993115399352 -3.347638159509302 -14.132585141751917 60 31 15 255
-32.572923409968837 -2.766608222688660 -13.712819538881064 19 3 0 255
-33.220355635682012 -2.500230278795300 -13.077542852583463 7 2 0 255
-35.112767218892344 -1.638611816378670 -11.232445534976705 1 1 0 255
-35.713558814641459 -1.303760444501620 -10.655365821673740 0 2 0 255
-37.126224425517734 -2.561749593242837 -9.008995655935479 1 0 0 255
-37.033003034025569 -0.880229639477363 -9.343885888434897 1 0 0 255
-37.872181478461215 -1.032789152946009 -8.450069300365868 0 1 0 255
-38.426610026570046 -0.628960971289018 -7.930977947532057 0 1 0 255
-40.053165143339072 -0.875138807547671 -6.205580659576810 0 1 0 255
-41.321825143614035 -1.935210950784779 -4.736960987278962 0 1 0 255
-42.346281493391302 -2.518626216591883 -3.589640226338048 2 4 0 255
-42.612717020096639 -1.564430740039711 -3.447840415938032 8 10 0 255
-43.117280247245674 -1.098110838223079 -2.989493610802100 9 11 0 255
-17.875527481107497 -16.900233840605438 -28.335262648557432 150 127 94 255
-19.355459169585146 -17.870871335599531 -26.650070156270914 217 180 159 255
-19.854094880863073 -17.260111817074005 -26.217344019587898 222 180 164 255
-20.484806445211035 -16.868189239160927 -25.615171079432713 219 175 162 255
-21.114223058994810 -16.478645219740855 -25.013999360105231 210 164 149 255
-21.830290325645848 -16.237570632552547 -24.300951767309300 201 153 139 255
-22.018365583519198 -15.120533771980149 -24.265411199467792 197 147 130 255
-22.644872040806831 -14.736332228506171 -23.666486860861198 187 136 118 255
-23.052042524740102 -13.985925740408732 -23.349339702227780 172 123 101 255
-23.676573037007643 -13.605354479249172 -22.751943923670609 160 109 88 255
-23.866146441758730 -12.485533892807865 -22.715215424592770 162 108 88 255
-24.186589987381012 -11.586776337484451 -22.509982954761796 167 108 90 255
-24.809314043160441 -11.209521191588067 -21.913982049188206 170 111 93 255
-25.387748552094507 -10.759801305029725 -21.374663570264488 170 107 92 255
-26.093788867602484 -10.537162263804078 -20.669385317774953 178 115 100 255
-26.669776791799364 -10.091946378604263 -20.131967859558102 175 112 97 255
-27.756415706607100 -10.554643726830022 -18.930542814666552 171 108 93 255
-28.583994521893715 -10.570265393447102 -18.064028740675553 174 111 96 255
-29.409086024129437 -10.590470608106898 -17.199451568519635 191 128 113 255
-29.935744404280172 -10.082078468462697 -16.722642104436943 191 129 114 255
-30.377296289611365 -9.422363838482113 -16.356499079918677 183 124 108 255
-31.070760703163415 -9.222897912476583 -15.661012550810597 170 113 96 255
-31.427143927339785 -8.411977364529577 -15.405586242497776 147 93 75 255
-31.783706504620966 -7.600728265826774 -15.150022082722700 135 84 65 255
-31.765382043212270 -6.093614545993944 -15.386154146339607 123 75 55 255
-32.164947944597429 -5.357203062477083 -15.074911624039800 101 58 39 255
-32.688754248654988 -4.854081548773138 -14.600336921896599 67 30 11 255
-33.170468166899468 -4.274453442885601 -14.180740190146025 47 18 2 255
-33.692836281755632 -3.773991581109499 -13.707294136158112 18 4 0 255
-34.501922123656954 -3.823724115506252 -12.855210949245532 4 3 0 255
-35.245350273817991 -0.758685614497722 -12.520249248060850 0 2 0 255
-39.081351364693461 -0.777196596290537 -8.511915585210687 0 1 0 255
-41.610269597050717 -1.355630252930951 -5.787961237558761 0 1 0 255
-42.989242040655014 -2.666470519089501 -4.159265478069386 0 1 0 255
-43.374591973825204 -1.956396400805488 -3.859223431484423 4 6 0 255
-18.800012819443936 -15.994248980835891 -28.849775780513767 156 120 89 255
-19.522225139056076 -15.739188565269160 -28.129475498466576 217 177 153 255
-20.506809477501406 -15.922872137526099 -27.069619418722652 214 172 153 255
-21.663776744132292 -16.403715661839499 -25.785362944420541 211 167 151 255
-22.159794053646237 -15.796921249073847 -25.353878602361391 203 155 140 255
-22.305948897666696 -14.605176463969144 -25.375143124405781 194 144 128 255
-22.409935343054173 -13.337423459299515 -25.451776934740650 184 133 114 255
-23.210253982003167 -13.245803708307335 -24.625536881813247 170 121 99 255
-23.878417352598433 -12.936588260565998 -23.969820394522174 160 109 88 255
-24.156450076121956 -11.962920652257509 -23.820749841388448 155 101 81 255
-24.090677764085456 -10.393140105313790 -24.119711053027686 158 99 81 255
-24.671525846392342 -9.937397814833957 -23.577053383286511 159 100 82 255
-25.551032872289710 -10.007247448670910 -22.644052002961814 163 100 85 255
-26.726660041673085 -10.607369308300690 -21.322685645159453 174 111 96 255
-27.386986088008769 -10.312577172417861 -20.673054493260025 184 121 106 255
-28.470307951797622 -10.775380016950464 -19.468644207568133 178 115 100 255
-29.422697331828118 -11.018337885859864 -18.433809028195043 193 130 115 255
-30.751765924644161 -11.950536776951253 -16.902803595961331 191 128 113 255
-31.570377827737900 -11.978894272679838 -16.039760745499109 170 108 93 255
-31.756980210619020 -10.866277758216825 -16.006948667774566 159 102 85 255
-32.070269111827827 -9.981332486384730 -15.807869655132947 152 96 79 255
-32.550885380635918 -9.402876258777894 -15.388338989844812 148 96 78 255
-33.155775015130189 -9.056540581649841 -14.804422785475623 146 95 76 255
-33.220087638376526 -7.708156716655822 -14.934459496157643 142 94 74 255
-33.699919373368886 -7.131154802347623 -14.515547726412137 132 87 66 255
-33.890504057307993 -6.011212427164423 -14.479646267685581 115 74 55 255
-34.452348909441810 -5.590505123062258 -13.951801841634392 73 37 22 255
-34.726157189033245 -4.624627335778769 -13.806025679334255 22 1 0 255
-34.379046519622136 -0.960070296756498 -14.707056176548406 7 1 0 255
-34.982654715309195 -0.616135350686079 -14.124174304424628 6 2 0 255
-42.218127559782374 -1.422978021276776 -6.415362637500266 0 1 0 255
-19.066742094632900 -14.002242142151999 -30.221527524556763 157 136 98 255
-20.227190037918888 -14.470296587549456 -28.928651288611036 204 177 145 255
-21.470864218431302 -15.091653287039264 -27.525196156737422 203 168 142 255
-22.099535088674770 -14.699584870777983 -26.920991309488556 198 157 137 255
-22.553021001184504 -14.016983529075304 -26.544725454058948 192 147 127 255
-22.572665420217731 -12.600465546479882 -26.735106932323276 183 136 116 255
-23.545484607644994 -12.800894810442912 -25.679838208771770 174 125 103 255
-23.997760397329529 -12.120504305309794 -25.304496946926690 165 114 93 255
-24.191783485594101 -10.995979480543440 -25.267543595751903 160 106 86 255
-24.086865352995972 -9.348960594204669 -25.623543165711283 158 99 81 255
-24.839706590588946 -9.188050138900962 -24.853964772457971 157 98 80 255
-25.974167122444015 -9.703947292279850 -23.581282492665906 159 98 82 255
-27.019431016053375 -10.077536150403233 -22.423820805920144 150 89 74 255
-28.230528896196262 -10.758886094853494 -21.045698567633110 186 124 109 255
-29.606012099105726 -11.750668420518252 -19.448045482857708 192 130 115 255
-31.060148416988937 -12.904191877503365 -17.743385458705234 197 135 120 255
-32.886363689499518 -14.752114034178078 -15.543060399066718 198 136 121 255
-33.405384139806472 -14.255391187463772 -15.069968751444009 185 126 112 255
-33.213362463628982 -12.462190997913382 -15.539544243815556 179 122 105 255
-33.316270536107055 -11.198876302250824 -15.619289864732423 170 114 97 255
-33.753110619224600 -10.546916805338412 -15.255956102106467 168 116 97 255
-34.603820011810058 -10.665688131562433 -14.341536886802658 167 119 98 255
-35.038848805654084 -10.017072980964485 -13.979619674187006 166 118 96 255
-35.597105490383456 -9.601399723210221 -13.453106552336209 163 117 97 255
-35.908010063122504 -8.721506231669139 -13.256494189740465 160 114 95 255
-36.342145948193945 -8.074549565408006 -12.895284400578305 136 92 76 255
-36.816801384181190 -7.506270149186093 -12.479646868331685 121 84 71 255
-36.395676730785510 -5.215234875859778 -13.264925382388526 66 37 26 255
-36.912493395448081 -4.722613652208167 -12.793587439187377 20 4 0 255
-36.740858990704680 -2.891875350606938 -13.247315804417639 12 0 0 255
-36.370900563394400 -0.659907522315052 -13.969884754305923 9 0 0 255
-43.174998457060198 -0.693648126276173 -6.793689901975910 0 2 0 255
-19.737212385111548 -12.655976596534856 -31.081939388696640 165 168 116 255
-21.023916507218274 -13.343885883813869 -29.615150803406721 184 170 130 255
-21.958452190567641 -13.457009784623295 -28.608390260403610 186 158 130 255
-22.240741688313534 -12.477542010063388 -28.457899682144870 186 151 126 255
-22.782652210429973 -11.937455149743670 -27.965886796989565 185 139 118 255
-23.452880240178672 -11.619808163080478 -27.304273666016229 175 127 105 255
-23.949893245701730 -11.009476743633286 -26.870436134223922 170 118 97 255
-24.360743860518937 -10.251979835252371 -26.550136984921636 164 110 90 255
-24.856873441693665 -9.643266190624928 -26.116977956068382 163 106 88 255
-25.905690920679916 -10.004669809620509 -24.951524003709608 158 101 83 255
-26.781057074144826 -10.073827260595550 -24.014032271257236 153 94 78 255
-27.484425071349222 -9.848059906110819 -23.303370435086862 139 82 65 255
-28.776754708265997 -10.678542935104019 -21.808950908342865 144 88 71 255
-30.695044478552774 -12.650071973042486 -19.478744749651298 201 144 127 255
-32.436749335439686 -14.335135166763251 -17.378946387791842 209 151 134 255
-34.086987373387558 -15.882818239886689 -15.396826786996428 198 139 123 255
-34.645412342270049 -15.465250868124315 -14.868714322194478 189 130 116 255
-34.662128052434724 -14.057319960872007 -15.064333528638173 178 119 105 255
-34.929773773418788 -13.104802801150811 -14.925214253243581 160 104 87 255
-35.528874882104816 -12.765253071719599 -14.342208161492977 151 99 80 255
-36.126708075398000 -12.428043514869302 -13.760192836458316 165 117 95 255
-36.435521809066131 -11.552640919865979 -13.565799994595579 177 129 107 255
-36.744761197361584 -10.676457233375686 -13.371078742099257 178 131 111 255
-37.217892674211271 -10.110145164737702 -12.955848405649760 172 123 106 255
-37.812724199669361 -9.778486106940932 -12.376188233812513 157 105 92 255
-38.325047239049923 -9.292936084119731 -11.907228363912537 153 104 93 255
-38.512562180688462 -8.182170821913587 -11.876980487053089 129 85 75 255
-38.539700561850282 -6.755063722685719 -12.064511610752504 106 77 66 255
-38.730015513430203 -5.639150858929952 -12.032094616923274 68 44 32 255
-38.881349386978030 -4.442107096963127 -12.053260882413724 35 16 7 255
-37.753389193270465 -0.707426679559433 -13.813717440798570 25 14 8 255
-40.963928956154518 -1.061747370007424 -10.360422557758227 0 1 0 255
-21.117915350380343 -9.548560036318378 -31.465028604889255 159 155 112 255
-22.136880174877149 -9.806749833173455 -30.341172487921767 167 138 107 255
-23.323783992878191 -10.365859990693195 -28.992271286010691 175 132 106 255
-24.207129282417014 -10.416161865471764 -28.044717524607790 180 129 108 255
-24.959901397645808 -10.249278816152440 -27.269538572037732 176 124 104 255
-25.880617822108718 -10.383308475396404 -26.269312382088003 172 116 99 255
-26.459405230068455 -9.926635403036187 -25.723876628915036 166 113 95 255
-27.079396987425525 -9.546629265193616 -25.122786150278444 151 95 78 255
-27.571724617316676 -8.944076693669501 -24.691804425102163 125 72 54 255
-28.987624636794749 -9.996795228868137 -23.023183001220900 91 42 22 255
-31.654201207350781 -13.322820714599288 -19.673688998718632 195 145 125 255
-33.681193316027759 -15.538460545147188 -17.175739209943998 205 152 134 255
-34.865826044875291 -16.254372778079528 -15.805056568909350 196 139 122 255
-35.298396488404620 -15.609353824644728 -15.444187949724721 187 126 113 255
-35.565054069657037 -14.659671180971173 -15.306777711482056 141 80 65 255
-36.121340263652371 -14.244477889563058 -14.778878024515734 100 43 26 255
-36.635438752233853 -13.754428748716208 -14.307397874040930 161 111 90 255
-37.107713442700515 -13.188853373082111 -13.892054077790590 169 121 99 255
-37.415771787683866 -12.315488576357495 -13.698848083510939 183 133 115 255
-37.969044854610331 -11.905863180579388 -13.173309024772294 190 141 126 255
-38.724684595842035 -11.886337738842229 -12.372370231319451 184 137 121 255
-39.194201805662317 -11.325864198814173 -11.959192657988638 173 127 114 255
-39.582312817761817 -10.610205858920324 -11.656540583781577 164 117 107 255
-39.526903842129002 -9.033234329207460 -11.958468289083555 152 107 98 255
-39.835854639260987 -8.158257825025089 -11.764597806907176 134 95 84 255
-39.944870513956062 -6.888710163723090 -11.844242654799586 119 83 71 255
-40.255299125321471 -6.011025670153060 -11.649235547377685 73 46 32 255
-40.167836778449725 -4.340543456273394 -11.999709985588197 33 14 2 255
-40.242078208993576 -2.982497489223647 -12.130018705850944 46 33 25 255
-41.110050814468394 -3.213858288364065 -11.170991193897351 31 20 15 255
-41.698794388774417 -2.891566275000116 -10.594355389194646 13 7 1 255
-41.774736961927914 -1.530419119581666 -10.723370579674651 3 2 0 255
-22.988106308426865 -8.744670841946288 -30.972940428693363 184 147 119 255
-24.552783826088785 -9.970948664014600 -29.108425280289396 187 138 117 255
-25.601789729291170 -10.320732253501404 -27.932375238183596 185 134 114 255
-26.393284932183747 -10.231666718118731 -27.100301886020418 182 126 109 255
-26.718550213965528 -9.327218782602756 -26.894276261079398 173 120 102 255
-27.254516948299027 -8.795644891446443 -26.404630048026604 157 101 84 255
-27.789683567274807 -8.265543006819001 -25.915604649054131 127 76 57 255
-29.160390312352888 -9.240351315639003 -24.297777973841818 91 43 23 255
-31.692956151669733 -12.336600051895545 -21.105791715571854 182 134 114 255
-33.922099810694675 -14.926383536876813 -18.317451506433287 204 153 134 255
-35.145637138902117 -15.715726227110110 -16.885976576688449 197 143 125 255
-36.074941274634341 -15.981658168030606 -15.850980715604436 163 105 91 255
-36.630125193703009 -15.566925836198180 -15.322483807758260 128 70 56 255
-37.430833392770523 -15.613144149452381 -14.459356508544147 184 128 111 255
-37.696437720881192 -14.666421994356369 -14.323711558443790 172 123 103 255
-38.207811178207919 -14.180200309476362 -13.853246501001678 167 119 99 255
-38.596212703328916 -13.463894315167181 -13.550264098769333 192 144 125 255
-39.065776741519016 -12.902494315542299 -13.136271265589613 200 151 136 255
-39.777735586876645 -12.807819955729428 -12.390092502891690 193 145 131 255
-40.205135379342209 -12.171898841514405 -12.032851294248303 184 137 127 255
-40.752985244929903 -11.770722623238044 -11.510103634475797 180 133 123 255
-40.738046609387084 -10.275375722242131 -11.760289939052939 166 122 113 255
-40.805485279787916 -8.932698192024361 -11.898521656025054 152 111 98 255
-40.994464821643305 -7.822756205381324 -11.870398188587927 140 103 87 255
-41.264136749640187 -6.868592398433890 -11.731635805496467 122 93 76 255
-41.336268476079283 -5.517288193302875 -11.866232958680371 89 66 52 255
-41.845052514969439 -5.035919829834029 -11.397859968505855 20 2 1 255
-42.431882850683593 -4.715211522953382 -10.820913926818605 15 1 1 255
-42.742493167546613 -3.837884892232978 -10.626407427473765 27 20 12 255
-42.113657325692316 -1.038120388611446 -11.737173186223345 5 3 0 255
-45.308022130926503 -1.543809963228398 -8.244137609934000 0 1 0 255
-46.350869803504793 -2.209700996272488 -7.025343085362977 0 1 0 255
-46.390179538513024 -0.766780413975084 -7.209528511360645 0 2 0 255
-23.085797522731525 -7.860401499321483 -32.389306777664245 194 167 135 255
-24.773953222551228 -9.304646570616399 -30.346547563164251 196 150 127 255
-25.356724405313173 -8.837485907631105 -29.795093023930008 192 141 121 255
-26.064784308895838 -8.595025758939300 -29.073318642429598 192 136 119 255
-26.687092545235600 -8.206861582534373 -28.466819095849473 173 120 102 255
-27.266245838323584 -7.746358337514948 -27.918173024565050 156 104 83 255
-27.927854942310177 -7.437629271104385 -27.256815531041923 124 73 52 255
-29.170732464400828 -8.183821382944473 -25.803317776432294 93 46 25 255
-31.404876717424202 -10.748031955560691 -22.995920479840350 135 89 69 255
-34.414659549960874 -14.768318691675859 -19.123798327413510 209 161 142 255
-35.841061764355345 -15.935664236578305 -17.406173283839792 191 140 121 255
-36.644187420140241 -15.973635744576995 -16.537648487824811 114 61 45 255
-37.321761948817283 -15.787385489608511 -15.839643420672388 196 140 125 255
-38.161197135175257 -15.910320062374865 -14.918604535344485 189 138 121 255
-38.508524837028403 -15.117742921414731 -14.671765052728460 155 106 89 255
-38.978020700262931 -14.555631029670849 -14.257048963888082 150 101 84 255
-39.690223719724685 -14.457452444984995 -13.507848897105220 144 95 79 255
-40.319599344495600 -14.208185633125623 -12.871650728946406 192 144 130 255
-40.907173442436658 -13.884092955808654 -12.292258824452347 181 133 121 255
-41.332772159307154 -13.251034367239157 -11.935997033830603 175 128 118 255
-41.677962196047829 -12.462428551497993 -11.690851931352313 175 131 122 255
-41.464212546205403 -10.577721184720644 -12.220428247339100 121 76 69 255
-41.293851514786951 -8.764925860537517 -12.691972444242225 86 47 35 255
-41.523790636738738 -7.733124000169710 -12.609332330104365 102 67 50 255
-42.071261933100942 -7.331113940004855 -12.085459877221638 123 92 74 255
-42.183714468068743 -6.060235396207304 -12.167065261327622 114 86 72 255
-42.573162497227869 -5.341986248524108 -11.863254319860573 101 77 65 255
-42.374353198240783 -3.429784917667575 -12.381231324405832 17 1 0 255
-42.533111457896425 -0.706258415820287 -12.644507733017917 2 2 0 255
-47.798048016945785 -4.062224867887380 -6.457212509346306 0 1 0 255
-23.019187560281523 -6.682460220673448 -34.040818326519712 188 170 135 255
-24.788007399917262 -8.269861468914200 -31.875693940283099 198 154 130 255
-25.329742063788359 -7.725253051816821 -31.379326333449256 196 150 128 255
-26.038362998489646 -7.479073865533792 -30.654626029129219 196 143 125 255
-27.079627441575013 -7.831842845928435 -29.474148008830952 182 129 111 255
-27.700380506261979 -7.444598182256811 -28.867055354000826 163 112 91 255
-28.278290081192381 -6.984810413893740 -28.317916522873645 128 80 58 255
-28.979476740451247 -6.752328260630179 -27.599002941101276 103 57 36 255
-31.042403796932831 -9.009738661210719 -25.008153497336821 98 56 34 255
-34.249126030688359 -13.401223148193424 -20.838065781957795 212 167 148 255
-36.289205075748100 -15.700779866413711 -18.265047921870718 173 126 108 255
-37.459482134849566 -16.421834850749178 -16.885789501459158 187 138 121 255
-38.216755146935071 -16.389032714294729 -16.074061879341713 193 142 125 255
-39.297509273164053 -16.972087940676886 -14.813714588965695 196 146 131 255
-39.765192405748820 -16.412487565534320 -14.399641716498650 202 155 139 255
-40.110915159649778 -15.623152548912827 -14.154315812738787 151 103 87 255
-40.497174993785421 -14.910615285160702 -13.852836253081790 126 77 63 255
-41.044306900599850 -14.507612619616197 -13.327728256330062 164 116 104 255
-41.670642658845651 -14.261653329880062 -12.691770603561906 167 119 108 255
-42.215498371344268 -13.862861061037222 -12.168449839083621 156 110 102 255
-42.719469666420707 -13.387922508068129 -11.701563779045983 70 25 18 255
-42.626429559205960 -11.740708735405917 -12.068422721521728 89 46 39 255
-42.179578500393333 -9.382025011205229 -12.932101635931957 136 96 88 255
-42.448894684517740 -8.430544857603564 -12.795496227287515 150 115 104 255
-42.797667200401420 -7.635647164855243 -12.547848583830671 67 34 21 255
-43.225174818647204 -6.998663110383234 -12.189722298192748 104 73 60 255
-43.417523675430886 -5.886052852273878 -12.162257076244714 107 81 70 255
-43.923250521854698 -5.407947524438327 -11.694067260993279 30 13 5 255
-44.195519668027629 -2.935474582105826 -11.800504959643661 2 1 0 255
-44.275962106184323 -1.574637993648537 -11.933990427681721 0 1 0 255
-48.170407237347462 -2.121670897305648 -7.644798881529994 0 2 0 255
-21.990707869021975 -3.813697868182430 -37.026439712059329 181 167 131 255
-25.185436648007084 -7.899698560575388 -32.892073029602443 200 159 134 255
-25.978406558808473 -7.797649178748372 -32.049334929116100 200 153 131 255
-26.560452751446547 -7.328669758585818 -31.495520645970771 198 142 125 255
-27.599195270313089 -7.680450774222862 -30.311782828011360 188 132 115 255
-28.177824093951358 -7.217765769760007 -29.760626900608230 167 116 96 255
-28.838153563236119 -6.906770068724001 -29.095978987814618 138 90 68 255
-29.373208899374049 -6.373255355126219 -28.603686625234360 113 70 47 255
-30.935703516363617 -7.724500521789764 -26.687962707118572 84 43 21 255
-34.131709704072136 -12.110535349710233 -22.502863392223276 213 170 151 255
-36.657016571198938 -15.314561189229323 -19.239015868133890 194 149 130 255
-37.824384052550215 -16.033873431701295 -17.855437702881318 198 153 134 255
-38.621282670788446 -16.075761998157816 -16.984756119721254 190 142 126 255
-39.618334012345542 -16.504447837049213 -15.833555616119156 192 143 128 255
-40.652109733109910 -17.016594998979485 -14.628834560087228 187 141 125 255
-41.077700701693630 -16.382613865690644 -14.271710412285898 169 121 107 255
-41.583321543696144 -15.903412586733623 -13.802406176180284 139 90 77 255
-42.128207090233417 -15.502988183774619 -13.277600229412883 141 93 81 255
-42.552307616434277 -14.871771342389025 -12.921653159414063 148 101 91 255
-43.055719646373404 -14.396662095423892 -12.454089065456913 111 66 59 255
-43.359952854488114 -13.532967820916213 -12.266291919199887 149 104 98 255
-43.585499844853985 -12.512026959469210 -12.189637176093612 168 125 119 255
-43.457005115443991 -10.783363642797838 -12.613061670313670 170 126 120 255
-43.606838093486090 -9.599703660338434 -12.645239063210852 59 19 15 255
-44.228464186483905 -9.360180457531271 -12.010869964839998 79 41 29 255
-44.653212034747668 -8.727832233315610 -11.654475809271275 116 80 68 255
-44.960807628773210 -7.857996386037200 -11.464110881478007 110 83 72 255
-44.919312771655626 -6.271308643600946 -11.769964583237481 20 4 2 255
-45.770926843547841 -6.514799484569949 -10.806976620816869 6 0 0 255
-45.693302335857254 -4.843585800378037 -11.165916793699353 2 1 0 255
-45.733969166296603 -3.407786977144497 -11.357965106662533 0 1 0 255
-49.798186524552250 -8.914181023747091 -6.048007383098849 0 1 0 255
-49.451549882748651 -5.168944584758947 -7.039711179532389 0 2 0 255
-22.066864883016194 -2.858363260963017 -38.521935678170877 187 169 135 255
-25.041831491088544 -6.571098116859247 -34.662404932165089 198 161 135 255
-26.793658607276598 -8.165989367393053 -32.488429549816374 201 155 135 255
-27.540593990282900 -7.994598976213808 -31.703647556491404 197 148 131 255
-28.202670328681648 -7.678076248702013 -31.035499976620201 188 137 120 255
-28.739311383965372 -7.140439148432847 -30.540860201225001 172 121 100 255
-29.316335122285693 -6.679137999006656 -29.989495196811419 147 99 77 255
-29.810196324765798 -6.069576711918899 -29.553442100185464 123 75 56 255
-30.958552202312660 -6.666006472394685 -28.203306055759299 84 43 25 255
-33.898562398407876 -10.594058495698420 -24.345855255130971 160 123 104 255
-36.945627732918666 -14.777134303277990 -20.329245665180224 204 162 145 255
-38.394376216749379 -16.026111115884078 -18.543039969229142 203 157 142 255
-39.108546906001521 -15.915156414390083 -17.783825892820175 201 153 139 255
-40.062746787910697 -16.266426780522295 -16.686055349407212 199 151 138 255
-40.892859321621074 -16.394103142573670 -15.760746946156758 189 142 131 255
-41.599972774958644 -16.296178242986343 -15.007051539597910 190 142 131 255
-42.345074969229870 -16.279014917836946 -14.198508200891524 182 133 123 255
-42.769117089432044 -15.647443223679858 -13.842177913655519 143 96 85 255
-43.272333181961443 -15.171493978217825 -13.373653066724330 134 87 77 255
-43.616322699069073 -14.385939687183338 -13.130220761851177 142 94 86 255
-44.315937815245519 -14.301880047600662 -12.382408474215765 175 129 124 255
-44.856089217471606 -13.908654570182080 -11.859875445289731 165 120 115 255
-45.081219952905514 -12.889881469144569 -11.784843226191782 59 10 5 255
-45.307272327850455 -11.869418109283089 -11.709100833952249 112 68 59 255
-45.885341783779864 -11.557110767544714 -11.131799297582120 153 113 101 255
-46.267718122249576 -10.851637820336748 -10.833258514391730 129 92 79 255
-46.494980528371357 -9.828977870279687 -10.756604649103423 94 66 52 255
-46.684523758023772 -8.725077372091278 -10.734605276405574 19 2 0 255
-46.759867222555684 -5.870957887842906 -11.129335752082568 3 3 0 255
-45.690411835702321 -2.112033287416693 -12.921696348422245 1 3 0 255
-49.287685505755775 -5.129580444770909 -8.501106051010765 0 2 0 255
-48.657822008320750 -0.710717669873077 -9.925294690682591 0 2 0 255
-22.481982163332816 -2.491715547472097 -39.558013317736311 182 159 128 255
-24.905328166336062 -5.243352878394887 -36.440130363037497 202 162 140 255
-26.694833500586981 -6.907279243449523 -34.200148556768710 203 158 138 255
-28.145433801196020 -7.992671383882509 -32.429047459499031 199 150 133 255
-28.888917878799361 -7.824591999925048 -31.644126800489573 188 137 120 255
-29.260365112368163 -6.988629046627750 -31.379488594652628 174 123 102 255
-29.918933313907303 -6.676258546291507 -30.711929298445682 151 101 81 255
