ply
format ascii 1.0
element vertex 650
property float x
property float y
property float z
property uchar red
property uchar green
property uchar blue
property uchar alpha
end_header
14.530712430648833 -27.343178718219789 22.732603188864630 209 164 144 255
15.210554912382349 -26.959855676357549 23.111850025673846 207 164 145 255
15.711050289442113 -26.515421258260503 23.393535924399544 205 162 143 255
16.750599507369913 -26.271694196420682 23.968254225893588 204 159 140 255
17.790522060693604 -26.034322398491241 24.543095388147123 203 157 141 255
18.830817614856613 -25.803300659335676 25.118059359612843 205 158 142 255
19.152600687354550 -25.308709635672869 25.302410984277103 206 159 143 255
19.923881765087543 -24.986187053287438 25.731042872833598 204 158 139 255
20.335866184254030 -24.531263906355719 25.964363903167055 204 157 139 255
20.747996055552534 -24.078890850759393 26.197741651079426 206 159 141 255
21.160270911178856 -23.629061406709894 26.431176139903542 205 158 140 255
21.932455966695017 -23.322124441301355 26.860129089695263 201 153 136 255
22.614956884607295 -22.984519999182552 27.240306260758089 200 153 137 255
23.027777159005552 -22.544173420541327 27.473943929307310 199 152 136 255
23.260760621435111 -22.034545679275624 27.609879394206629 197 150 134 255
23.943852843382757 -21.707196649570264 27.990273823106065 194 147 131 255
24.627184497920410 -21.383974470220664 28.370753141547041 193 146 130 255
25.310755181743275 -21.064873154429492 28.751317321797373 194 147 131 255
25.904509651675511 -20.712905241273873 29.083068138122457 197 150 132 255
25.958043392210953 -20.140991464928945 29.121477267475967 194 147 129 255
27.092635403634745 -20.019665297695795 29.746796169676372 190 143 125 255
27.326591477062465 -19.527204630986532 29.883124647386481 188 141 123 255
28.191460845957778 -19.302579350028836 30.361909101971165 185 138 120 255
27.614453698889974 -18.469742965882446 30.058053316110545 180 133 115 255
28.750122685085557 -18.366931600648996 30.683748331242199 179 132 114 255
29.164840468919522 -17.959873290868273 30.918128401320999 178 131 113 255
29.940435810262528 -17.711852665178455 31.348306795493514 176 129 111 255
29.543680839187488 -16.955945974442585 31.142358950634019 173 126 108 255
29.868509861625228 -16.515120250864598 31.327941711582966 171 124 106 255
30.734846329717215 -16.315959297529474 31.807267524359617 168 119 104 255
31.511231284853380 -16.081686959139674 32.237742426070483 169 120 105 255
31.475480893603304 -15.487399546159850 32.227684810861447 169 120 105 255
31.439700959163872 -14.892780459960406 32.217637935228083 170 121 106 255
31.855388717367816 -14.503095617153733 32.452440176279538 170 121 106 255
31.909945610078552 -13.950474924717241 32.491410188249645 169 119 102 255
31.603173915857269 -13.231636328735846 32.334492910106320 168 118 101 255
31.928713359205716 -12.803905024668396 32.520429072857567 167 117 100 255
32.796543409469251 -12.630859607763014 33.000328904542556 165 116 99 255
33.755050930457600 -12.505310964025952 33.529321833279084 161 112 95 255
33.719505172027226 -11.915747320815882 33.519479770864464 158 109 92 255
33.683924249457220 -11.325774736199151 33.509648798931067 160 108 94 255
33.467444637087851 -10.648899007378574 33.401820455888512 155 106 91 255
33.431757905987382 -10.057527558673442 33.392002736701428 151 102 87 255
33.396033564401847 -9.465713804196383 33.382196292290502 151 102 87 255
33.722194997247186 -9.049705628766887 33.568472775667601 150 103 87 255
34.591435846788670 -8.901468296999496 34.048931542536849 149 103 87 255
35.008397649400251 -8.535182459563629 34.284357515680966 148 102 86 255
35.244423292832494 -8.081384072099340 34.421777184497017 147 101 85 255
-16.604826432956997 -28.598833252910822 6.462769970673520 186 166 134 255
-15.304031487052242 -28.279833187372716 7.177137987991756 194 161 136 255
-12.657858962455578 -28.390082409681170 8.619269760217662 194 158 137 255
-10.907491734364527 -28.232996278862572 9.576577996333668 191 155 136 255
-1.614985238877296 -29.138212794707670 14.633407172708871 190 161 137 255
3.279556679744189 -30.066069856141340 17.290334415584510 194 159 141 255
5.572920128396504 -30.162389511966282 18.540250254359947 186 152 135 255
7.418247741565551 -30.122852848798459 19.547719886173979 192 157 139 255
8.186778421276415 -29.731792341737176 19.972851473755995 193 156 137 255
8.416761209423896 -29.162517453650196 20.106775761715497 194 154 136 255
7.838444311091479 -28.317863630972752 19.803741049870922 196 154 137 255
8.876986115929725 -28.028630843391269 20.374739387190601 200 155 139 255
10.185461545978001 -27.839718018709718 21.091556447595607 206 161 142 255
12.033621830583428 -27.848280095404007 22.099943746645593 202 157 136 255
13.522905964091677 -27.740680987094251 22.914243707381033 203 158 137 255
13.664208189819760 -27.160390490777644 23.000029351357256 206 161 141 255
13.715644891895977 -26.548694693409743 23.037260322433653 201 158 139 255
14.306700575023370 -26.133374116851414 23.366042444475028 200 156 137 255
16.607007511182786 -26.347313766398585 24.618174180468486 199 153 137 255
17.378723705625873 -26.010830165474076 25.044395922037396 199 153 137 255
18.240697124097920 -25.712543959329579 25.519316082578570 201 154 138 255
18.382995402435768 -25.149642368801011 25.605481277822292 202 155 139 255
19.335468120028793 -24.893728855559417 26.129186030498360 199 154 135 255
19.748099138803923 -24.437960616325356 26.361303596832514 199 154 135 255
19.980782391177172 -23.915652668512465 26.496235728212611 202 155 137 255
21.114169374101181 -23.742955016380805 27.117470687907897 200 152 134 255
21.977723058453819 -23.471860556716081 27.592945668146328 198 149 132 255
22.841581837322224 -23.205997958436427 28.068525623316702 197 150 134 255
22.624414128867187 -22.517860578126459 27.960524817906148 196 149 133 255
22.947924963326386 -22.043829537582752 28.144387320976193 195 148 132 255
23.541975295605994 -21.680265829215983 28.474248054431911 195 148 132 255
24.316550957051874 -21.393160367729166 28.901494655813920 196 149 133 255
25.001221558139832 -21.074009877991799 29.280177552745769 195 148 132 255
25.866513985875116 -20.832928990749807 29.756274332006754 195 148 130 255
26.190859488572158 -20.373550785847428 29.940464610637960 194 147 129 255
26.695761012399885 -19.991146790423784 30.222050080328643 193 146 128 255
26.930111935160653 -19.498385555952353 30.357669406593715 190 143 125 255
27.706078351938913 -19.235370276881994 30.785423334112352 187 140 122 255
27.940673390204466 -18.746987689514370 30.921149653469797 180 133 115 255
29.078236573344668 -18.646005258802290 31.543833525616904 178 131 113 255
29.493750674649817 -18.240808581358877 31.777078292711096 179 132 114 255
29.999723616835439 -17.877194884614852 32.059082269382685 179 132 114 255
29.602480154837650 -17.122371995671060 31.854096830536662 178 131 113 255
30.289336526985778 -16.841358601820104 32.233610034554928 177 130 112 255
30.795683601131969 -16.484466670643670 32.515779308449481 176 124 111 255
31.573360683000345 -16.251227776345885 32.944174567283767 173 121 108 255
31.537667170187632 -15.658009696111861 32.934147750368979 171 119 106 255
31.773204335533791 -15.186796342858031 33.070319317011538 174 122 109 255
31.918372057027995 -14.675825927169370 33.157797433950023 176 124 111 255
31.792214068805606 -14.041623911658277 33.099092596735915 177 125 111 255
31.485051385606795 -13.323322132681980 32.942906118259131 175 123 109 255
31.992131373376679 -12.979840215664623 33.225428154464851 173 121 107 255
32.680379933716665 -12.723541585056935 33.605520875009191 169 117 103 255
33.459376445959151 -12.513642892170793 34.034455454162767 166 114 99 255
33.514350165324032 -11.966747865871795 34.073398939411874 163 111 97 255
33.931528986373223 -11.591846682225025 34.307425406919862 160 110 96 255
34.167699021895857 -11.132789691568476 34.443970510882309 158 109 94 255
34.403930690845556 -10.674947912182986 34.580555737237873 157 108 94 255
34.459019891218929 -10.130739280979355 34.619623329591960 156 107 93 255
34.151629797432463 -9.410384926238962 34.463579326289363 154 107 92 255
34.841084070663612 -9.175613399953363 34.844188606774921 154 108 93 255
35.530763405033838 -8.944767998225885 35.224883295288762 152 106 91 255
36.946012931557306 -9.076931064435158 35.996038980207700 149 103 88 255
-15.990553814197426 -27.475069680789545 7.657444764759418 190 159 136 255
-13.968505477651036 -27.394034135562791 8.754692150281898 190 155 136 255
-13.921975991272689 -26.695889219990633 8.789960014538252 184 150 131 255
0.508303879491933 -29.282338167552197 16.575072930733370 193 161 142 255
1.815992009034858 -29.044683690593132 17.287408052466375 194 163 143 255
5.371896422213780 -29.564027714310797 19.207557270314226 187 158 137 255
7.310411244840253 -29.560762198040720 20.258499392505612 188 157 137 255
7.450785408189319 -28.959348665046861 20.343343353739257 190 156 137 255
7.231381719379669 -28.235886996378440 20.234933963095514 187 153 134 255
8.091590910149165 -27.883710608953450 20.706422672015378 191 151 133 255
9.042100224044106 -27.568153851788779 21.226348122130190 197 155 137 255
11.703068331481290 -27.858359423866531 22.664756425700602 199 156 139 255
13.104677680724251 -27.718831034125600 23.426703794115781 196 154 134 255
13.516367435269530 -27.234588166506327 23.657023718503936 200 155 136 255
13.117715026039178 -26.461498275827452 23.452257804953589 199 154 133 255
13.619625263398262 -26.012672532030848 23.731006568821471 195 151 133 255
15.382927245702746 -26.027878868501034 24.686848345259278 194 148 132 255
16.516139591255353 -25.821412544312309 25.304345925578090 193 147 131 255
16.838685870908790 -25.320683584913866 25.486662803765626 196 149 133 255
16.981075300686484 -24.754521021578583 25.572282916066385 194 147 129 255
18.205326330474890 -24.597310905701477 26.238467949930708 195 148 130 255
19.069343219991765 -24.310430452039412 26.711266818049836 196 149 131 255
19.753298736028597 -23.959716997682207 27.087397390839428 197 148 131 255
20.708093419818852 -23.717598058238366 27.608791453715085 193 144 127 255
21.573009396695966 -23.446175658886403 28.081904478519888 193 144 127 255
22.438229714600311 -23.179984926380826 28.555123739741418 193 146 127 255
22.581769324325961 -22.634052272138277 28.641200091429639 193 146 128 255
23.086410622241971 -22.232580880566402 28.920950823916868 192 145 127 255
23.500945046716453 -21.797999409345678 29.152354685203875 194 147 129 255
24.186510232663778 -21.475218631688222 29.529078479023823 194 148 132 255
24.782000042328377 -21.119855900527511 29.857464805351952 194 148 132 255
25.648681889469884 -20.878986806078416 30.331217871286484 193 146 130 255
26.154283919554672 -20.494332878084251 30.611340094199804 191 144 127 255
26.840780485006434 -20.187728440626444 30.988408815821543 189 142 126 255
26.894867816629272 -19.620718959834633 31.026460080461362 189 142 126 255
27.762510113935861 -19.396518534669042 31.500567337668897 186 139 123 255
28.178400395615114 -18.985845642520871 31.732516327479175 182 136 119 255
28.865707666957491 -18.693421681851930 32.109897237608649 181 134 117 255
29.281920023201707 -18.288456580956264 32.341979121243497 182 136 119 255
29.426890198399406 -17.768500303324728 32.428720309363342 182 135 118 255
29.933800405688316 -17.407000001456865 32.709378745173808 179 133 117 255
30.440878068931596 -17.048464933266189 32.990105987974800 178 130 115 255
30.857614332484360 -16.652930218247093 33.222421458352727 181 129 117 255
31.002910112856540 -16.139112416736964 33.309340984583770 180 129 116 255
31.238781934799420 -15.666563325863024 33.444782334762849 176 125 112 255
31.927508448241298 -15.399190441923409 33.822736820660097 179 127 114 255
32.073021882806160 -14.889553145865278 33.909784781004760 179 127 114 255
32.037387600045719 -14.298016548548986 33.899857900870188 180 128 113 255
32.092326702677326 -13.747713081791034 33.938453121989795 177 125 111 255
32.600380893266475 -13.406915746006206 34.219634890077870 175 123 109 255
33.380517074446885 -13.195434792217682 34.646437213319047 171 119 105 255
33.888945718575513 -12.861247823906027 34.927770418952704 168 116 102 255
33.762826877257851 -12.231141846928438 34.869488285368817 165 113 99 255
33.908705788692771 -11.728960428702933 34.956804022042121 163 114 99 255
34.054613007352316 -11.227455969942454 35.044152386047088 163 114 100 255
34.744882134858017 -10.987667998156439 35.422772870469842 163 114 100 255
34.890943281708957 -10.489134437880097 35.510213783805440 160 112 98 255
35.037030662153342 -9.991249514642135 35.597687475753460 158 110 96 255
35.455460094772008 -9.626999243649763 35.830854312527677 156 110 95 255
36.237169402293347 -9.443455866725344 36.258312750732358 153 107 92 255
37.927190812817713 -9.713208285221739 37.171491172047851 150 104 89 255
-20.951129209529483 -26.055127585590284 5.846412879733236 198 184 150 255
-20.635781453955587 -25.421809511719559 6.025159993564216 186 162 136 255
-2.311486071153439 -27.808598993571408 15.860117871505508 177 145 125 255
0.889065795842640 -28.196634349199797 17.578361820700778 194 163 143 255
5.621834938308211 -29.117807470081459 20.114266857983864 192 162 142 255
6.572972468091791 -28.786767901335509 20.631271073823044 191 161 141 255
6.443310289332885 -28.092446440901739 20.571357140390845 188 157 138 255
7.394939308020554 -27.769897923903287 21.088537973262845 189 154 135 255
9.428437392685964 -27.828812726419514 22.182986220116064 191 154 136 255
10.921802081559605 -27.710618854361812 22.989062646791751 192 155 136 255
12.325541024645247 -27.569660827381426 23.747208131335114 190 154 134 255
12.918201425773844 -27.148252359886072 24.072526673913629 191 151 133 255
12.699348583474261 -26.439112052560574 23.964889378274563 190 149 129 255
12.660832374387638 -25.794086354766947 23.953484698490627 188 146 127 255
13.704986988234708 -25.543963498517158 24.519586340092559 186 143 127 255
14.839752529554801 -25.333381869497089 25.133943900249236 187 144 128 255
16.335945121400783 -25.263516653493738 25.940973598139863 189 143 128 255
16.568858942441665 -24.730516080618088 26.074234898396412 188 142 126 255
17.163005621081680 -24.334984133726792 26.400111353763293 188 143 124 255
17.847664969206818 -23.977352789647540 26.774215217586004 187 140 122 255
19.074487846240032 -23.831108153373322 27.437325444516802 187 140 122 255
20.572754390849184 -23.796684867159271 28.245054049225189 187 139 122 255
21.168022227014092 -23.420513680589977 28.571332370680281 189 141 123 255
22.034603832691317 -23.153993405624519 29.042191198092453 188 143 124 255
21.997636296340431 -22.536529845649383 29.031439465141915 189 144 125 255
22.503056409761939 -22.134204133105825 29.309760196939592 189 143 125 255
23.189484592010501 -21.807244838949217 29.684513237664504 189 143 127 255
24.690054397846382 -21.812265072812167 30.493027933023498 190 144 128 255
25.196202380238674 -21.422590774799758 30.771619380606225 191 145 129 255
25.792988162635851 -21.072918649717735 31.098476008004440 192 145 129 255
26.118529948203900 -20.615094024079937 31.280812214639695 191 144 128 255
26.625174840763293 -20.234227687570709 31.559608904484676 189 142 126 255
26.950959787520759 -19.780810447662120 31.742057165446880 188 141 125 255
27.457911832089025 -19.405421286949434 32.020984635635543 188 141 125 255
27.965032979766107 -19.033031574638940 32.299982192788320 186 139 123 255
28.472322748286558 -18.663634598217897 32.579049857085920 187 140 124 255
28.708040136216169 -18.180622633075615 32.713504276429205 187 139 125 255
29.215616734905836 -17.816376168891551 32.992698336462098 185 137 123 255
30.176424593213881 -17.652153030919166 33.513147730182439 182 134 122 255
31.046933386991554 -17.453931316190875 33.985471777154444 181 133 121 255
31.283220552714624 -16.981165933912223 34.120179102448446 180 130 119 255
31.156927630110033 -16.348815839302617 34.061925627186397 181 131 120 255
31.211927115651832 -15.796596316234186 34.100188936116879 178 128 117 255
31.629706033681941 -15.407673454032206 34.331516709524976 179 129 118 255
31.684771735110417 -14.856961320870127 34.369847241061493 178 128 117 255
32.012019343107198 -14.430392757222577 34.553009848077792 178 127 111 255
32.157876154696197 -13.922468967495817 34.639677088707430 178 127 110 255
32.757566068743358 -13.624578352959588 34.967769608450951 177 126 109 255
33.266673908842108 -13.287998038094798 35.247658765215945 176 124 109 255
33.412769361566347 -12.784674645714020 35.334468830737279 172 120 106 255
33.195653714959803 -12.111317607669079 35.228145415461228 169 117 103 255
33.341739878348761 -11.608281573612331 35.315005657219189 166 117 100 255
34.032911665195854 -11.365302976563342 35.691705808103265 165 116 101 255
34.906028108138912 -11.213289921488183 36.165105342496432 164 115 100 255
35.052426136784788 -10.716094403772416 36.252131745211145 164 115 100 255
35.289742311485384 -10.263601733102078 36.387507026360993 161 112 98 255
35.799844691147314 -9.945282907633853 36.667882582453828 157 108 93 255
36.401030203942895 -9.674397273810499 36.996651965747290 154 105 90 255
37.275233901775522 -9.541520334716878 37.470484328128933 152 103 88 255
4.250056605055391 -28.126455533587446 20.156456261224335 197 172 152 255
2.585970210708325 -26.903312804571826 19.283159963913533 195 167 147 255
3.899492768007462 -26.694306936163429 19.988970457980173 195 165 144 255
6.296658615068907 -26.868867371147317 21.269274529734105 187 155 135 255
9.687765221149675 -27.405121169930013 23.076378653393220 188 157 137 255
10.461476585030482 -27.038536667658391 23.495601675004579 188 156 137 255
11.867652436403546 -26.901445574952319 24.250054197984412 189 155 135 255
11.648409672201268 -26.190140515618438 24.142823062108249 186 149 128 255
11.790467113132479 -25.608229030421739 24.227127332959157 184 147 128 255
12.655461306321115 -25.290593561704029 24.694584824573823 181 143 125 255
13.882269742957845 -25.110965903079446 25.353730611948805 182 140 124 255
15.290298915522527 -25.005670959833353 26.108822580481458 181 139 123 255
16.608417215763552 -24.875154190600597 26.816176083948505 182 140 124 255
16.480194092167977 -24.208713585404595 26.757140084860239 182 141 123 255
17.165894750587142 -23.849950760822665 27.129333264007556 183 139 122 255
18.575496618604376 -23.771614145570211 27.884965068110446 183 137 121 255
20.166543541417496 -23.771363840086735 28.736609110735174 182 137 121 255
20.943741766995828 -23.465019171957579 29.157085160751890 181 136 119 255
21.449691886580212 -23.057337847859046 29.433862246843574 180 134 118 255
21.593725531093270 -22.510269247258591 29.518960509037697 182 135 119 255
22.099956570403833 -22.107628385521195 29.795860918162532 183 136 120 255
23.059133518892764 -21.888806145778219 30.312566835866647 183 136 120 255
24.290357028635668 -21.785005278327603 30.973245553612358 184 137 121 255
25.069075201829435 -21.505098908313656 31.394289236285275 185 137 121 255
25.032630753108293 -20.897161476417097 31.383783928256918 186 139 123 255
25.358640372365841 -20.437945300026158 31.565156176306530 186 139 123 255
26.500477861766058 -20.318227224913954 32.178313376590793 186 139 123 255
27.098799272493153 -19.978647604024260 32.503757680839101 185 138 122 255
27.697322069069742 -19.642616543288085 32.829282643956233 182 135 119 255
27.933306933301225 -19.156846772189439 32.962951463979010 183 135 119 255
28.350763938646509 -18.749625405415159 33.192641556550768 185 138 122 255
28.677638369318714 -18.305984278025932 33.374400383410872 184 136 122 255
29.095348019970970 -17.903370707360722 33.604210307250739 184 136 122 255
30.148441217003864 -17.779030069188366 34.170101454579267 183 135 123 255
31.111130121121676 -17.621238666072912 34.688112134249977 183 135 123 255
31.347886532989264 -17.149525271333701 34.822145080107475 182 133 119 255
31.221513389795518 -16.518243162322179 34.764156002037595 183 134 120 255
31.095075215530414 -15.886094971501450 34.706174313480915 179 130 116 255
31.604394328295626 -15.538439315869837 34.984379807535561 181 132 118 255
31.568786911322121 -14.947476109038533 34.974475636606186 180 131 117 255
32.078333423288143 -14.604036397244826 35.252797183770966 181 129 114 255
32.315398517112925 -14.138755717917363 35.387072482313016 180 129 112 255
32.916117116018398 -13.842177224427587 35.713567839310457 179 127 113 255
33.244287327217535 -13.422650482569622 35.895998820650021 178 126 112 255
33.299760129108506 -12.877707902806648 35.934324653301715 175 123 109 255
32.900491796965213 -12.119521331661289 35.732389768309829 173 122 107 255
33.228761953691816 -11.702354978499216 35.914932389720335 169 120 103 255
33.739085233995098 -11.373413331441796 36.193661940175772 169 120 105 255
34.977541759667133 -11.395336965106921 36.857031334064416 167 118 103 255
35.033246375535583 -10.855428156008642 36.895563417596293 167 118 103 255
35.726152819244703 -10.623967869796203 37.270682267844862 164 115 101 255
35.964048852047711 -10.174822760425499 37.405468877918707 162 110 97 255
36.839444957619520 -10.039055898321465 37.876922805019063 159 107 94 255
37.350809849197077 -9.728815091561756 38.156110995130859 156 105 92 255
10.052483515960574 -25.747041766601214 24.038627344093015 190 158 135 255
10.918459240143221 -25.422447996062033 24.503579808894273 188 155 134 255
11.603744045669970 -25.037315266280800 24.873330997817391 182 147 128 255
12.651326656834925 -24.789094527225302 25.433815044168696 181 146 127 255
13.518217542135460 -24.480323610143927 25.899097850393787 180 144 125 255
14.928691718660133 -24.379127129801788 26.650510720099064 173 136 117 255
16.158537950094768 -24.218449248304992 27.306741312760437 178 143 124 255
17.569974241501484 -24.133699255833548 28.058478986042573 181 143 125 255
18.891312443814115 -24.022907412917164 28.762699419329778 179 138 121 255
20.122503887078580 -23.885259355512943 29.419388285657817 178 138 120 255
20.719736671075907 -23.509530402902271 29.742369128761254 174 135 117 255
20.682671071690748 -22.890042523087430 29.731542704119306 172 129 112 255
20.826902803812203 -22.341593117273803 29.816138220691272 172 129 112 255
21.243204029170897 -21.901675321229462 30.043891951487439 176 130 114 255
22.566563285116416 -21.825761638228258 30.748834119985673 177 130 114 255
23.436844396465318 -21.575660687037384 31.215347133274747 178 130 114 255
24.035252600493237 -21.220690674789623 31.538804396221266 178 130 114 255
23.998679264162917 -20.610565048297531 31.528257371756240 177 133 116 255
24.325107715772276 -20.149143381294849 31.708651949967020 178 132 116 255
25.287051378359394 -19.952176635078317 32.223252092301948 178 132 116 255
26.430904627575217 -19.836478848240375 32.833452732538547 175 128 112 255
27.121125730874212 -19.537356487467093 33.205065014297602 175 128 112 255
27.629935768630389 -19.165685667757657 33.481268842683235 179 130 115 255
28.411427350060166 -18.912770261612792 33.900808992572266 181 132 117 255
28.375493085966554 -18.314738179043871 33.890617424205175 183 134 120 255
28.521270624847403 -17.794687853015887 33.975970783523849 179 130 116 255
29.212405810056794 -17.511849887783697 34.347970398176969 182 132 121 255
30.540095820454837 -17.510783444212592 35.054472213792735 182 132 121 255
31.049966210812272 -17.158055111019081 35.331131602249854 181 132 118 255
31.105319521769530 -16.607187498053221 35.368953168024760 183 134 120 255
30.796861927320037 -15.894580045330969 35.215655006364869 180 131 117 255
31.125055319602239 -15.465348052854509 35.396886746570985 179 130 116 255
30.907432506645364 -14.791741175703379 35.291398218040484 178 129 115 255
31.326721931678634 -14.405851303374959 35.520512933735944 182 130 116 255
31.837158051640159 -14.063910697911666 35.797496793890673 182 130 116 255
32.802929225020989 -13.934148797988584 36.313601418047099 180 128 114 255
33.222717350002142 -13.557252606635998 36.542940516657794 180 128 114 255
33.460496442518860 -13.097900188823786 36.676706805949280 178 126 112 255
33.151829072300927 -12.383742727138227 36.523581104890326 176 125 110 255
33.116325333619699 -11.796380123408071 36.513930407319393 172 123 106 255
33.809721027359245 -11.554379372354873 36.886955545525808 171 122 107 255
35.050145193539009 -11.577317149328280 37.547091209500849 169 120 105 255
35.379484583226770 -11.169785942682907 37.728962081026211 169 120 105 255
35.982416050639330 -10.896141649136453 38.054424892388312 166 117 103 255
35.764880557851001 -10.226999469851862 37.949320982423245 164 112 99 255
36.368039972595142 -9.957651667836657 38.274908537250610 161 109 96 255
36.697735340589077 -9.557064155657315 38.457002177885300 159 107 94 255
9.747063142247782 -23.219350025663658 24.653392486854202 176 142 121 255
11.975282348359968 -23.411243952886394 25.827776040250157 182 150 129 255
14.929886254577411 -23.888361731802917 27.381937046062646 176 145 125 255
18.792693697058922 -24.725686161242834 29.410879579116084 182 149 129 255
19.390514385658690 -24.343207201767768 29.732051435662569 186 151 132 255
19.534799448217001 -23.790380350428038 29.816032944302847 183 147 129 255
19.316070479309445 -23.098212234679551 29.710212509154161 177 142 123 255
19.823499094034673 -22.687466118882938 29.984102472647209 172 136 118 255
20.058709147427464 -22.172968822457463 30.115659620773840 171 135 117 255
20.384805976428879 -21.695780768614043 30.294735646126739 174 135 118 255
22.073444428133911 -21.762741419669865 31.186039733196267 172 134 115 255
22.218304615725316 -21.220707864028455 31.270330359251275 170 129 111 255
22.999235034212347 -20.936352459650507 31.687070434738757 168 127 109 255
23.144287919268692 -20.397951399049688 31.771466563431318 168 129 111 255
23.743849198082074 -20.046548145801864 32.093383988377155 168 127 109 255
24.434521198873512 -19.736202763848638 32.462886389672363 167 124 107 255
25.125425786453576 -19.429952023524066 32.832481504161450 168 123 106 255
26.453161621607990 -19.394076990825440 33.534745779226014 172 125 109 255
27.144644107380657 -19.097896052889297 33.904558829873849 175 128 112 255
27.836357991888661 -18.805792480008435 34.274464554956964 175 128 112 255
27.982353086268319 -18.284629825884082 34.359314056369328 174 126 112 255
28.037374851482241 -17.725146633481842 34.396671414708578 172 124 110 255
29.002640861242412 -17.559901828140411 34.909397381191241 170 122 110 255
30.150315854624154 -17.479680385061897 35.517320979241234 175 127 115 255
30.569927521499153 -17.086686727377042 35.745037400774706 178 129 115 255
30.625376043290231 -16.535243088175221 35.782627796378151 178 129 115 255
30.316464038551004 -15.822074533708914 35.630037376132520 182 133 119 255
30.827374772225483 -15.473771871273925 35.905451773253134 178 129 115 255
31.065079016258096 -15.005302776035236 36.038256296929177 178 129 115 255
31.576262912428092 -14.662032690562299 36.313806301247098 182 130 117 255
31.814140479606465 -14.196944441495390 36.446719291171632 181 129 116 255
32.416767351207653 -13.900527276507233 36.769980236985347 181 129 115 255
33.201963742460435 -13.691804101065642 37.188484216522696 177 125 111 255
33.713802814962463 -13.360422221120729 37.464337682101359 176 124 110 255
33.860913702426359 -12.861242214966907 37.549911495281833 175 124 109 255
33.734335364441108 -12.233915626398854 37.492744943159494 174 125 108 255
33.972701316062569 -11.778498881782824 37.625980900028196 173 124 109 255
34.850023969101727 -11.628750809895152 38.092479312339350 172 123 108 255
35.179907583721047 -11.221446856659213 38.273449411758662 171 122 107 255
35.875098797658723 -10.992060859822757 38.644920492746365 168 119 105 255
35.565977284783855 -10.279125738990530 38.492715186942064 167 115 102 255
36.261427898692943 -10.054586104305500 38.864323089338455 164 112 99 255
36.500325645427353 -9.609633332916317 38.997902691079915 162 110 97 255
-36.609193120594540 -12.447033650022021 1.214027890637482 164 123 98 255
-35.114351366079546 -12.195656294909710 2.001671267388275 133 97 73 255
-34.707481236768416 -11.571463022539149 2.223485672341013 131 94 72 255
-32.758155909430315 -11.495422315136878 3.247299230944577 132 94 73 255
-30.898883636960676 -11.398760127152187 4.224166464300907 143 106 80 255
-30.763329365204442 -10.693297139202699 4.304795297802428 137 100 73 255
14.765547354495595 -22.095202008469826 28.041950630474460 188 159 142 255
17.091000333300371 -22.371465514523692 29.258654565751030 189 161 144 255
17.507999614269607 -21.919666645270411 29.483798367539350 181 154 136 255
18.288872446448295 -21.612790172909911 29.897945504334345 176 149 130 255
18.524312290668405 -21.095364743320118 30.028760955503671 174 147 126 255
19.760452825919799 -20.976918985025804 30.679305956087461 177 146 126 255
20.451127139727504 -20.647371658621068 31.046509902077943 175 142 122 255
21.233033513810113 -20.358624386582918 31.461061129781626 172 139 119 255
22.561294434709566 -20.296248948322258 32.159263478864816 171 133 114 255
23.343828716141303 -20.018426709785388 32.574049569649901 166 129 110 255
23.580343680292827 -19.520277379038234 32.705335266516357 164 125 106 255
24.363309409180602 -19.250107468728245 33.120300125463544 164 123 105 255
25.510858480465231 -19.136715588420898 33.724474767747353 163 120 103 255
26.476608978987684 -18.953501433424719 34.234227435379736 167 121 105 255
27.078237931757570 -18.621673313727399 34.554958490495721 168 122 106 255
27.315549242937834 -18.137968458902236 34.686612404596048 169 123 108 255
27.644072044820547 -17.694734700854241 34.865609364074373 165 119 104 255
28.793146395247646 -17.607935021457791 35.470360938941695 163 117 104 255
29.851435232281204 -17.488239076175461 36.027948302990893 168 120 107 255
30.636500850745705 -17.254950114176097 36.443739799003836 171 122 107 255
30.509721406798150 -16.624140615124205 36.386499955514978 174 125 110 255
30.017966269263667 -15.830532703266442 36.139999906880746 178 129 114 255
30.255958487713571 -15.359910450388881 36.272056132716003 175 126 111 255
30.767792284368710 -15.013664988153749 36.546142489309347 174 125 110 255
31.097233534800040 -14.587739268325819 36.725641655229097 177 125 113 255
31.061597287142547 -13.997341134351316 36.715854164534619 177 125 112 255
31.573777821242913 -13.657653007150031 36.990132878791414 176 124 111 255
32.634071495027314 -13.573583993620929 37.548559102071366 173 121 107 255
33.512036730346011 -13.410900870391046 38.012416226091759 172 120 106 255
33.385344172597115 -12.783952448956484 37.955489612285405 174 123 108 255
33.624078408582989 -12.327813181705963 38.088011291198100 173 124 107 255
33.954261464915561 -11.916114876534365 38.267945731919241 173 124 109 255
34.741577032825404 -11.723628907086194 38.684776665920651 172 123 108 255
34.706320079471652 -11.141769208510155 38.675362751038108 171 122 107 255
35.311111478789485 -10.867731114100877 38.997607239926495 168 119 105 255
35.184421460139987 -10.242574265519096 38.940890378524159 169 115 105 255
35.332077105810754 -9.750163401096358 39.026344224822239 169 115 105 255
35.662735857544362 -9.348100441524721 39.206618947107486 168 114 104 255
-38.281781179643502 -12.021598587908471 1.242654790009055 181 162 125 255
-36.239838306309451 -11.955646479502107 2.307783490572660 163 125 97 255
-35.196476356539137 -11.551980872202876 2.856889266914038 156 110 87 255
-34.152748766805729 -11.154671252640796 3.406131111559233 154 107 85 255
-32.926900882156900 -10.828426129939444 4.049394818157793 151 109 81 255
-31.609730437324259 -10.542229183834124 4.739761655480692 146 105 77 255
-32.201203708770919 -9.573153055826026 4.444291456365534 141 99 71 255
-31.792708429256180 -8.965529305986578 4.665314862361015 129 85 60 255
-31.293133525971001 -8.393887426675477 4.933369718373825 126 82 57 255
-30.884347385422672 -7.791616873823656 5.154536866855608 119 74 50 255
14.602156996173903 -20.305228264131472 28.700727613880588 162 144 124 255
16.932417451983014 -20.602696964530992 29.911768476565285 186 169 147 255
16.894806674821069 -19.974460206372655 29.900826168125576 178 161 138 255
17.768365125190400 -19.710094068647606 30.360046574148299 177 157 133 255
18.824492308854559 -19.524281955163701 30.913419186337791 178 156 133 255
21.977477120697358 -20.194573494751921 32.548468285760677 178 149 129 255
23.217037356151792 -20.101974266901067 33.196271044723403 173 145 126 255
23.180441198564182 -19.491854170061401 33.185763592265019 167 139 118 255
22.687812109631608 -18.692682562987414 32.940088842662817 168 136 116 255
24.749067010750309 -18.955472850010949 34.011572333222489 160 125 104 255
25.989940651998296 -18.885742321612938 34.659868343163012 157 117 101 255
26.774991483338141 -18.630465619931584 35.073057655367080 159 117 103 255
27.286506426001580 -18.263260692247101 35.345183147840174 161 117 104 255
27.706902638487406 -17.859914787514143 35.570324856213432 162 118 105 255
28.401325040631775 -17.577167944753342 35.936730509892627 161 117 104 255
29.369920343259139 -17.417459980414918 36.444441503176051 162 117 103 255
29.790853263531943 -17.023823031707664 36.669828260292945 163 116 100 255
30.029219440360464 -16.552179706162846 36.801124858878367 167 120 104 255
29.445370630404312 -15.717535902891839 36.508718434115650 170 123 107 255
29.683713395000694 -15.246052441106812 36.640074054300200 168 121 105 255
30.379102455199330 -14.980981578567878 37.006943681845598 169 121 105 255
30.983303018730851 -14.678625475512192 37.326811747943268 171 122 107 255
31.313405233311244 -14.255019414366913 37.505461125514785 171 122 107 255
30.912027652423177 -13.498483527661534 37.307319848856821 171 122 107 255
31.608033437488217 -13.244776405727990 37.674495828846688 168 119 104 255
31.572425832891611 -12.655935031972035 37.664845523521180 166 117 102 255
32.085752566966136 -12.322673879991967 37.937937899470128 170 121 106 255
32.782260400248020 -12.078162499787453 38.305356698417597 171 122 107 255
33.478989813661656 -11.837615107621048 38.672871365111604 172 123 108 255
33.992848580385214 -11.514054125483426 38.946215711226728 170 121 106 255
33.957486251071970 -10.930785755188481 38.936813139587812 169 120 105 255
34.746290521673046 -10.743381552538168 39.351713009135935 167 118 104 255
35.352156093184419 -10.471844931440799 39.672424897480028 165 113 102 255
35.591757172500564 -10.025349790433879 39.804620982755793 167 115 104 255
35.739780520574612 -9.535165905345622 39.889713990289138 167 115 104 255
-37.003646843198311 -11.841918940965016 2.804414495454921 190 159 125 255
-35.321808469554327 -11.659797706054817 3.677549297151756 191 146 119 255
-34.549367697704980 -11.166967237490510 4.083853135677685 184 140 113 255
-33.594629424741669 -10.743575278440147 4.583682396535636 183 138 109 255
-32.366467001032646 -10.423855302274035 5.223779426123343 184 139 111 255
-31.866252270292676 -9.848408834494393 5.490288723791792 179 133 107 255
-31.092678774208395 -9.375541949552129 5.897046740246424 171 125 99 255
-30.956393136927858 -8.673354458523093 5.976819964610456 153 105 82 255
-30.637877411907056 -8.039489824051898 6.150100240568719 141 93 70 255
-30.865925992601348 -7.203785195820274 6.043018443785343 128 80 57 255
-30.729555682257711 -6.503789974245663 6.122909259252850 113 68 45 255
-30.502004439192348 -5.839199756488853 6.249589856576080 100 61 37 255
-30.274384304400513 -5.176034253903254 6.376323234970130 85 52 27 255
14.622187706079814 -18.591015407430532 29.451869772639398 93 91 67 255
16.409641753857670 -18.690130261311140 30.376557754310937 167 164 137 255
18.745450814039401 -19.021518494170678 31.582191173009846 173 165 140 255
20.899464113627346 -19.292325481686007 32.694502067032616 169 159 132 255
20.131935401661593 -18.376320811673395 32.309502627648001 165 155 127 255
21.647563599682883 -18.399680676553302 33.094533572133415 170 150 124 255
23.255068263026516 -18.470034164987808 33.926553151905040 175 150 124 255
25.594091471341642 -18.856293982218091 35.133263115576085 176 140 122 255
26.014808099216253 -18.446392554104563 35.357075157825477 172 133 118 255
26.344252174005874 -18.000088702625405 35.534134449612068 164 122 108 255
26.948051848422239 -17.673019631447303 35.851733005139096 164 120 107 255
27.460610533696041 -17.310077290347380 36.122588222798598 162 118 105 255
27.973330800317683 -16.950098004365529 36.393522003587094 159 115 101 255
28.486212121826981 -16.593074885525255 36.664534422072748 160 114 98 255
29.182223844700530 -16.319406528711824 37.029315035900225 160 114 98 255
28.688943632814471 -15.523593555779598 36.785151815229383 162 115 99 255
28.653050308473013 -14.928459264832313 36.775236710644151 163 116 100 255
28.617118338887394 -14.332980018967632 36.765346277959267 162 115 99 255
29.405103270141723 -14.108783455958218 37.177246701648642 166 117 102 255
30.101777428471223 -13.847569483004449 37.542386054358431 166 117 102 255
30.981842046159272 -13.674030631111165 38.001366447798716 166 117 102 255
31.220993742642378 -13.210787853443875 38.132327513405073 165 116 101 255
30.818884731917422 -12.452092298802370 37.935175290081176 163 114 99 255
31.149666628931726 -12.032083771525663 38.113095661847368 164 115 100 255
32.213736377384294 -11.957322692980242 38.666195751292122 164 115 100 255
33.553159183228416 -12.018339962547373 39.360111247325577 165 116 101 255
33.884520100721090 -11.608851959129979 39.538301500082923 164 115 101 255
33.665768802224079 -10.938581136491237 39.435135726578054 163 114 100 255
34.272351994817512 -10.663042718950621 39.754145849907914 162 113 99 255
35.246053413147649 -10.568116277032161 40.260891675423679 165 115 104 255
35.486074205496919 -10.122121005379242 40.392431862749262 165 115 104 255
35.909678945140001 -9.767010728616498 40.617866745081344 163 113 102 255
-36.539748570584635 -11.385901519050378 3.939222410334395 197 161 128 255
-35.401659481481346 -11.018896816227894 4.529221602424883 196 151 122 255
-34.445478778702380 -10.594081497975566 5.026421374503144 196 151 122 255
-33.033127235979038 -10.338162269986725 5.756144857660615 196 150 124 255
-31.985021090285016 -9.959181950155070 6.300111307662718 194 148 122 255
-31.483754003535097 -9.387581882467231 6.565285912625598 190 143 117 255
-30.891102313386938 -8.852494485159141 6.877035391160490 179 131 108 255
-30.845644784799077 -8.118838101787546 6.909887593720924 165 117 94 255
-30.708932816136581 -7.419520000310811 6.989276778309375 157 107 84 255
-30.663447995148061 -6.686866372283717 7.022202269078292 140 93 71 255
-30.252836066354035 -6.092595791276423 7.241212314538899 124 81 58 255
-30.207278788556522 -5.361719976634916 7.274226700770271 108 71 45 255
-30.344344681966703 -4.561084284138587 7.214232545017211 96 60 34 255
-30.116156822071190 -3.900965468816040 7.340361987078353 78 54 28 255
-30.070593831265597 -3.171068187648004 7.373483560971067 65 45 18 255
24.063438872840692 -17.760971540434241 35.037863092379339 180 141 124 255
24.118510575905788 -17.193213733646800 35.074146540143730 187 145 129 255
25.821599143781441 -17.329709569879725 35.949121560224810 186 144 128 255
25.785387820852350 -16.727967803295485 35.938959105472790 180 138 122 255
25.474372669134340 -16.006960653678959 35.789017980593371 170 128 112 255
25.529645336639049 -15.443716742847556 35.825498157301865 171 130 112 255
26.684378622270884 -15.363082736936533 36.421337757787043 160 117 100 255
26.739838000509508 -14.803544592329800 36.457942400218386 158 115 98 255
27.161911115713366 -14.407187972057400 36.681060091165733 162 117 101 255
27.675780340577091 -14.054226194988800 36.950873395737915 161 115 99 255
28.831621995098601 -13.993205678515579 37.547166867035628 164 116 102 255
29.712737836441050 -13.814229672023330 38.003705172128960 164 116 102 255
30.502420937407010 -13.598506877785326 38.413722703764719 164 116 102 255
30.650196614511202 -13.092559437712367 38.497354355591895 163 115 101 255
30.430978894165492 -12.417784537368192 38.394445642926598 162 113 99 255
30.670503408189376 -11.954792419901821 38.524800990535653 160 111 96 255
32.103315574287905 -12.051119470461614 39.261729423766440 161 112 97 255
33.261201837638225 -12.026181856899200 39.858848426835308 162 113 98 255
34.144012539822626 -11.877509458213964 40.316118010017220 163 114 99 255
34.108737862582188 -11.296358428134099 40.306818996566605 161 112 98 255
34.991952891755403 -11.155034330336122 40.764277260147026 160 111 97 255
35.599841360792709 -10.885841023851299 41.081820030535098 160 108 95 255
36.483575835495827 -10.753763602462058 41.539497536262488 160 108 95 255
35.989034765483893 -9.953917680319776 41.297002222134992 158 106 93 255
-39.037749352463521 -10.666834342128553 3.557887649822192 181 175 127 255
-36.620408551323095 -10.742598684072760 4.791987025703150 197 156 122 255
-35.115115223929848 -10.509349098796051 5.563976165155196 197 152 122 255
-33.883214916170544 -10.187293428440341 6.197420837187451 198 152 125 255
-32.742210102559199 -9.839766921579653 6.784776112505426 201 152 128 255
-32.240173444985118 -9.267031082902335 7.048502847861329 196 148 126 255
-31.555262460805096 -8.764226622824452 7.404830387454581 189 141 118 255
-31.326967798968468 -8.097110850760984 7.529941635212509 180 131 109 255
-31.281374785275972 -7.363518025831851 7.562570424541065 173 122 101 255
-30.504563688450872 -6.904152691079375 7.965421539527171 161 113 91 255
-30.458833836983246 -6.173433943839228 7.998160448622428 144 99 76 255
-30.138799319484264 -5.547379384767510 8.169784371423248 128 87 63 255
-30.275916600925683 -4.748063206039561 8.110035508115516 117 78 53 255
-29.681367287905260 -4.230502100100793 8.420643737656889 94 65 39 255
-29.727000818341224 -3.467412836691253 8.407266550956422 78 55 26 255
-29.681168708156889 -2.739944768474075 8.440219540123906 62 46 16 255
-30.184426882635393 -1.796024948725702 8.195371348726013 44 35 4 255
21.391698064900027 -15.578608744946905 34.381854886002344 152 112 94 255
21.446452156290178 -15.003978961692638 34.417858717712321 164 127 108 255
22.235013463903869 -14.746790415762931 34.824834060027754 180 143 124 255
23.023831500954714 -14.494181613252763 35.231918917869791 184 147 128 255
24.730498848191445 -14.648096777755953 36.102873461743570 179 141 122 255
25.152890505385301 -14.245484114771429 36.324700466849578 173 135 116 255
26.493328029073609 -14.252654123883289 37.010451415579325 165 126 107 255
26.732514716489135 -13.775502490769227 37.139690799418659 161 120 102 255
27.706359540833574 -13.629912891298517 37.640138182901680 161 119 103 255
28.221316723494851 -13.282168868756102 37.908719960377582 162 119 103 255
30.389875566526314 -13.690296317030501 39.012638993522344 162 117 102 255
30.721690576109211 -13.269058384666252 39.188650956724103 162 116 101 255
30.869811072674224 -12.764859190362472 39.271903580562352 161 113 99 255
30.190781989441604 -11.877481646502488 38.937455750608166 161 114 97 255
31.166114202855283 -11.758529124205140 39.438550033347809 161 114 96 255
32.601470261274329 -11.861184457945129 40.171897208233844 162 115 97 255
33.393606992790779 -11.667861609249911 40.580407844316667 161 114 98 255
33.818097576641719 -11.304041891329334 40.803291599887174 160 113 97 255
34.794652268321926 -11.206662877505920 41.304879401869442 158 110 96 255
35.311485427812073 -10.893377269358282 41.574380119943726 159 107 94 255
35.920493061396485 -10.627498101135060 41.890410684191650 159 107 94 255
-39.944055904764099 -9.728775291538355 4.000955004714967 188 165 121 255
-37.522667966646537 -9.810200246883795 5.228830241621552 197 155 122 255
-35.740534134126875 -9.677782081385729 6.134922685826268 199 153 125 255
-34.232158140343273 -9.457372381385866 6.903190028902628 204 150 128 255
-33.180633926821343 -9.080238897862543 7.441549208153532 200 149 129 255
-32.311731341424576 -8.642587111581420 7.888001524456485 195 147 127 255
-31.534040769486779 -8.176480511925106 8.288547556943769 187 139 119 255
-30.847611078240135 -7.681102364708536 8.643173031802036 180 129 108 255
-30.344030065710143 -7.121406474668703 8.905824765787514 167 119 97 255
-30.023395076357446 -6.495765209112577 9.076474243626564 157 111 88 255
-30.160516947697289 -5.698242486731203 9.016947513043419 150 108 84 255
-30.022940457237183 -5.005092239034653 9.095599669629649 135 95 70 255
-29.610521173006674 -4.418737023800873 9.312473930927013 116 82 55 255
-29.747690671215508 -3.621381276454898 9.253048358717393 100 71 43 255
-29.701654827825479 -2.894951912167571 9.285778092385783 78 57 28 255
-30.113881082863287 -1.988215954378006 9.088186319397522 60 45 15 255
-31.901294792816969 -0.533190732866998 8.199433414404012 42 37 5 255
-0.600526891950381 -7.676024549573313 24.002950695105611 169 125 104 255
1.521852216589735 -7.258541950469279 25.086953003305652 151 111 90 255
21.485123769722122 -13.370554989699087 35.146871078882498 136 104 83 255
24.628558855432118 -13.568559427163137 36.741767545361270 168 132 113 255
26.614833706837800 -13.865887272821126 37.747195731591688 173 136 117 255
25.567034154980661 -12.812564221188083 37.229581896887296 168 131 114 255
26.450383537426859 -12.625514518318624 37.681347160203075 163 125 109 255
29.081930959693977 -13.238278605955898 39.010436129581066 162 121 107 255
29.966166379326324 -13.066584653833488 39.462525576071826 161 118 104 255
29.654317027992846 -12.349093612031211 39.314426951002105 162 118 104 255
29.066186351465888 -11.501610273711520 39.027787053546092 163 118 102 255
29.398425860882355 -11.079650280893730 39.202988944170841 160 115 96 255
30.467376650458988 -11.005030131193436 39.747783483807510 159 114 95 255
31.444582812818254 -10.893085779528960 40.246520033410732 159 113 97 255
32.329994142286182 -10.742989804965518 40.699185324269791 158 112 96 255
34.229101125778641 -11.082158574400779 41.660211678724721 157 111 95 255
34.193811352885461 -10.502208965534464 41.651081966299955 158 109 95 255
34.158469383419657 -9.921788104694457 41.641984939683582 157 108 94 255
-40.577193968201954 -8.884913689809011 4.583593895913566 186 160 121 255
-37.785395508872824 -9.103221798971347 5.988366007347821 200 153 125 255
-35.725392280745410 -9.075104736930186 7.027222058118184 203 150 129 255
-34.580793232296656 -8.727794148888350 7.608474805805713 200 150 131 255
-33.252548008195873 -8.454172848585969 8.281461367630925 200 149 132 255
-32.015492062930178 -8.154798437511531 8.908825718563634 193 145 125 255
-31.144653876695457 -7.726990325592979 9.353154007390174 185 134 113 255
-30.548551152441604 -7.201727381875983 9.660193281275895 174 126 104 255
-30.594098094469842 -6.438592525762459 9.646663009488520 164 119 96 255
-30.456259613884100 -5.744790925207056 9.724790628813849 158 116 92 255
-30.226664195582742 -5.086899183871040 9.848786243174942 148 108 83 255
-29.721783111047984 -4.536330031775819 10.110311884922879 130 93 67 255
-29.675525521798676 -3.810901240348599 10.142783094302104 116 83 56 255
-29.629270270680507 -3.085779392300935 10.175294968099934 95 69 42 255
-29.766596447078228 -2.288721446369223 10.116172124492152 76 56 27 255
-30.822044501477961 -1.126995437907155 9.598645852130147 53 40 11 255
-2.505782716085633 -7.030455391142482 23.807901905044531 161 153 110 255
-0.431940172705310 -7.241008571386288 24.851680906105628 170 137 105 255
-0.840525831521035 -6.408061522947847 24.656699066606137 145 118 87 255
20.935524663443090 -10.880837008586369 35.588429502679944 158 125 106 255
21.819453038376452 -10.680872605963913 36.037664332986338 164 129 111 255
28.103470826052984 -12.358945349390225 39.187492659431953 166 125 111 255
28.251737097651727 -11.848626079426154 39.269765419899315 165 123 109 255
27.293833717837316 -10.827254743381459 38.800719294337767 164 123 106 255
27.810732601818103 -10.486688891366001 39.066848131815334 163 121 102 255
29.065506239366101 -10.494526898759659 39.700712988194923 160 117 98 255
29.859534332060520 -10.292268968554268 40.104931084230074 160 117 98 255
30.377064409614064 -9.963277953780988 40.371366829090547 159 116 99 255
32.001931327485948 -10.165327800907306 41.189519886828293 157 114 97 255
