ply
format ascii 1.0
element vertex 655
property float x
property float y
property float z
property uchar red
property uchar green
property uchar blue
property uchar alpha
end_header
-11.438084507364330 -28.980668762050641 -5.327160288690635 219 186 165 255
-11.373878276229149 -28.205511783586076 -5.805625318963337 210 175 155 255
-11.356947934739146 -27.216799111593758 -6.074173803189552 201 166 146 255
-11.387075866549345 -26.012612998203167 -6.134299808061371 191 157 135 255
-11.385381636854497 -24.948567440641938 -6.336101995206889 183 151 126 255
-11.540510777961671 -23.165310665715566 -5.843923060409224 176 144 119 255
-11.741947782763653 -21.159977736733538 -5.148465522733346 166 135 107 255
-12.005134425582433 -18.858507669919675 -4.181998616930599 158 129 99 255
-12.126518649131619 -17.199012293287183 -3.844249702642372 146 119 85 255
-12.247257143899766 -15.534100701369709 -3.510717152123050 137 113 77 255
-12.398524260866147 -13.718205680995908 -3.043949187876677 132 108 72 255
-12.720238471825546 -11.093069823701910 -1.827909447777188 119 97 63 255
-13.196060384837217 -7.724879272020360 0.063536644133706 104 90 55 255
-14.089000372208226 -2.359043983646586 3.785276848932085 66 67 30 255
-14.621568877168649 -26.282237687642748 15.999735422923607 216 181 156 255
-14.108827210658866 -27.369371909928134 13.459278880500904 218 175 158 255
-13.961907938782765 -26.902162730567341 12.593414280174613 217 179 158 255
-13.941760507083764 -25.890355026815598 12.306935656889237 217 179 158 255
-13.557957611261315 -26.452728045763592 10.361328651295338 220 183 164 255
-13.159269648469156 -27.092038951834525 8.350208035165821 221 185 163 255
-12.966315346691061 -26.843764047939743 7.278551026666491 221 185 163 255
-12.757946164804714 -26.667729215862522 6.137720120548153 225 190 168 255
-12.424301336506581 -27.050149979749676 4.428306916689792 225 190 168 255
-12.013004237549559 -27.787409738421758 2.368053142735135 223 191 168 255
-11.806235448585788 -27.626408222079704 1.238945369063515 221 189 166 255
-11.443509649755747 -28.169006923266352 -0.596582481179638 215 183 162 255
-11.034810383848843 -28.930059708737986 -2.638289023482969 214 182 161 255
-10.751778967377923 -29.136702273273272 -4.108254607846249 220 186 166 255
-10.593835106643645 -28.783812995560112 -5.010469446669930 218 183 163 255
-10.529327405316373 -28.007995340518619 -5.489425421598156 208 173 153 255
-10.526798052654968 -26.947560942987906 -5.688283598104448 199 164 142 255
-10.570469885287487 -25.671240539032141 -5.678955676277155 188 154 131 255
-10.644662589909366 -24.248618688833744 -5.532688160451329 177 145 120 255
-10.718354305553298 -22.821848367785407 -5.389649434828215 171 140 112 255
-11.007344372905287 -20.383938645417089 -4.277947336543406 160 130 101 255
-11.248985475029095 -18.152341185468828 -3.381883543707517 150 121 91 255
-11.458861987007381 -16.056623787787828 -2.630871951882995 142 113 79 255
-11.575754208354674 -14.388338601954302 -2.299604192109655 134 109 74 255
-11.799222420066698 -12.205177219361985 -1.491253393286570 122 99 65 255
-12.930296583647653 -4.519390007377353 3.184964126967515 85 83 48 255
-13.586054422915446 -26.704529990000736 15.674843879204758 215 179 156 255
-13.190006255282803 -27.317719844111082 13.642784918475002 216 173 156 255
-13.090912832797876 -26.646005892880851 12.993938268685696 215 175 155 255
-13.007397395428725 -25.906511809688936 12.417776133992135 217 179 158 255
-12.613226199539362 -26.537275847968260 10.399421061911653 219 183 163 255
-12.219996332366009 -27.176678932371601 8.387800534009074 220 184 162 255
-12.059956965997095 -26.790685653380763 7.459620924977912 221 186 164 255
-11.791922694942869 -26.890969871180886 6.031886114270009 224 189 167 255
-11.462706462733486 -27.273929984373012 4.322434748378726 225 190 168 255
-11.134242032683524 -27.663823854409770 2.618388963038257 222 190 167 255
-10.898849370282612 -27.641911958297527 1.346438077174525 221 189 166 255
-10.633195410549241 -27.764380332368376 -0.063999261873022 216 184 161 255
-10.214721171034618 -28.594247054848609 -2.178181619288637 213 181 158 255
-9.919804070242854 -28.870167962342009 -3.720034164113741 217 182 160 255
-9.778443516696626 -28.445733446137126 -4.552648129772109 217 182 160 255
-9.728851967607405 -27.597971779307045 -4.962143687588821 208 173 151 255
-9.740111616448026 -26.465185438692629 -5.091745819912262 198 163 141 255
-9.811932373639323 -25.044816754165936 -4.943447154849764 189 155 131 255
-9.898445564394116 -23.548800258360473 -4.728594234849822 172 140 115 255
-10.045084758480776 -21.761367840070022 -4.238827147800151 163 132 104 255
-10.251559596941497 -19.679963900360605 -3.476136855258488 153 124 94 255
-10.578060082577942 -17.013486715894800 -2.165367380786137 144 115 85 255
-10.797566724574736 -14.842072801589524 -1.347308773966546 130 104 71 255
-11.031162044028640 -12.589697851742386 -0.466835216865036 118 94 60 255
-12.051115119044077 -5.357896294106752 3.812545228749457 88 81 48 255
-12.645817791578615 -26.720900937861217 15.786470178802915 210 180 152 255
-12.362538235276325 -26.858930172250439 14.262258679990680 209 174 151 255
-12.217647665947652 -26.389915662974346 13.394753184065053 212 174 152 255
-11.996497277445748 -26.264148802644030 12.167092427324548 215 177 154 255
-11.638403966642407 -26.758852450855443 10.293194242861716 215 179 157 255
-11.250681512515463 -27.398775718884650 8.281407172136227 217 183 161 255
-11.107312653774379 -26.944441827301887 7.425354088265806 220 186 164 255
-10.721090759830318 -27.598228369606744 5.424375144819038 225 190 168 255
-10.441967666134460 -27.775148730310661 3.930489635988835 223 188 166 255
-10.102889386969181 -28.236009197429127 2.155758791780244 224 189 167 255
-9.930894378369466 -27.936591905461910 1.169381701378228 224 188 166 255
-9.623339160643113 -28.269830294748061 -0.453739670799592 220 185 163 255
-9.376763229426835 -28.328728445334406 -1.788529857069591 219 184 162 255
-9.085569519445691 -28.603706575380698 -3.331518889744672 220 185 163 255
-8.945233346037966 -28.178375848765768 -4.164949250289396 219 183 161 255
-8.835065100617122 -27.613156556168462 -4.856330498326400 210 174 152 255
-8.859719634691750 -26.409308143755055 -4.915614958385675 200 164 142 255
-8.988649638948011 -24.703631388621289 -4.487254314739715 188 153 130 255
-9.176578360186319 -22.706127669293494 -3.784186323023675 170 139 111 255
-9.363620800019241 -20.701064513105393 -3.087004700420351 157 126 98 255
-9.564651834306261 -18.616526447052166 -2.326222124207732 148 121 89 255
-9.809299695594483 -16.307613101921334 -1.363697090834933 136 109 77 255
-10.112172741492238 -13.700064562417936 -0.131768719952390 122 97 67 255
-10.487782342691801 -10.718769167267766 1.436560331170170 107 86 54 255
-11.172206058798785 -6.196191693810079 4.439930933900968 92 86 53 255
-12.257827123420270 -25.391257095243787 18.741366323370386 188 182 139 255
-11.690385637102665 -26.804943745236500 15.825286182562479 205 174 145 255
-11.485990596518725 -26.603808384010136 14.664184109048932 205 170 146 255
-11.266917284843551 -26.474250410015202 13.433306659288405 209 171 148 255
-10.988192368832316 -26.621769098919430 11.916123148501839 211 173 150 255
-10.665097468759619 -26.980431802101265 10.186810522408223 214 178 156 255
-10.372686710026336 -27.208599337774871 8.606922848206324 215 183 160 255
-10.200474639827682 -26.891432271981671 7.606528774391023 219 185 163 255
-9.834584969938902 -27.475745884235891 5.676396418069061 221 186 164 255
-9.484487274963108 -27.998921234058912 3.824179722603787 219 184 162 255
-9.164980640241929 -28.390750934027608 2.120725031008533 220 184 162 255
-8.905613925814457 -28.510392706482833 0.707392057101231 220 184 162 255
-8.617164180572935 -28.775250867649930 -0.843889672935575 220 184 162 255
-8.388565985719460 -28.765360541372985 -2.107044779654018 220 185 163 255
-8.145660273197585 -28.830267191577121 -3.437467533556628 222 187 165 255
-8.006518457129189 -28.405534786691675 -4.270549978919547 222 186 164 255
-7.970633345965496 -27.486683033868019 -4.609782720447640 213 175 154 255
-8.022796164692458 -26.140294375820730 -4.528836373037592 199 163 141 255
-8.191926303267827 -24.219981754892530 -3.890670985441972 181 146 123 255
-8.374872513307643 -22.221045042546223 -3.188213555407373 167 136 108 255
-8.659335265884998 -19.712640495552108 -2.003864180066870 151 120 92 255
-8.840342554706112 -17.697096653999523 -1.314339213391179 139 113 80 255
-9.166269300491031 -14.952724715282017 0.062809397019237 126 99 68 255
-9.432603435736169 -12.485904860069326 1.154021804517072 109 87 56 255
-10.730658469669656 -3.665316606826309 6.962024015254116 52 56 22 255
-10.676118805683942 -27.159562427273045 15.572568378372438 203 169 142 255
-10.429655433242864 -27.162990656908590 14.193890631772177 203 166 143 255
-10.242776808538004 -26.898939861519949 13.109117528188023 205 167 144 255
-10.026722371234193 -26.774530761355322 11.881995919797561 207 169 146 255
-9.634425295564533 -27.475991563028970 9.791431751606467 212 176 154 255
-9.419485126285814 -27.362023091604499 8.572451558203483 214 182 159 255
-9.190285568691124 -27.320916745713760 7.284668232865329 218 184 162 255
-8.873655568196149 -27.698992047640559 5.570032149779507 216 181 159 255
-8.528529183807684 -28.222699445394511 3.717714559521653 213 178 156 255
-8.198853793708061 -28.684633509545648 1.942846085488981 214 178 156 255
-7.986592637209505 -28.595721136986299 0.743403672124373 215 178 156 255
-7.658330868816627 -29.070673063366257 -1.021316256794734 216 180 158 255
-7.447098444947450 -28.991363760834616 -2.213270772737758 220 184 162 255
-7.221780934283267 -28.986420177163950 -3.472857397139165 224 188 166 255
-7.112769308540926 -28.420813284513883 -4.164666616518701 221 183 162 255
-7.076117363345581 -27.501952880762730 -4.503825722096565 211 170 150 255
-7.169188605821816 -25.942413049009673 -4.211974599462621 193 155 134 255
-7.362516208525818 -23.878976370526487 -3.433692721272024 175 140 116 255
-7.540528477174441 -21.879034037762324 -2.731512905955583 161 127 100 255
-7.832527871832610 -19.297959543510842 -1.477502841571948 144 114 86 255
-8.094587720549342 -16.849738051691105 -0.371130867221666 128 101 71 255
-8.469957963228019 -13.814422432238132 1.282426566712729 109 84 52 255
-8.958058138430282 -10.186901388805154 3.479187432303746 90 72 42 255
-10.418303641875909 -25.154802625726518 19.259120905639719 202 175 141 255
-9.737190130460007 -27.175988899355559 15.684101327608943 202 167 140 255
-9.421112890089645 -27.518581082502664 13.941340699949905 200 164 140 255
-9.178280826920151 -27.527789077628768 12.566853544497576 205 164 142 255
-9.008333298561830 -27.200407886055842 11.558142611932993 204 166 143 255
-8.679692439971838 -27.629068253365006 9.756846646275022 211 176 154 255
-8.395131950173372 -27.858976904711994 8.177512284314389 211 179 156 255
-8.111227122230254 -28.094962993002213 6.602916258540489 217 183 161 255
-7.856736179712293 -28.198766267967102 5.176543598479128 213 178 156 255
-7.516678477049595 -28.723860849122588 3.324791291753172 211 176 154 255
-7.249124125267670 -28.908955315494552 1.836157227819825 212 176 154 255
-7.082324505331172 -28.611303860026510 0.850631631193465 211 175 153 255
-6.815823019100876 -28.806213609091117 -0.630349211506484 214 176 155 255
-6.606965643119700 -28.725985834747121 -1.823279482335835 219 181 160 255
-6.412761692417050 -28.579295688458330 -2.942385880809780 223 185 164 255
-6.289978215868778 -28.083002300925614 -3.705856296165791 216 178 157 255
-6.280810100163684 -27.021389355240359 -3.904949950421383 207 165 145 255
-6.370516595797632 -25.460389819099703 -3.613900300913798 187 149 126 255
-6.572727867735502 -23.324260550734408 -2.766117013142292 167 130 107 255
-6.703394706221495 -21.537109966081857 -2.274450713245983 152 118 91 255
-6.974213047283122 -19.026759767394111 -1.090208343471261 132 102 74 255
-7.300069832789269 -16.218248249408333 0.364146636900387 108 83 52 255
-7.905323175482799 -11.955125775518439 3.197253553512297 90 67 36 255
-8.798163926591961 -27.192443585360820 15.795666829131534 201 165 139 255
-8.386669328624698 -28.009840612257562 13.542956325227749 201 162 140 255
-8.090094103885654 -28.292698096231931 11.878832186544486 204 163 141 255
-8.007295867989932 -27.557987797597292 11.306378672852674 208 170 147 255
-7.683402971571390 -27.987612322726477 9.505347044101853 211 176 154 255
-7.416937476461491 -28.149800843480762 7.998480498923669 211 179 156 255
-7.023886209618119 -28.937851123001849 5.848553936078503 217 183 161 255
-6.801180688265042 -28.905886389853492 4.567319923724028 214 179 157 255
-6.508518080669432 -29.224990760891870 2.931455818950838 212 177 155 255
-6.343105387275806 -28.924623928353554 1.943636849110760 211 175 153 255
-6.177966221985521 -28.626921877415896 0.957896968814026 212 174 153 255
-5.943040922129072 -28.681788017421155 -0.381305193480785 215 175 155 255
-5.750595558743832 -28.530875507365067 -1.503935971095075 218 179 158 255
-5.614377351872285 -28.101856742790204 -2.340715683479488 220 181 160 255
-5.520157585805165 -27.462792431107005 -2.964248520267262 214 173 153 255
-5.495550513722812 -26.470095081791527 -3.235143147891989 204 160 141 255
-5.581868442359010 -24.907423223252408 -2.945060648768845 183 143 120 255
-5.778532153046385 -22.769658993055714 -2.097988374914451 161 125 99 255
-6.001904120862555 -20.480531332118005 -1.117580317976262 143 109 82 255
-6.224202018070983 -18.182139408852322 -0.144387409244956 121 91 63 255
-6.624757265627018 -14.939778269319334 1.726554427836362 101 76 46 255
-7.354103489672404 -9.951884622779659 5.252679679496765 88 67 36 255
-8.410500661778066 -3.203116606342576 10.422035812476651 43 39 8 255
-8.293439770913004 -26.266760257692027 18.314745896920641 202 168 137 255
-7.746987799562127 -27.749927672613154 15.323488679231019 201 165 139 255
-7.341932918131995 -28.568901891721595 13.071349863414639 203 162 141 255
-7.063595150203660 -28.785321951063651 11.480693188428660 200 159 137 255
-6.883455737746054 -28.529949889855743 10.402077537851028 206 168 145 255
-6.647992302657180 -28.551581440006146 9.036643867132540 207 171 149 255
-6.399154316396057 -28.646701182449021 7.602809409422377 211 178 155 255
-6.081564858149981 -29.091582426372156 5.813184039829736 217 183 161 255
-5.833969951471396 -29.198218063496284 4.388327995174023 214 179 157 255
-5.559308885743228 -29.448749259339479 2.824266771474470 217 182 160 255
-5.409418815551867 -29.079424478068972 1.908206494244297 215 179 157 255
-5.135860520878012 -29.340196904303070 0.352130171488113 214 177 156 255
-5.000382455906824 -28.907295692084517 -0.487798167146963 216 175 155 255
-4.755341160842200 -29.037721974251042 -1.894104223071878 218 177 157 255
-4.702577172899417 -28.187741873553108 -2.305021578487327 218 177 157 255
-4.554017208069489 -27.831330175182529 -3.211007424258725 211 168 149 255
-4.569431422243980 -26.627209407390694 -3.269537547731630 201 157 138 255
-4.720708888662308 -24.709785171028898 -2.627213872740469 182 141 117 255
-4.993528703800997 -22.143915976740175 -1.359163796090456 158 122 96 255
-5.251509488488345 -19.638541752934827 -0.169638223934328 137 104 76 255
-5.494724005480087 -17.194306816287991 0.941864850666491 119 90 60 255
-5.926115362197216 -13.733414095928680 3.020512736291522 100 75 44 255
-6.828180708112392 -7.732618642401803 7.518375988008529 91 70 39 255
-7.901903648887931 -0.760637858716962 12.893153332686637 13 13 0 255
-7.030943535128422 -27.833764564029906 16.744273790762122 202 167 140 255
-6.658835364726350 -28.510225353219084 14.631816234215790 205 165 140 255
-6.287718453952323 -29.195750643527219 12.526424509170653 207 166 144 255
-5.999725123373089 -29.482053443429152 10.864124892087375 200 162 139 255
-5.835416473274577 -29.160501346479862 9.859432876229192 182 146 122 255
-5.589536773170273 -29.252457554675743 8.422785647665734 195 157 136 255
-5.289752788688894 -29.624392582112961 6.701524736384243 218 182 160 255
-5.004315562953913 -29.934357402823338 5.057673106826201 219 183 161 255
-4.855267137181265 -29.559662305986336 4.137276672954528 217 181 159 255
-4.652268304397268 -29.464522969594526 2.931936764717108 217 181 159 255
-4.463208744828925 -29.303785108917936 1.801178967131392 217 181 159 255
-4.166553900104709 -29.704626568603743 0.102454142446078 216 180 158 255
-3.964959515117762 -29.622608723430716 -1.092654289145173 217 179 156 255
-3.750338705527490 -29.614724551002439 -2.355689479497585 215 177 154 255
-3.724117617235343 -28.625645458299289 -2.623552738919869 217 176 154 255
-3.630694822090838 -27.988025345499494 -3.246026880917242 208 166 144 255
-3.671062213456054 -26.642694556860391 -3.163005855434903 197 155 133 255
-3.857847779351012 -24.512215092823027 -2.309134753393664 181 142 116 255
-4.163601655450101 -21.732052430276354 -0.830246533057590 158 124 96 255
-4.481249298575996 -18.868170425009708 0.709105218607647 139 108 76 255
-4.744324661800427 -16.278325119067659 1.959213279203539 118 88 52 255
-5.138682848853897 -12.958600052685199 3.897544290997956 103 76 43 255
-5.888518859988032 -7.676824426646164 7.700792893891048 91 69 38 255
-6.390893237787701 -27.519002124059455 18.609392166058086 197 173 139 255
-5.767303072780415 -29.467979267055313 15.099151706111940 203 170 142 255
-5.509210654590028 -29.608524951786507 13.574287303800958 206 169 143 255
-5.224840895962735 -29.890372529803216 11.908083392030647 209 168 146 255
-4.994848600972318 -29.906546936247310 10.537759022848519 201 163 140 255
-4.792157311945083 -29.790998289668778 9.316243427011671 173 137 113 255
-4.563142640644379 -29.816328945219766 7.953058891483209 213 177 155 255
-4.227873066546785 -30.395930297122220 6.015985661592680 221 186 164 255
-4.013401423617275 -30.363662583393278 4.733647857181126 221 186 164 255
-3.799396854968883 -30.335764617102882 3.454717428246909 219 184 162 255
-3.625681584692323 -30.104261147897688 2.394307211676704 217 182 160 255
-3.465539920607839 -29.806309371777331 1.407845318899206 218 183 161 255
-3.199869041904826 -30.069045023841255 -0.147505904881257 219 183 161 255
-3.066876394751411 -29.638201202691761 -0.986067725616778 219 181 160 255
-2.854999857296583 -29.630250531141684 -2.249443525024958 216 178 157 255
-2.840894987314414 -28.570777446963831 -2.446326477029316 215 174 154 255
-2.721504145777097 -28.074133617203074 -3.210430140744251 205 162 143 255
-2.733299575656908 -26.870679756496742 -3.268052963427635 195 152 133 255
-2.914801706952517 -24.740914947873250 -2.413062088634490 179 139 113 255
-3.225899724199202 -21.890261802826188 -0.862559158948130 158 124 96 255
-3.522509304222332 -19.098387710000765 0.608025210090375 142 112 79 255
-3.713642071446166 -16.867652412300998 1.510071772030500 129 99 63 255
-4.072553823001243 -13.693555674919281 3.311447700112467 115 89 54 255
-4.818632267889065 -8.342085899264987 7.187896115577445 104 83 52 255
-5.314142371368142 -28.207531885398282 17.987688277353953 201 173 142 255
-4.728076523103176 -30.023640832368528 14.624277873290765 204 172 145 255
-4.486917932246087 -30.098202856746383 13.173376669350688 208 172 146 255
-4.246319584724191 -30.177980294425367 11.726541969922437 210 170 148 255
-4.032578126716409 -30.126897865993442 10.429245419450268 194 158 134 255
-3.793054179415947 -30.216683698244594 8.990214429361401 191 157 132 255
-3.540992591814941 -30.380156060774112 7.482851700996235 224 189 167 255
-3.224162915539132 -30.892676897475525 5.618716015254449 222 187 165 255
-3.012599625048317 -30.861837522051104 4.337202772207178 222 187 165 255
-2.801504297796797 -30.835367990845043 3.059096887892906 220 185 163 255
-2.707910128978355 -30.189382126490386 2.430023566759587 219 184 162 255
-2.471576821512578 -30.308802897066386 1.014098444574586 219 184 162 255
-2.326497869348238 -29.945215852215597 0.102071694138260 220 185 163 255
-2.116991571525254 -29.933676724199103 -1.164391267180889 220 182 161 255
-2.037029245800412 -29.224762832660332 -1.716737896106537 217 179 158 255
-1.957056736113842 -28.515956836930911 -2.268998112515021 215 174 154 255
-1.877074547614278 -27.807260736790823 -2.821170387629934 207 164 145 255
-1.886928369950155 -26.602967722365719 -2.879253196054748 197 154 135 255
-2.011734544552695 -24.756540534108495 -2.305926266409386 183 144 118 255
-2.263629687860778 -22.190978731274157 -1.035437019069519 163 129 101 255
-2.437687483341342 -20.043175912719875 -0.193932620190395 146 116 83 255
-2.636251144438909 -17.743624571746125 0.780834100336989 134 104 68 255
-2.884605474474021 -15.147284752556970 2.027350075288666 121 95 61 255
-4.846043713069932 -26.960354657279339 20.888289038267743 199 187 150 255
-4.203796526320666 -29.097527901261202 17.145069503758151 206 175 147 255
-3.796693961805140 -30.040115961427460 14.735057350084276 209 177 151 255
-3.532959564539375 -30.249812035795799 13.137549506041267 212 176 150 255
-3.347292649221210 -30.058659654131873 11.982378293194415 211 173 150 255
-3.097607011790267 -30.211182813217420 10.466105580145950 196 161 136 255
-2.732849388674857 -30.983580621260387 8.300828785573714 215 183 158 255
-2.471772365029757 -31.217784059516617 6.722426952714414 223 188 166 255
-2.313799532443774 -30.908663985734279 5.726903512476071 225 190 168 255
-2.143321047332925 -30.671091449611055 4.661353070728353 225 190 168 255
-1.922137391211557 -30.713016758976323 3.310472759685013 223 188 166 255
-1.790604760788327 -30.274528226484705 2.465710876883463 221 186 164 255
-1.608416218535758 -30.115968162128524 1.335954570130781 220 185 163 255
-1.439287224917912 -29.891184875496236 0.280378575197943 222 186 164 255
-1.257823824847712 -29.739452908384550 -0.844052927973308 219 181 160 255
-1.177832563357391 -29.029880334671986 -1.396917526309664 217 179 158 255
-1.059993082927264 -28.531567780512688 -2.162503936381228 217 176 156 255
-0.992645109564130 -27.752256588375559 -2.643925154161593 210 167 148 255
-0.988065054283354 -26.618576351979726 -2.772571976936945 200 157 138 255
-1.146218344568901 -24.559134112284028 -1.987439047826996 188 148 123 255
-1.290932520228488 -22.562937645158144 -1.278801706539468 167 132 104 255
-1.397295015926012 -20.773532627803178 -0.786367900465649 152 122 89 255
-1.565271122785333 -18.619528518439807 0.050869653597857 141 111 75 255
-1.757166642232669 -16.313362262662906 1.021103907716309 126 100 66 255
-3.743409501324273 -27.780739216292375 20.117731801485633 206 182 151 255
-3.240140949833361 -29.248517683752397 17.109770123630426 209 179 153 255
-2.801838575518126 -30.393555893188704 14.479369957520674 214 182 156 255
-2.529385859254120 -30.671835798029576 12.809093392931516 216 182 155 255
-2.333427440370706 -30.549723796046948 11.581679686657395 216 180 156 255
-2.137887673849114 -30.431546335195151 10.357334197050051 214 180 155 255
-1.779184563221555 -31.204461403632621 8.191831129733799 219 187 162 255
-1.484322373229830 -31.644590166412911 6.396061419237952 224 192 169 255
-1.353222896921622 -31.199364678915913 5.545925262419075 225 193 170 255
-1.209792908748213 -30.824827146139882 4.625063807977511 224 192 169 255
-1.066592182961998 -30.452522969337338 3.705944838530939 222 190 167 255
-0.898695107922272 -30.221076798195583 2.644969328300846 219 187 164 255
-0.706246516090069 -30.131772264537005 1.443137407777584 219 187 164 255
-0.514221206617115 -30.046415344462787 0.244383558090561 223 188 166 255
-0.347401558139062 -29.825103003162440 -0.808689343285494 221 183 164 255
-0.292211733294081 -28.975395206757270 -1.219136720867567 219 181 162 255
-0.187546331019341 -28.406458647295949 -1.914035782113046 216 175 157 255
-0.144563123772095 -27.485522891270762 -2.254171993985977 209 166 149 255
-0.162901617589142 -26.209388105628960 -2.242038535462683 198 155 138 255
-0.254471849608116 -24.503835883410574 -1.809658507012017 187 148 123 255
-0.345361857434163 -22.792425753027459 -1.381840593484156 171 136 108 255
-0.398904691397213 -21.289499755718765 -1.168992754172905 156 126 92 255
-0.586094731048725 -18.993747144387100 -0.190027650798328 144 114 78 255
-0.784394905737592 -16.616861288984524 0.851528784792833 129 103 68 255
-1.236737961207105 -12.716485866740896 3.347948542518225 116 92 61 255
-2.341770464565016 -4.893319843796348 9.581355076100778 97 85 55 255
0.485976932531578 -0.898838428117813 -8.249522506298518 144 108 86 255
0.709153399121561 -1.081123263498455 -9.617104042366776 185 152 129 255
-2.771760800491855 -27.931487008542518 20.083079883959357 213 179 157 255
-2.240194961371493 -29.601021450878875 16.853876496108484 216 181 161 255
-1.809614885069159 -30.746975655525119 14.223390416691899 217 183 161 255
-1.504215193254538 -31.229023666533351 12.333951684558826 215 183 160 255
-1.310915353132735 -31.108560742012003 11.107563354070408 217 182 160 255
-1.105698254653980 -31.060056573473219 9.811411537101009 216 184 161 255
-0.827071955548455 -31.425344480050825 8.082672384296501 224 192 169 255
-0.536913906568309 -31.866015376359343 6.286837795797339 227 195 172 255
-0.443799512033699 -31.215397613765674 5.654050371359858 226 194 173 255
-0.289518450519346 -30.909697836100634 4.660844877411648 225 193 172 255
-0.159949306251214 -30.468473092753698 3.813712632713163 222 190 169 255
0.091364806088542 -30.722122713438011 2.249667782997363 219 187 166 255
0.232496402009424 -30.356172724581313 1.335357712531930 221 189 167 255
0.397685563348325 -30.131929275530268 0.279795237197220 223 188 168 255
0.526184305127927 -29.700938286821184 -0.559354622691330 220 184 163 255
0.654498314842400 -29.271762295490674 -1.397088238566738 219 181 161 255
0.770554548137973 -28.774028477084158 -2.162404029188735 214 175 155 255
0.838279161125797 -27.995334069554787 -2.643297852960245 210 168 149 255
0.797838045770796 -26.579112270056129 -2.488425802609271 195 154 135 255
0.697881765481988 -24.803662369476399 -1.984281412975832 186 146 122 255
0.598652430852262 -23.021927700620012 -1.485031873840825 173 136 110 255
0.536006494600890 -21.448236311241459 -1.201181274178651 163 129 101 255
0.366588313122200 -19.224653070794176 -0.291198628472330 148 117 86 255
0.150567889969338 -16.704763394559052 0.891249182039900 133 107 74 255
-0.254327748038584 -13.021036325744092 3.180216635892890 122 97 66 255
-1.048496875694518 -6.934235871780970 7.749307376681287 109 92 63 255
1.391716755495679 -0.762916319834915 -8.006113144111993 152 117 95 255
1.668749688346757 -1.325336339950525 -9.707023754550079 180 149 124 255
-1.715817785087999 -28.550891687197407 19.532447806916394 214 182 160 255
-1.230721360946866 -30.020668123305626 16.524159335888044 217 182 163 255
-0.807888320387320 -31.167753007240719 13.893754558348206 218 184 163 255
-0.580219568895721 -31.245429790308350 12.443901325609062 217 185 162 255
-0.365205490541186 -31.260517076623813 11.071145110079158 217 185 162 255
-0.198974278798495 -31.008316894160942 9.993578704952540 224 192 169 255
0.087357074309459 -31.441530219425346 8.191443697837514 229 197 174 255
0.312789855255282 -31.539867642431602 6.757698010171282 230 198 175 255
0.477683683319114 -31.300123882148398 5.689844061923708 229 197 176 255
0.654221190578745 -31.132341351355535 4.552199871759143 228 196 175 255
0.818436865558411 -30.898986561068057 3.489328316512200 225 193 172 255
1.006169584104263 -30.807325728358649 2.285137676689288 222 190 169 255
1.145884182961709 -30.441549312343227 1.370816186506801 224 192 171 255
1.297240420880904 -30.147740982711184 0.386709663980554 224 190 169 255
1.412764286204059 -29.646772383859599 -0.381220653622648 221 185 163 255
1.539976879189531 -29.217348135745596 -1.219266229216231 217 181 159 255
1.655201042454713 -28.719371033589056 -1.984861778229231 213 175 154 255
1.758508408425463 -28.152202251786150 -2.678505082885124 208 167 147 255
1.744182657717985 -26.878032820193397 -2.664395928801952 195 154 134 255
1.648135032906815 -25.103492354330712 -2.159121981446390 181 143 120 255
1.552812932328848 -23.322667029616639 -1.658743105410082 171 134 108 255
1.481580153990677 -21.678433920446992 -1.303658643356329 163 129 101 255
1.364343705291667 -19.742175393111665 -0.672659986023689 149 118 87 255
1.119953601170543 -17.008291433269648 0.721341646476702 138 112 79 255
0.737592911850143 -13.397672222443674 2.942568852666312 129 103 72 255
0.229712767986193 -8.974937295572516 5.915508978766439 113 94 65 255
2.332121080208246 -0.854793475293661 -7.962677466624655 177 143 119 255
2.615627109016259 -1.493457839922996 -9.730533098150204 188 157 132 255
2.731325068023288 -0.994922086066424 -10.496520806463650 156 134 105 255
-1.237692736198731 -27.179058357706424 22.591364661231495 216 187 160 255
-0.617012213188538 -29.438016532059777 18.686346843326959 216 184 164 255
-0.248211822011662 -30.305965953049906 16.341209356922633 220 183 164 255
0.095712802315454 -31.049516502157076 14.150928471487333 219 185 164 255
0.355684297717254 -31.329451454676530 12.480651125746533 217 185 164 255
0.591306499473106 -31.480284445992510 10.961565571712953 217 185 164 255
0.814518926908434 -31.568748537515262 9.519777225220736 221 189 168 255
1.037165144684046 -31.662432287874338 8.082058115223703 228 196 175 255
1.224000206099177 -31.556010661507884 6.866097734631182 231 199 178 255
1.398687859140807 -31.384873245892265 5.725605747760596 229 197 176 255
1.572999727088423 -31.217250234190772 4.587854155179485 228 196 175 255
1.746935303708248 -31.053143333876989 3.452844254340988 226 194 173 255
1.862233586580686 -30.546068708090303 2.680060500401481 224 192 171 255
2.035535145618155 -30.387930642367053 1.549705304719481 225 193 172 255
2.208458929749938 -30.233313554283200 0.422095494200533 225 191 170 255
2.392584503744438 -30.152156823810259 -0.774165149809733 221 185 163 255
2.495391044189041 -29.583890489968525 -1.468729160412693 217 181 159 255
2.575042569216201 -28.875856912291766 -2.020412094621804 212 174 153 255
2.654698746722282 -28.167934001571666 -2.572007004909324 207 166 146 255
2.653971346488582 -26.964580015859951 -2.628389246391095 196 155 135 255
2.573364438126347 -25.261315080344872 -2.193049420756893 184 144 121 255
2.459125818019267 -23.338535780965174 -1.551074307447038 171 135 109 255
2.391354584433849 -21.694350048042168 -1.195589084951706 161 127 99 255
2.290046942193626 -19.829803282636277 -0.634128273011754 154 123 92 255
2.121327204091891 -17.527403062758196 0.341517132024393 145 116 84 255
1.862947834422421 -14.639170680554258 1.867828319988234 132 105 74 255
1.413643040041130 -10.509427224788539 4.566937770712428 121 99 69 255
0.413301670954944 -2.807360988790265 10.651254750071928 95 88 57 255
3.282943737576431 -1.022621547344500 -7.986004856857079 190 158 133 255
3.517941816874654 -1.357154198587921 -9.487784985389254 180 151 125 255
3.600230194600861 -0.629185654638775 -10.054959397065886 161 141 112 255
-0.110005035322281 -28.196989328980806 21.595895588950128 221 189 166 255
0.311784990836081 -29.387877910999720 18.872096990081701 219 186 167 255
0.650844200467013 -30.121172568330678 16.673193249967426 219 184 164 255
0.965663677084542 -30.729222651622450 14.628543926351625 218 184 164 255
1.256386661604232 -31.210745989002532 12.737149876507544 216 184 163 255
1.557805510673866 -31.767848422487504 10.778727782148110 216 184 163 255
1.743064924722717 -31.653065097437121 9.555988079559455 220 188 167 255
1.996911429662426 -31.951560292576914 7.899748751103886 229 197 176 255
2.112313624160244 -31.435310786624996 7.119718731208678 229 197 176 255
2.330663096948115 -31.538296937539684 5.688906718721029 228 196 175 255
2.491295196946616 -31.302183065046790 4.623476683569550 228 196 175 255
2.674409550864631 -31.207315278195608 3.416264704457689 227 195 174 255
2.743280796279329 -30.423469638553712 2.931416683500231 224 192 171 255
2.914425535938108 -30.264851412946882 1.800455333007193 224 192 171 255
3.107859110411177 -30.249193602700302 0.529047744491578 225 191 171 255
3.312127292577962 -30.307846008539514 -0.810376989677934 221 185 163 255
3.380443124943845 -29.529542941847694 -1.290899221568907 216 180 158 255
3.426287590248201 -28.610201100096617 -1.629474387849058 211 173 152 255
3.472279738580120 -27.689689160027513 -1.968959582417853 203 162 142 255
3.484778035636211 -26.555647780577686 -2.097061049276704 191 150 130 255
3.441618756428291 -25.064157131626018 -1.874078300686108 182 141 119 255
3.387824386491836 -23.496874966714586 -1.584229149839530 169 132 106 255
3.334608230124381 -21.924591589718517 -1.298275188086791 162 127 99 255
3.248616889469019 -20.132388014533433 -0.805917054639423 157 124 93 255
3.118972406334827 -18.046493800332030 -0.038715200560347 148 119 87 255
2.912753587727828 -15.448151765593281 1.210639148389703 137 110 78 255
2.553144863067175 -11.826925523165471 3.425864178622561 130 105 77 255
1.677440932343778 -4.781578709970972 8.891324542270041 106 92 63 255
4.328472298709187 -1.873576641709292 -8.610442201853772 186 156 130 255
4.548745075402010 -2.134260888683627 -10.044248225231570 170 144 117 255
4.577775136738218 -1.026789723273282 -10.277530440535685 157 139 109 255
0.651806396451143 -28.365880983182535 22.960828452489153 220 195 164 255
1.078021527537310 -29.615129667736937 20.155723771482627 220 189 167 255
1.389058086468950 -30.207936395820383 18.098620203227256 220 186 167 255
1.619687790664450 -30.339331842211692 16.563635928539640 219 184 164 255
1.928993897416078 -30.947911771233152 14.518827079493889 217 184 164 255
2.192137175312368 -31.294820314258686 12.773925236217963 215 183 163 255
2.420683955834846 -31.445283310616560 11.253804462169484 214 182 162 255
2.671125775651447 -31.737402409102373 9.592164432348795 218 185 165 255
2.932086965792273 -32.104243372731048 7.862799780216278 228 195 175 255
3.125043940076750 -32.067420756094407 6.574601177329100 229 197 176 255
3.317527774255318 -32.034966082544315 5.289807886104285 228 196 175 255
3.453741296706362 -31.662580366770641 4.369891118741094 227 195 174 255
3.589720570939072 -31.292428579389878 3.451716765887454 226 194 173 255
3.692131050948724 -30.716650062625263 2.751169182357756 224 192 171 255
3.860974583199059 -30.558834352085995 1.620601097318200 224 192 171 255
4.051565374239026 -30.543969553908312 0.349522419531411 225 192 171 255
4.241680235854389 -30.533481877371088 -0.918143979252704 225 189 167 255
4.354210876951456 -30.036378795525138 -1.683330876556653 217 181 159 255
4.400652111049979 -29.118532794177298 -2.020660228509797 209 171 150 255
4.414337657470192 -27.987809630660820 -2.146012443025853 199 158 138 255
4.406426482509886 -26.713072876151671 -2.131678826404851 186 145 125 255
4.377062152999009 -25.293044515041572 -1.978655199636080 178 137 115 255
4.326388239813852 -23.726446912286150 -1.687937082264597 168 129 104 255
4.265419756514433 -22.083425438061653 -1.330817007504550 161 126 98 255
4.194228288867293 -20.363343203479360 -0.907791230568108 159 127 96 255
4.080415069871002 -18.350015855020672 -0.209461086563010 152 123 91 255
3.924267637341849 -16.040887672806576 0.762182071210844 142 113 83 255
3.585992551091756 -12.493820104542522 2.910371954530490 122 97 67 255
2.894789703072412 -6.538124170994820 7.338105689839807 110 91 63 255
5.067913817680100 -1.861752728175702 -7.262867606127230 167 137 109 255
5.337005391493364 -2.496803688527393 -9.035094164654367 179 148 120 255
5.532820624277072 -2.606905226404308 -10.334710656895851 162 135 108 255
5.552665325998952 -1.424404819475455 -10.500371375809436 150 131 101 255
1.848326513833612 -29.846012294270054 21.442649488927401 222 196 168 255
2.199098868633662 -30.699508675558235 19.084187868733153 219 188 167 255
2.348847513591473 -30.358598786214600 18.062656112001889 221 186 167 255
2.531559143182555 -30.221766424996162 16.822208615281596 217 185 164 255
2.813357799595074 -30.695090370157203 14.923392386248480 216 184 163 255
3.028105097329764 -30.770762118681830 13.470597108543359 215 182 162 255
3.264301964464828 -30.987223515855362 11.875550473613828 213 180 160 255
3.466880106346906 -31.005758734569127 10.504216370277675 216 183 163 255
3.789506401587758 -31.779440519569562 8.335533526473341 227 194 174 255
4.012652093713157 -31.946770457303842 6.828187370739727 228 195 176 255
4.246092805613046 -32.188392872342547 5.252753408916078 227 195 174 255
4.402644760171682 -31.954107907888954 4.188341800016900 226 194 173 255
4.526270720984819 -31.515704751820209 3.342817649157240 226 194 173 255
4.660549920809792 -31.148392794550290 2.426711131172482 224 192 171 255
4.805410008173041 -30.852814952608384 1.440523188673779 224 192 171 255
4.982364676773443 -30.769033912902785 0.241434180081939 226 191 171 255
5.115814380989910 -30.409508447262994 -0.668600412768399 224 188 166 255
5.238281636837648 -29.982088555770105 -1.505558596711950 218 182 160 255
5.328395787293623 -29.345433830415914 -2.127616373847246 207 169 148 255
5.364978014896444 -28.356496009455668 -2.394280495592540 197 156 136 255
5.327041347890017 -26.870519664538904 -2.166387918532990 184 143 123 255
5.268334725567279 -25.237980581133428 -1.800739073375553 175 134 112 255
5.242127497175055 -23.813623874228711 -1.650807757704456 170 131 105 255
5.205798681684819 -22.313701589975949 -1.433777434406693 168 133 105 255
5.148842609610604 -20.665945444383397 -1.079981303054865 165 132 101 255
5.039743059249794 -18.653545276254675 -0.380423079298851 154 125 93 255
4.857800805889646 -16.129190057877253 0.802069044261373 143 114 83 255
4.603518988367689 -13.088406007455518 2.464009187722041 127 102 72 255
5.771864960290131 -1.552637587636866 -5.642440616070616 161 126 102 255
6.188629263926188 -3.315799826126579 -8.425837402765922 178 141 116 255
6.310968229009241 -2.892344666144538 -9.259673016732449 170 136 109 255
6.463329230210242 -2.699041497229359 -10.292108572259792 157 128 100 255
6.514847563470092 -1.745716644272534 -10.656968243815214 152 128 100 255
6.606604932591971 -1.097370732745276 -11.288101092229880 136 116 87 255
2.793591200903059 -29.863003136596944 21.555293805178479 226 194 171 255
3.116125727782794 -30.582945608824559 19.344094464097253 222 192 171 255
3.296771295766916 -30.442342346531262 18.100447418205107 216 188 165 255
3.498613344893734 -30.439946236353848 16.712479743598237 218 186 163 255
3.797011010438268 -31.048518658548204 14.666520123665322 216 184 162 255
3.997596885486303 -31.057621032978489 13.287515716788164 215 183 160 255
4.154708593118407 -30.800386947438710 12.205010496011624 216 181 159 255
4.311490430411126 -30.546233155846096 11.124907114775198 216 181 159 255
4.628297519255618 -31.318298926136748 8.954335309749553 224 192 169 255
4.912055879823875 -31.894594465152664 7.009241174000010 225 195 171 255
5.152338192643811 -32.204559727608682 5.360650917982042 225 194 173 255
5.317576020230639 -32.039079083464657 4.223641586999832 225 194 173 255
5.376488491000366 -31.186472814987070 3.811292257209033 225 194 173 255
5.541205476038009 -31.025889844325832 2.678102239126332 223 192 171 255
5.737181435726626 -31.077301585547758 1.332080001740991 223 192 171 255
5.943154994119482 -31.203221842764094 -0.081890372998856 224 192 171 255
6.075064387824170 -30.844942159984925 -0.991101227657595 226 190 168 255
6.133412456939368 -29.997978576730787 -1.399046524654239 218 182 160 255
6.233660351142298 -29.431653406025134 -2.092343636911693 206 168 147 255
6.250398640772779 -28.301818001356480 -2.216673266324477 193 152 132 255
6.215410566057194 -26.815669532981644 -1.988607383285199 181 140 120 255
6.170570651578885 -25.253954289716432 -1.693415130064380 177 135 111 255
6.147015089859295 -23.829634238582059 -1.543176529789207 179 138 113 255
6.154930637330715 -22.615405735289187 -1.607253255264027 172 135 108 255
6.080724591121879 -20.825301209956166 -1.111997951476923 163 129 101 255
6.007235714722903 -19.028921701439572 -0.621630784317404 152 123 93 255
5.831873193700552 -16.505741174860191 0.562481038334170 143 115 86 255
5.657706274737123 -13.972028035747769 1.738387224359116 129 105 77 255
5.351989986214974 -10.485555454132367 3.809991391165568 119 97 68 255
4.864722540716805 -5.674553174426933 7.117643673087088 112 96 66 255
6.482874206786086 -1.249827839539591 -4.016285426766302 141 116 89 255
6.980676810452465 -3.681823641905680 -7.413532451704924 177 135 113 255
7.200608227003315 -4.013003457303000 -8.919545850857446 191 153 128 255
7.292098004922408 -3.363780359470695 -9.551400621962188 168 134 107 255
7.393335410825451 -2.791225874159011 -10.249521165706000 151 123 94 255
7.484688221934825 -2.143358350090921 -10.880318075995262 158 135 104 255
7.595496420666770 -1.649106315054723 -11.643430613716646 148 127 96 255
3.760126170668613 -30.013004391389302 21.519514707019852 226 195 171 255
4.034281671927381 -30.466427418619986 19.604155052683467 223 192 172 255
4.275891261867777 -30.726865235383485 17.916528741158061 219 188 166 255
4.527328316645601 -31.060933319080959 16.160241757044787 220 186 164 255
4.756973521835192 -31.267228880534390 14.556466529772962 217 185 163 255
4.902019677154136 -30.939093798084059 13.544545901250359 217 185 162 255
5.088654365872884 -30.884715640003321 12.241797649585749 219 184 162 255
5.264370624563163 -30.766710665517422 11.015508130713954 218 183 161 255
5.523018906973540 -31.198277950382277 9.209165815627472 222 190 167 255
5.749668631361686 -31.431951550168606 7.626731769230787 224 194 170 255
6.006766885410649 -31.877599938532541 5.831364688918399 224 193 172 255
6.221661331032898 -32.055228611730797 4.331298692250641 224 193 172 255
6.301721981429885 -31.340739338000930 3.774552351617871 224 193 172 255
6.392084622004560 -30.695622257680100 3.145827077035818 224 193 172 255
6.574886660723571 -30.676414659574021 1.870495895677863 223 192 171 255
6.798219780412232 -30.940384961197537 0.311677940746534 224 192 171 255
6.949284827759513 -30.721043803755776 -0.741489222456806 226 190 168 255
7.018380019599398 -29.943779409838868 -1.221108088940298 219 183 161 255
7.087523024648618 -29.166197034858754 -1.700973454978879 204 166 145 255
7.105931195125940 -28.035525792134450 -1.825788965023804 192 151 131 255
7.124625930774620 -26.902406076476183 -1.952511099969712 183 142 122 255
7.113281190455211 -25.553895905184618 -1.868959004627811 184 142 120 255
7.132619776948005 -24.415246661530517 -1.999987328823863 183 142 117 255
7.152243800813636 -23.274156588925962 -2.132916350023919 173 136 110 255
7.071785789489311 -21.414412032960712 -1.565468919656354 161 127 99 255
6.972065881426026 -19.404295810983257 -0.863119747263795 151 122 92 255
6.803283269656752 -16.882291073706767 0.322612661153840 143 116 86 255
6.635694492952474 -14.349753518859444 1.500139085318551 131 107 79 255
6.459358187356344 -11.734213021253424 2.739025896227929 124 100 72 255
6.056172071034709 -7.435905390610884 5.565508773999511 113 95 66 255
7.659793375898552 -3.147332802525113 -5.590183135494470 156 122 98 255
8.001502397850231 -4.452614581722401 -7.976038490163063 199 155 133 255
8.131108001592061 -4.104839749950770 -8.877181970610650 191 154 129 255
8.231791442906491 -3.531696996077926 -9.575825962792322 160 126 99 255
8.322835977943058 -2.883458472311588 -10.206948680775184 160 130 102 255
8.432843798393087 -2.388401292689537 -10.970782073057364 167 142 112 255
8.552184895956707 -1.971282652796049 -11.799920233365810 156 133 102 255
8.605087892275627 -1.018902980095959 -12.163886964298484 156 133 102 255
4.808349196691658 -30.694915018341817 20.889581221100997 223 191 168 255
5.036098273385505 -30.883570504473283 19.271654002241945 225 192 173 255
5.211717532092536 -30.743711398776043 18.028068063766767 222 190 168 255
5.510139648813158 -31.413340073766562 15.902473124415991 222 187 165 255
5.705109606147062 -31.418594045690952 14.519835311212205 219 185 164 255
5.828008507132779 -30.955730633805416 13.654887216963687 217 185 162 255
5.971113985763218 -30.630205705785045 12.644827502784182 219 184 162 255
6.195322082873240 -30.851218514242333 11.052122742546715 220 185 163 255
6.418862703627141 -31.078307787129006 9.464154309330894 220 188 165 255
6.651860898437398 -31.379888254188046 7.808167362297922 224 194 170 255
6.874041373234867 -31.619348540995929 6.229841440622153 223 192 171 255
7.095553129370408 -31.864889392917974 4.656254959159725 223 192 171 255
7.145483481564490 -30.942584739610822 4.315765071132745 223 192 171 255
7.265766265014548 -30.503974885921707 3.469726561955611 223 192 171 255
7.435886850427217 -30.414585655337618 2.265484339297018 221 190 169 255
7.695413226456040 -30.956405747318996 0.418509916903133 222 189 168 255
7.864456225937090 -30.876838990005609 -0.778075991285448 227 191 169 255
7.913859832812641 -29.959751055384146 -1.114494826671063 220 184 162 255
7.973315970952179 -29.111827270383088 -1.523083335576814 204 166 145 255
7.993321923251294 -27.980961558712323 -1.647884981130829 191 150 130 255
8.033337592968223 -26.989173994399721 -1.916442863244299 185 144 124 255
8.083380766784934 -26.066771070750860 -2.256998640861923 185 143 121 255
8.094307751588005 -24.858444774564560 -2.316090774476180 185 144 119 255
8.095776502352848 -23.575847258654704 -2.306990467556375 175 138 112 255
7.999960473083071 -21.573789807566584 -1.597857237583867 165 131 104 255
7.895259812051115 -19.492347084457322 -0.824516494778294 152 123 93 255
7.713715833093296 -16.826579488006303 0.502027333419250 142 114 85 255
7.572238239459331 -14.438452451420574 1.540655678577821 134 110 82 255
7.412515102419569 -11.895710254053427 2.710935900404422 129 105 77 255
7.176808730325462 -8.760980810870393 4.428448668704050 117 96 68 255
6.500023503041703 -2.259105859152839 9.321203646238217 95 86 57 255
8.748368644556272 -4.442757082571859 -6.626129274820158 188 148 126 255
8.970281506551764 -4.846116796662955 -8.202773996868530 206 159 139 255
9.070411550736463 -4.272386109594095 -8.901941112665639 186 149 123 255
9.179724711660199 -3.775527166328800 -9.667272572825112 154 121 93 255
9.270356273794047 -3.127914626866357 -10.297943489269670 181 153 123 255
9.379410886075998 -2.633473972495381 -11.061389259266264 170 143 113 255
9.469879013101639 -1.987429822120191 -11.690836759487325 158 133 102 255
9.551096360565573 -1.265232590793914 -12.253558566633814 146 120 90 255
5.790778502582960 -30.977853619342312 20.704756712633440 226 197 172 255
5.984475339656051 -30.967194650139533 19.309398425365742 226 193 174 255
6.177649839849693 -30.961317344389528 17.917767532243005 227 194 172 255
6.400297134212138 -31.161599195636654 16.308501138541374 224 189 167 255
6.632252310666090 -31.435289640831684 14.630344202918451 217 185 163 255
6.763985726099534 -31.039949406098174 13.691800624334945 215 183 160 255
6.935189204923233 -30.917899548727604 12.461838060087388 217 182 160 255
7.056449787432427 -30.459882065779027 11.600551071397376 221 186 164 255
7.286188465183450 -30.753804729078496 9.938164850147928 223 191 168 255
7.495500564819551 -30.917416430655777 8.426425808315855 222 192 168 255
7.733684544045623 -31.292546741701585 6.701227434489368 223 192 171 255
7.941681884837919 -31.468105115350568 5.198800020484157 224 193 172 255
8.041441829815618 -30.889771413107951 4.495953157708612 224 193 172 255
8.189902123136712 -30.658709054520841 3.433241360201066 223 192 171 255
8.406174274050642 -30.917079416633811 1.869252906411930 219 188 167 255
8.660621210453805 -31.460298447823703 0.022851937155934 223 191 170 255
8.768892662855421 -30.962748160150170 -0.743135691029892 225 189 167 255
8.838364371335416 -30.186114900457369 -1.222215826113654 218 182 160 255
8.878962726383421 -29.198169375234954 -1.487673569397401 204 166 145 255
8.938981434352364 -28.349716921762735 -1.896621204611364 195 154 134 255
8.999092953190356 -27.500523925352724 -2.306144856036894 189 148 128 255
9.040161107359815 -26.508648771524321 -2.574661562449336 188 146 124 255
9.033697072520646 -25.159257255033879 -2.491294369349220 187 145 123 255
8.999099411957438 -23.591948381315348 -2.199451663763085 178 141 117 255
8.927086837255946 -21.733192902993608 -1.630335547554807 172 138 111 255
