ply
format ascii 1.0
element vertex 663
property float x
property float y
property float z
property uchar red
property uchar green
property uchar blue
property uchar alpha
end_header
15.757683691669655 -9.761719995352976 5.469933291897036 31 21 0 255
13.893713097472585 -8.284233602644505 4.312976055713222 31 20 0 255
9.683358501359720 -5.742716088880883 1.682843318128590 27 21 0 255
-51.435028549808436 -22.875196330957081 -36.619818584353851 199 155 143 255
-48.385279289131773 -22.908160497057793 -34.686878327394396 201 149 137 255
-46.885978031668600 -22.501865054725215 -33.727323726184608 200 148 134 255
-45.989608539376746 -21.925044071804663 -33.146306928340920 200 146 130 255
-45.351576609106047 -21.276125244526739 -32.727508286087811 199 145 129 255
-44.109525250233077 -20.815589152180152 -31.929892532147505 195 146 126 255
-43.384579280536940 -20.203800972440433 -31.456822663630078 192 143 125 255
-42.486768506173945 -19.650543550129711 -30.875447617954364 192 141 123 255
-42.192688298293803 -18.913539975590581 -30.672828164139702 189 138 120 255
-41.294264000416234 -18.370277475425993 -30.091304872764738 190 139 120 255
-40.136481104337889 -17.915854980160660 -29.347303754604411 188 135 117 255
-38.460149400914958 -17.636405799817595 -28.278383305123640 184 133 116 255
-37.474076240356993 -17.142318519716937 -27.642402442860032 181 132 117 255
-36.487607940300023 -16.654680126565324 -27.006324709428469 181 132 117 255
-36.191919227095667 -15.943778023457725 -26.803328866416962 181 139 122 255
3.638778120980078 -27.808576433814437 -1.810358293561109 208 170 151 255
6.276282475446067 -28.023310830814751 -0.142934979377713 209 175 151 255
8.050179445434310 -27.956797441210497 0.983103493505183 213 179 155 255
10.257152628673197 -28.051842941697288 2.380166283070139 214 178 156 255
12.291985039493596 -28.100181915077414 3.669102309735848 208 172 150 255
12.943430141552909 -27.671826905898925 4.091386891906524 200 162 143 255
13.941244960479793 -27.371186828806771 4.730463433188078 193 153 134 255
14.593279253200564 -26.952397578166966 5.152886467293371 185 142 123 255
15.591812807852989 -26.663466382592631 5.792136670182146 178 135 116 255
16.850464776342790 -26.475944889787769 6.594071180543665 163 120 101 255
17.849829829433673 -26.200586153558959 7.233525465473321 156 113 94 255
18.156720719386897 -25.673891139423361 7.439432691933376 146 103 84 255
18.290493513596715 -25.084286600062100 7.536943378474604 132 91 73 255
18.770894329314018 -24.626665828266070 7.851315702321131 119 81 62 255
19.251490332277314 -24.172167423836243 8.165728326572662 111 76 57 255
19.385588655785966 -23.587617144386130 8.263287923582851 106 72 53 255
19.953198632057962 -23.171827674664030 8.631989977813276 102 68 50 255
20.260918531410880 -22.658186736941460 8.838043586737058 91 56 39 255
20.568767528416316 -22.146563598725606 9.044118192823589 91 52 40 255
20.182840058750685 -21.361983174373734 8.816282650869368 83 45 33 255
19.883535473782501 -20.609729225766799 8.642640698510348 73 36 25 255
19.584131559675768 -19.855692201715001 8.468955040410350 65 28 18 255
19.544988773063722 -19.205406525454691 8.457990168559348 61 24 15 255
19.939859458251590 -18.732196871027824 8.718305745900352 57 22 9 255
20.161251093934311 -18.190058967857937 8.870121025790581 66 33 17 255
20.295901515886158 -17.613355650216988 8.967676933208395 68 35 18 255
20.170057710363210 -16.928744251310448 8.902412796612509 67 35 17 255
19.609836555562140 -16.060717816578972 8.565731165662356 64 36 15 255
19.310069601478773 -15.299633038527048 8.391822344452549 60 34 11 255
18.749498368482904 -14.425473508109647 8.055004745896014 52 33 9 255
18.449478156895708 -13.659858967706043 7.880986461783436 46 28 4 255
18.149355134210225 -12.892370500765182 7.706919552690721 39 24 0 255
17.588280238069899 -12.009339417270596 7.369900627202696 37 23 0 255
16.592174936275995 -10.932001290955483 6.761276170935218 37 26 1 255
15.682687275294910 -9.886847423374419 6.206837251279239 40 28 4 255
14.511872059207974 -8.719879245841753 5.489337441087173 35 24 2 255
11.513318216893992 -6.727159723247127 3.630981531202792 30 24 2 255
-51.536336537668802 -22.987239351362135 -35.641589132400469 198 158 147 255
-48.999476051929065 -22.869887457794974 -34.040272424282506 200 149 138 255
-47.152344026817929 -22.564909445260483 -32.869571355224110 202 148 136 255
-45.908976131977823 -22.091586324133388 -32.075728322506336 201 149 135 255
-44.924228398167855 -21.548330507176345 -31.443362880009943 201 148 132 255
-44.025471983536164 -20.985287445765337 -30.864769514891861 200 149 132 255
-43.039947876879893 -20.454756058816415 -30.232207332962759 201 150 133 255
-42.140448095802270 -19.903886683446260 -29.653426761484440 201 148 132 255
-41.413458231244675 -19.304770995707742 -29.182327540615120 200 147 131 255
-40.599717651080908 -18.737879068282922 -28.657264961322937 201 148 132 255
-39.526239656190256 -18.259277746714943 -27.970436103820987 200 149 132 255
-38.365848835007483 -17.815578835331195 -27.229600211948934 195 146 129 255
-37.204998274908775 -17.379412156471361 -26.488648140779674 188 142 123 255
-36.389759655248866 -16.837010057410851 -25.963213404396015 190 145 126 255
-34.881919037329823 -16.529649687943788 -25.006396670020393 197 154 135 255
4.493506260784841 -28.227983968432994 -0.445218290404455 209 174 154 255
5.663607054139646 -27.944589532578462 0.298217047517824 210 175 152 255
6.834165465146697 -27.668694740943423 1.041768287487940 213 179 155 255
9.217796351073588 -27.821069008068690 2.540525565835395 212 176 154 255
12.208760609468328 -28.200742450828940 4.417099805475999 205 168 147 255
13.381259016815505 -27.956737656059929 5.161153920230760 197 158 139 255
14.554213986185715 -27.720211637075607 5.905323243281259 186 145 127 255
14.774141335128604 -27.148702672046454 6.056125539463352 181 138 121 255
15.687740132706722 -26.829950558883340 6.638603219299853 169 126 109 255
16.254845845788225 -26.390360562609999 7.005321051332402 154 111 94 255
17.255825122422465 -26.114158866680725 7.641922285704169 148 105 88 255
17.649977298167641 -25.618861847070903 7.900823652137035 132 89 72 255
18.131053644448428 -25.158640390316577 8.213733401160027 124 83 65 255
18.699102633425099 -24.734296780124595 8.580664753460439 113 75 56 255
18.746614186966298 -24.115504040750068 8.623740235620687 101 66 47 255
18.794157548969537 -23.497131676913938 8.666811715184537 88 55 38 255
19.362691863229742 -23.080519305291261 9.033839400869311 85 53 38 255
19.757766745947578 -22.599894744643862 9.292920777809655 78 45 31 255
19.718707231939788 -21.951341233054180 9.282020905280149 69 35 25 255
19.419019932900568 -21.199538763675648 9.109085446180757 65 32 22 255
19.379907678994471 -20.549872725561272 9.098142557581070 60 29 18 255
19.514608587457843 -19.969857506839986 9.195216631940042 56 24 15 255
19.475523585441437 -19.320397270856887 9.184251869728541 51 20 10 255
19.523375791901032 -18.706205246213969 9.227296280126581 45 16 2 255
19.484300491247666 -18.056649149001615 9.216303521850620 51 22 6 255
19.271275752281468 -17.334922476374572 9.097225062110596 54 25 7 255
19.058181855278121 -16.611910696550495 8.978110957645470 52 23 5 255
18.758013090309220 -15.851076308612335 8.804917161720795 53 26 5 255
18.544763514513591 -15.125196514758997 8.685725786821450 48 24 2 255
18.157367919910712 -14.323864648047120 8.458391770560411 38 20 0 255
17.682782458463265 -13.482787157762175 8.176944352744897 41 23 1 255
17.120957912812059 -12.601141232624371 7.841369130368946 49 32 7 255
16.733105068126008 -11.791749768101866 7.613851674408608 56 40 15 255
16.258012269417463 -10.941768059706916 7.332205290926339 54 40 14 255
15.608511017478207 -10.011947290894241 6.942339510920561 47 35 11 255
14.697367664256831 -8.961952565925188 6.390145167405990 39 28 6 255
11.955702947558194 -7.087920617944818 4.702044240468553 31 25 3 255
-52.500993929393331 -22.849947599286409 -35.201370985710554 193 162 148 255
-49.441312671449481 -22.882110257374563 -33.285460996335217 196 153 140 255
-47.418170456605679 -22.628005049565829 -32.012732847226715 201 151 137 255
-46.345660484255490 -22.103678534233737 -31.329717341566209 199 150 135 255
-44.926686380113239 -21.690453391585166 -30.432056074183379 201 149 135 255
-43.420628715829736 -21.312703488865296 -29.480610431607602 202 149 135 255
-42.087063196775631 -20.891572473164231 -28.636295079766938 199 149 134 255
-41.272318267949544 -20.318152473581407 -28.113725022679688 200 148 134 255
-40.543817216848566 -19.723046478253096 -27.644723308362956 200 148 134 255
-39.295477897890493 -19.296960288796228 -26.853712256506952 197 147 133 255
-38.652891443595280 -18.685554242705408 -26.438196736891257 197 149 133 255
-38.096663384911238 -18.050559301735333 -26.076281686480712 195 148 132 255
-37.713481635431975 -17.362994309802232 -25.821650073096293 195 150 131 255
-36.723547482694840 -16.877166203495975 -25.191265453122611 198 153 134 255
4.224921245863698 -28.267156521253085 0.215438462908622 214 173 153 255
4.876661473259276 -27.806907178620989 0.633408671279767 211 175 153 255
5.875609243642884 -27.470056621823630 1.266226556043563 212 176 153 255
8.176238063418594 -27.590396073730687 2.704651441429121 211 173 150 255
11.692509649187230 -28.149714357687188 4.895179656304464 206 165 145 255
13.821552674899493 -28.241616028549572 6.226714516448141 194 151 134 255
15.430600769095378 -28.161765109755919 7.236180607023215 186 143 126 255
15.998455843358784 -27.718538583837471 7.601186202857974 179 136 117 255
16.827040365652806 -27.373203938120554 8.127413908319340 165 119 103 255
16.787449420563547 -26.716505573946577 8.116446890548218 150 104 88 255
17.355922696103420 -26.283278697560931 8.481593321185386 138 95 79 255
17.577093003406645 -25.724908061557542 8.631846266293508 121 78 62 255
18.232854219804665 -25.330433782607344 9.050820217602393 108 69 53 255
18.367384451631978 -24.743696592821877 9.147382069900885 100 64 47 255
18.154253623590904 -24.025867684440485 9.028950254998193 91 55 40 255
18.114951562374245 -23.373410208973610 9.017997437020853 82 47 34 255
18.510466638781793 -22.888596244795579 9.275827656993386 74 41 28 255
18.906142265270859 -22.406346236884787 9.533690508648647 64 32 19 255
19.040989469543320 -21.824373484677977 9.630281229283753 58 26 16 255
19.175899166807568 -21.243332437454356 9.726876729499253 54 26 15 255
19.484928473173682 -20.732482036570190 9.931031193431409 51 25 13 255
19.532949742818488 -20.118919330914409 9.973862543316670 48 22 11 255
19.493938847737184 -19.470553157196505 9.962902159074616 46 20 9 255
19.542001621896333 -18.857451861604744 10.005717877535233 45 20 7 255
19.328811636157525 -18.137564200646196 9.887140921134716 45 20 5 255
18.941332229531611 -17.344433415977946 9.660929785750170 46 20 3 255
18.553717935426107 -16.548936603182653 9.434665913984219 48 21 3 255
18.165968361708849 -15.751064209766426 9.208348832976696 50 25 6 255
17.952400574214096 -15.024396577887259 9.089605881342408 54 28 8 255
17.477236755477520 -14.185219221535078 8.809371642202819 64 43 19 255
17.263477680676715 -13.455104461247046 8.690542933693905 69 49 25 255
17.049646735113612 -12.723657490744827 8.571677577261340 69 50 25 255
16.835743496607250 -11.990868458983783 8.452775115604709 65 48 23 255
16.272807248489300 -11.104130423170005 8.118486919680180 60 44 19 255
15.098873184362418 -9.944918013834993 7.407231648135138 53 38 15 255
13.924507327538862 -8.778364263693291 6.695835358118046 45 33 10 255
11.964108885156890 -7.253786793846146 5.499638149633000 36 30 5 255
6.336165872449413 -4.069096728497982 2.041275220280198 23 29 1 255
-51.302778423130093 -23.336108668691352 -33.423782382806877 164 144 129 255
-49.450171047275347 -23.020414669761848 -32.263697520652443 189 159 141 255
-47.423615042344323 -22.767567966290557 -30.996639650526674 195 153 136 255
-46.175943590596404 -22.296024508014355 -30.209921713214868 200 153 135 255
-44.927779182140199 -21.832602720100269 -29.423073800291377 198 149 134 255
-42.985821801333515 -21.587532352898194 -28.208868939480737 198 149 135 255
-41.736542305176357 -21.142488359875230 -27.421726269334755 194 149 131 255
-41.006940842175510 -20.544640247743942 -26.954928471433419 196 149 131 255
-39.930197362052496 -20.060006667381387 -26.274388226918461 197 148 131 255
-39.373392355106063 -19.418250137893224 -25.914264865957563 196 149 133 255
-38.209149610144749 -18.973647826707278 -25.180104624231404 196 150 134 255
-38.172328270113354 -18.173958053095092 -25.140417914664454 195 151 134 255
-37.441260996295597 -17.600111513335577 -24.673251351873063 202 159 140 255
2.088440405294875 -28.365051347516371 -0.288628670118072 213 172 152 255
3.782922579159901 -28.247884862934896 0.768736189286358 213 174 153 255
4.522624485567917 -27.816852135261215 1.238245675237550 211 175 153 255
6.131356783637784 -27.688411966985555 2.242444102599109 211 175 152 255
7.740707379617220 -27.570158315609461 3.246805529473590 209 171 148 255
10.393549393630707 -27.825888347815066 4.892976179551027 203 162 142 255
13.829699874451336 -28.373531411151731 7.020692679246480 191 148 131 255
15.528377964016869 -28.325547761551874 8.079170231093116 186 140 124 255
16.445112402597601 -28.008147845868322 8.656463084117405 176 133 114 255
17.101290930073873 -27.602419182111106 9.073380673520745 161 115 99 255
17.322792638956628 -27.042605422996076 9.222896120222430 140 94 79 255
17.457387814680573 -26.452390902681245 9.318931721206297 122 79 63 255
17.505027484774359 -25.830960992516083 9.361473633694459 100 58 44 255
17.813806567928935 -25.307387275781181 9.564534383046805 91 54 38 255
17.948609836717168 -24.720382865122843 9.660598764098893 85 47 34 255
17.822271156375280 -24.035313260501525 9.596123658148457 77 39 29 255
18.044236855002424 -23.482707345028487 9.745709273867988 74 37 28 255
18.266297799903128 -22.931593775578932 9.895310816457055 67 34 23 255
18.575570835186880 -22.415785385589757 10.098457263364907 54 23 12 255
18.797837589438217 -21.867905662343418 10.248094316222364 48 21 10 255
19.194497913548219 -21.390216132234158 10.504823163494990 45 19 8 255
19.416985462111256 -20.845812375976934 10.654499108512823 44 22 9 255
19.203656137534182 -20.128370422263501 10.536451977586665 42 20 7 255
19.077456071816613 -19.444847572460233 10.471925355067555 42 20 7 255
18.951219040465560 -18.760606433824378 10.407375929585470 43 21 8 255
18.912175526054938 -18.111348129334957 10.396364558722979 51 29 15 255
18.349644226895975 -17.246016791869351 10.063943872727236 58 35 20 255
17.961439024235034 -16.449738453205470 9.838594138630100 67 41 26 255
17.660377418584545 -15.687605139974210 9.666767461961626 74 48 31 255
17.533803624818745 -14.997209766894755 9.602056838933692 78 51 33 255
17.319878418517760 -14.268981377814569 9.483736801430581 75 50 28 255
17.367866138650697 -13.651428237023254 9.526148522826077 74 50 26 255
16.979155542481806 -12.846152162037569 9.300585334039823 71 48 24 255
16.677667703717105 -12.076325326062388 9.128566076041437 66 46 21 255
15.939187810364245 -11.113878858701185 8.688487620070248 62 44 20 255
15.113045128387512 -10.108400395874483 8.194709414232534 55 40 17 255
14.199190282696492 -9.059063637101971 7.647216907523728 47 36 11 255
12.673017643079845 -7.731286908537143 6.724295094422644 39 32 6 255
-47.896434159418703 -23.612329014121698 -30.287545229542218 159 144 123 255
-46.907186406732848 -23.059968116383743 -29.663940517111428 180 160 132 255
-46.438148266331865 -22.359696156915220 -29.359189621556510 188 159 130 255
-45.621775412989820 -21.766726639301694 -28.841731291774948 197 155 133 255
-44.457873220936705 -21.284283679789965 -28.111512111669640 197 153 134 255
-44.595754242147933 -20.411239655780676 -28.178768778547948 194 153 131 255
-42.823350530458953 -20.127593059937013 -27.076130286119309 196 152 130 255
-41.571352626888682 -19.692774433800338 -26.292400753255379 197 150 131 255
-40.753188168323589 -19.129285095454676 -25.774474493340477 195 146 129 255
-39.500289930783396 -18.709295343802481 -24.990508112344401 196 147 132 255
-0.053174593183371 -28.474419444602276 -0.782570854315054 210 169 149 255
1.556447073756914 -28.317204614362666 0.216672768978839 209 171 150 255
3.079708614779321 -28.140956246677291 1.162863209859552 211 173 152 255
3.994592902363479 -27.767829202405906 1.736651610618253 210 174 152 255
5.692933655638029 -27.668558282583334 2.789575829682633 210 173 151 255
7.478951516766898 -27.610056157215396 3.895904945418494 207 169 146 255
9.787911733339513 -27.744690261422789 5.321832553606242 196 155 135 255
12.707165665564588 -28.107884167951099 7.120680244635537 190 144 128 255
14.843840644200156 -28.211664205072751 8.440621679192077 189 143 127 255
15.936222206561865 -27.955393446600368 9.121786225263065 174 131 113 255
16.941916952777461 -27.674663154741680 9.749806237771509 153 107 91 255
17.860875938726878 -27.368659998773126 10.324667980693732 125 79 64 255
17.995924467090504 -26.781139766948044 10.420252545993634 112 68 53 255
17.956722779469061 -26.130210391704608 10.409311184978463 99 57 43 255
17.656000054817412 -25.381780842221289 10.238544214813857 90 51 38 255
17.878314532931739 -24.828053792346509 10.387401177654112 68 30 18 255
17.926312992526761 -24.209819510785564 10.429713195759092 64 25 17 255
18.236007032291099 -23.691835669257017 10.631881858733095 60 21 14 255
18.109637720116609 -23.008153748837159 10.567624800933515 57 22 14 255
18.070487176611351 -22.357615967293711 10.556643029932133 49 18 8 255
18.293144864953888 -21.809195061848854 10.705548855093411 42 15 4 255
18.690469771575181 -21.330956586215009 10.961078964402589 39 15 3 255
19.087952940550963 -20.855262323744526 11.216643246892943 36 15 2 255
18.961678490676604 -20.172734315009208 11.152362329880972 31 12 0 255
18.748031269574369 -19.454331339747924 11.034742390493420 33 14 0 255
18.621665663274712 -18.770105542495642 10.970414024155730 35 16 3 255
18.582630020280845 -18.120858891289984 10.959390624675336 38 17 4 255
18.281435762440907 -17.363490578479869 10.788359513388201 43 21 7 255
17.892737223410450 -16.568051360598304 10.563951209163776 50 27 13 255
17.329068492938887 -15.697204087362024 10.232810774002587 58 35 19 255
17.114929547687950 -14.970038384419610 10.114982155120344 64 39 22 255
16.988167277767104 -14.278618100408394 10.050470421825310 67 40 19 255
17.123761054642245 -13.698402731321892 10.145998199540486 68 42 19 255
17.084447950192327 -13.043824059664388 10.134810741167286 65 41 17 255
16.607635806287590 -12.199637410686748 9.856788390036201 61 41 16 255
16.218166001023462 -11.390615179282449 9.632072044053331 59 41 17 255
15.478433885733978 -10.425497792835117 9.193809523570110 52 37 14 255
14.738431086787415 -9.455753533112727 8.755455648398254 44 34 9 255
13.210088588582749 -8.130774361676245 7.836567830149107 36 31 4 255
10.367489277200434 -6.207856923560911 6.116696710961094 18 27 0 255
-45.483142348069947 -22.783686639534949 -27.768426790888043 169 169 130 255
-46.925050801965511 -21.518920593298233 -28.629466759270429 187 167 134 255
-47.324226196223862 -20.560843239738901 -28.855445797886745 192 161 133 255
-46.767038088562884 -19.892598023284719 -28.499140871883469 188 159 129 255
-45.948709468012254 -19.308580286864341 -27.983947529748036 189 156 128 255
-42.607458605510573 -19.515265929817772 -25.933191880032155 191 152 128 255
-41.613998833451177 -19.004555145738863 -25.311791919545044 192 149 128 255
1.675844448687371 -29.173285225949442 1.105524283748935 210 172 151 255
2.417492320322651 -28.732829558526035 1.570589831356273 211 175 153 255
3.507896428211723 -28.414123128285993 2.247665354502203 211 175 153 255
4.163063327793139 -27.954876872017934 2.659912798505246 210 174 152 255
5.777120575334635 -27.827378273425822 3.655144464332182 212 174 153 255
7.217465726575881 -27.649986809170599 4.544547796224293 209 168 146 255
10.925058730651699 -28.269736373894489 6.812138950352676 194 151 132 255
13.064503133150680 -28.362176112920494 8.126003301097512 192 146 130 255
14.245414379863576 -28.128695664385717 8.856970747645022 187 141 125 255
15.339549807520825 -27.871572827934941 9.535043058248505 173 130 113 255
16.172369504201185 -27.527222043701443 10.054167170257614 153 107 91 255
17.180035793268502 -27.251491585583125 10.679423064106089 120 74 59 255
17.315310546291158 -26.662893092000161 10.774493060912960 93 49 36 255
17.712530850687301 -26.171865077185245 11.028673252180880 47 6 0 255
17.586049061368925 -25.488651896646971 10.964663984327217 44 4 0 255
17.721512213203226 -24.902996049021596 11.059764380540969 53 13 3 255
17.769694732956339 -24.285304923624494 11.101827471719560 63 22 16 255
18.079983775105347 -23.767852767297413 11.303045162478455 61 22 17 255
18.390399252646290 -23.252433052373561 11.504290139286070 50 14 8 255
18.351374897039619 -22.603791851978059 11.493319841875078 43 11 4 255
18.224938792233161 -21.920930021731508 11.429274664066654 36 12 0 255
18.535585566812415 -21.409138987434176 11.630558873742189 30 8 0 255
18.496596744170290 -20.760867604720303 11.619572181948342 25 7 0 255
18.545059230941490 -20.147325686802034 11.661653721220134 23 5 0 255
18.068712837022673 -19.323186520364260 11.385232793856872 21 3 0 255
18.029642636692358 -18.673325643330159 11.374194920035137 22 4 0 255
18.253081571828773 -18.130383339973363 11.522423343501060 21 5 0 255
17.951483109546785 -17.373037392444715 11.352084091085970 24 6 0 255
17.387167285243294 -16.505140471602672 11.022399527927519 25 6 0 255
16.735095150514894 -15.597274585643007 10.639540686537714 33 14 1 255
16.433068078333179 -14.832533413863942 10.469048550109278 42 21 4 255
16.481280655616587 -14.214153579932102 10.510978095540480 46 24 2 255
16.792324905797841 -13.708049407796622 10.712264136059588 50 28 5 255
16.490157757372771 -12.940696947890274 10.541698803293997 54 34 9 255
15.749707522916850 -11.982131218940182 10.105443589428631 48 31 7 255
15.184289727045638 -11.095236877818351 9.775367864129009 46 32 6 255
14.881669184350073 -10.320036966860130 9.604637867536212 44 32 8 255
14.578939873034585 -9.542922239398663 9.433864517706212 39 32 6 255
13.574498980470423 -8.452273676364726 8.837862097113231 31 30 2 255
-44.516727100934958 -19.067119843766349 -26.097808074335688 170 152 118 255
-12.589856634889202 -26.797599476540015 -6.736991221931305 209 167 147 255
2.364802313887765 -29.527729259559280 2.349493951407737 213 175 154 255
3.544088164270676 -29.235268747639481 3.076185023856965 212 176 154 255
3.938551252275460 -28.687264240874768 3.328258058216363 211 175 153 255
4.245907736933447 -28.112423482235556 3.527618311763263 212 176 154 255
5.251677916047242 -27.777833968475946 4.149073869818750 212 174 153 255
8.527680656037006 -28.230597697942613 6.142458612755178 207 166 144 255
12.066868618423570 -28.794688883317079 8.294483728688874 194 151 132 255
13.860703301803397 -28.769315363173732 9.391443478311430 190 144 128 255
14.781714923684405 -28.446754819318429 9.960826882994496 185 139 123 255
15.528349017075698 -28.067827610163434 10.424742966597449 175 132 115 255
16.450038923426490 -27.756441469889523 10.994305137309425 152 106 91 255
16.847690173847099 -27.260993901642479 11.247222437821222 112 66 52 255
17.158086391634811 -26.736235582802436 11.447384348962274 108 64 51 255
17.556041349633716 -26.245732982752969 11.700374707265055 102 60 48 255
17.866708244381897 -25.725368437252655 11.900600130537640 78 38 27 255
17.827646773487686 -25.076139079706948 11.889622835247479 73 33 23 255
17.701102026394693 -24.393800699077104 11.825825446253418 66 27 20 255
17.749513664237298 -23.777343000621670 11.867645267763208 63 26 20 255
17.797953780383637 -23.161300189690010 11.909466108959833 52 19 12 255
17.846422029072500 -22.545665124233068 11.951287705951358 43 14 3 255
17.894918058455289 -21.930430557553194 11.993109792720418 39 15 3 255
18.381247039933299 -21.487326398246083 12.299108976891205 35 13 1 255
18.429878687492476 -20.874220091572539 12.340954142377370 28 9 0 255
18.478537035348126 -20.261492245727894 12.382799006370249 24 6 0 255
17.738733549711583 -19.332719399650912 11.949001119301272 21 3 0 255
17.787298049271925 -18.718294532919771 11.990803215452246 16 0 0 255
17.748245808850299 -18.068526559789973 11.979745820627713 18 2 0 255
17.709186218693304 -17.418564541798048 11.968677770285652 16 0 0 255
16.968720838294928 -16.478494702762106 11.534658523355461 15 0 0 255
16.227987314740716 -15.533887122823742 11.100554240827591 15 0 0 255
15.574692388026676 -14.621510103753550 10.719241261570346 18 0 0 255
15.535225341625960 -13.964462812087064 10.708021296443547 27 6 0 255
15.495748722136341 -13.307176069023157 10.696789040919668 32 12 0 255
15.631774135411661 -12.724823288227043 10.791325452330398 36 17 0 255
14.890131165950294 -11.764674642036766 10.356914755490635 35 19 0 255
14.587159744400054 -10.990588621531742 10.186916125685002 35 20 0 255
13.581640445649299 -9.907363609517901 9.593639502723022 34 24 0 255
13.366141136818555 -9.165963996023052 9.476429500883540 31 24 0 255
12.184352632107874 -7.994763406276618 8.777133884078012 20 22 0 255
-13.578321525800504 -28.078521216840258 -6.482765874226288 198 179 153 255
-12.313869468519471 -27.746103690717305 -5.708034934545736 210 174 152 255
-12.183950960082967 -27.059339466399692 -5.615562492000265 209 168 150 255
0.303928773315647 -29.667418592320544 1.919533834743135 210 172 151 255
3.057051833800244 -29.882125962251507 3.587845547178802 212 175 154 255
2.840491534183514 -29.129558109029389 3.471110046963247 212 174 153 255
4.284283336550089 -28.931154827012520 4.352125907029091 210 174 152 255
4.941967174718542 -28.476429980822729 4.760622140025220 213 176 154 255
5.862178270089657 -28.115264491386725 5.326757429608733 213 175 153 255
7.394817901458254 -27.970203508517088 6.260684509945378 205 164 143 255
11.814059674542733 -28.834727274967662 8.928345048906607 193 150 131 255
13.873226625476349 -28.901256103077031 10.177963186939706 189 143 127 255
14.883319386995652 -28.610573416247036 10.797295141249236 184 137 121 255
15.456280651238103 -28.170743670324271 11.154000352291106 176 133 116 255
16.204506733700498 -27.797370150408170 11.615865655379338 156 110 95 255
16.427805345079975 -27.238881666212706 11.762475666259263 125 79 65 255
16.913855717161283 -26.777677277371879 12.066787028200807 109 65 52 255
17.400097699703025 -26.319615973743097 12.371147264776326 92 50 38 255
17.886530983912820 -25.864691704839558 12.675556179495032 83 43 31 255
17.847549390658116 -25.216545778436895 12.664572152517053 82 42 32 255
17.545712385927260 -24.469305177373514 12.495847150777294 71 33 24 255
17.331407312583849 -23.753594785751190 12.379670625209712 68 34 25 255
17.642930507320727 -23.237886982512393 12.578992470710148 61 30 20 255
18.042244331776487 -22.758009155253674 12.830935495382960 53 25 14 255
18.178668905508516 -22.178469152544608 12.925127429927613 47 22 10 255
18.402850975670873 -21.634205961602817 13.071930937717866 42 20 7 255
18.100837406936790 -20.883728367813333 12.903120185115554 40 20 6 255
17.798720072694408 -20.131470083103508 12.734273575913647 36 17 3 255
17.584245496709457 -19.412575962946931 12.618005624287008 34 15 1 255
17.720751472299042 -18.834117948456296 12.712188055864544 28 9 0 255
17.857314741234035 -18.256555082207328 12.806379764347923 31 9 0 255
17.379365362852042 -17.428132595000264 12.532180166163400 31 9 0 255
16.989056985790626 -16.633039133123276 12.310558022292867 33 9 0 255
15.983812772932794 -15.580039237141690 11.720424076914995 36 11 0 255
15.417423624092777 -14.704743958337957 11.393390566119479 50 24 10 255
15.114411478682484 -13.937109055651362 11.224232240264996 50 27 7 255
15.338552806007613 -13.391509529719031 11.370945532764864 48 26 5 255
15.299101398316310 -12.734524630120106 11.359706358409667 44 23 1 255
14.556363304672487 -11.774416965121461 10.927167793488962 40 22 0 255
13.725427397190771 -10.771576951579931 10.441877526158237 35 19 0 255
12.718302264429184 -9.686778606263644 9.851150917425656 29 17 0 255
12.590388618519597 -8.982440706631039 9.787058757093575 20 14 0 255
10.439014541504520 -7.381572556011875 8.511313934488214 15 17 0 255
-15.225408600895463 -28.429990368757629 -6.602810720418631 197 181 148 255
-12.211070518393711 -28.636164373720888 -4.786821970358545 210 179 156 255
-11.731081426724558 -28.060620530494802 -4.485838703751483 213 173 152 255
-11.076003253705579 -27.544060058067942 -4.080288665165881 206 165 146 255
-8.583944569596582 -27.622827998927036 -2.577174437418392 204 166 145 255
-2.066909047167115 -29.024201998162027 1.330444296207702 212 174 153 255
1.915193307058416 -29.634147311966885 3.722893210574199 213 175 154 255
2.310816235909101 -29.081827348955017 3.972472995388557 211 175 153 255
3.931987936530447 -28.941262512417907 4.954012872427256 210 174 152 255
5.291143085015619 -28.722426630210904 5.778869775219590 211 175 151 255
6.388135674408915 -28.422891860601979 6.447002540243801 211 175 152 255
6.434633807961092 -27.769977331879772 6.487728609009338 204 163 143 255
9.634489557311639 -28.208256405613298 8.411189887165136 190 149 129 255
12.923150620658674 -28.696971349595557 10.387287575586129 189 143 127 255
14.372920009963138 -28.558538790342780 11.265277510796224 185 139 123 255
14.946828063313689 -28.118146300058427 11.620301160333653 179 136 120 255
15.696274776275715 -27.744202204669733 12.080017054525428 165 122 106 255
16.446010275487851 -27.375029283290644 12.539810680717693 139 96 80 255
17.108344690042742 -26.978708773602449 12.947356426946826 124 81 65 255
17.420111810431450 -26.457879193690474 13.145650348398917 114 71 55 255
17.732004806039953 -25.939109194925848 13.343975754046610 100 61 45 255
17.693070654112859 -25.291506541208960 13.332975755184037 92 54 39 255
17.654132080983715 -24.643794385443030 13.321970209859856 82 48 32 255
17.351876973963215 -23.896183845387711 13.153913885542167 77 45 30 255
17.576240216986776 -23.348013243656155 13.299941574633891 68 39 26 255
17.800695189733489 -22.801329659633694 13.445990549768155 62 34 20 255
17.937422316286160 -22.222056496833602 13.539698504128722 52 29 14 255
17.722866290808611 -21.506358770922873 13.423951376466491 47 21 7 255
17.508238711908518 -20.789428288299916 13.308178943870047 44 17 1 255
17.381407031077060 -20.106136256437040 13.244756834206925 42 17 0 255
17.606071780718196 -19.562732538689332 13.390840053881746 42 17 1 255
17.127623387663647 -18.737416526473893 13.117862501884474 43 16 0 255
17.000670564525620 -18.051972264883915 13.054389767278366 45 17 0 255
16.609878118114551 -17.257914179421533 12.833716703916693 47 19 2 255
16.834589733606435 -16.715102722207433 12.979790786659848 54 25 8 255
16.619562761080203 -15.991199637929853 12.863866155758075 63 35 15 255
16.316479152190681 -15.229223988163724 12.695505923386932 67 39 18 255
16.101285204799552 -14.502438116736116 12.579521517056975 69 43 19 255
15.886015151281953 -13.774331905869644 12.463509102768867 69 45 21 255
15.406577626756587 -12.932145933692752 12.190202209417777 68 44 20 255
14.486732619867666 -11.897723830305907 11.654705398612165 65 43 19 255
13.742675257631873 -10.933865638379601 11.223968080335126 62 42 18 255
13.086423435008129 -10.003788963485704 10.845581741254733 55 40 14 255
12.429929970031139 -9.069627511755769 10.467119307897292 46 32 6 255
-2.543618796800217 -1.111378841005845 1.580221241482917 35 39 6 255
-16.438591689009627 -28.923692169225063 -6.455552004796857 192 186 146 255
-13.420147917118641 -29.117602263107145 -4.648029096014369 215 188 160 255
-12.151602864683952 -28.783713809951365 -3.880452659715360 214 181 158 255
-10.970138870823831 -28.430307269630063 -3.164758084565307 209 175 153 255
-9.788220762278655 -28.084440485397124 -2.448936841538284 205 164 144 255
-7.116645386531275 -28.224488541431469 -0.848530665703862 205 167 146 255
-1.202260079258878 -29.432354834567874 2.677323985256464 214 176 155 255
1.471921094019876 -29.615712938637174 4.278462439784420 212 176 154 255
1.780589151155397 -29.034158188769041 4.474784124842500 211 175 153 255
3.141365349956629 -28.805331780707249 5.295683260545928 210 174 152 255
4.765701935515551 -28.673545874640155 6.272875896426939 211 175 151 255
5.952165897795567 -28.403178163354553 6.989967922831966 208 172 149 255
6.525087245442649 -27.930137304091119 7.342772674403022 203 162 142 255
8.238719069566230 -27.854631285123645 8.372464700833291 192 150 130 255
12.409879968331580 -28.645592931455226 10.860244008565189 192 146 130 255
13.598683234823397 -28.414061365954865 11.577988093339997 191 145 129 255
14.787937100607081 -28.190004951009442 12.295857119937111 185 142 125 255
15.275286021970913 -27.722455095509389 12.597196154877153 170 127 110 255
16.201878926220957 -27.416259349371742 13.159018717835480 154 111 94 255
16.689690483365013 -26.956360987242945 13.460483243712460 139 96 79 255
17.002006448877353 -26.435249019011479 13.657807616448736 123 80 63 255
17.226588507015293 -25.883748695285760 13.803064335318936 114 74 56 255
17.363387730383181 -25.301045189244050 13.896239457009145 102 63 45 255
17.588138310565029 -24.752297428368834 14.041537752315051 84 51 32 255
17.373441878134372 -24.038767590117047 13.926289073617937 80 48 30 255
17.686218712883289 -23.525193419445742 14.123728363391805 80 48 32 255
17.999119050067662 -23.013645993444314 14.321199259310518 80 48 32 255
17.960316990375873 -22.367855689897382 14.310190601812621 80 51 34 255
17.305699850658385 -21.481571333219946 13.934249962849037 79 47 31 255
16.826826013642403 -20.660566671144437 13.662512990735976 75 41 23 255
17.051822459867765 -20.115704444114741 13.807856370457912 71 36 19 255
17.893056763987516 -19.818310721600568 14.318244279819140 51 16 1 255
17.854232223815814 -19.171987013157235 14.307210214000790 44 9 0 255
17.815398669397553 -18.525478905640256 14.296169483340748 68 33 15 255
17.336206002369948 -17.698998766770373 14.024321845412572 92 58 38 255
17.737702742116937 -17.231876544509205 14.274067117966524 99 66 46 255
17.522634647824844 -16.511772237505397 14.158666531461051 102 70 49 255
17.571846705419745 -15.900669353409086 14.199761468683079 102 70 48 255
17.180405443651892 -15.104692070493485 13.979965332040550 102 73 48 255
17.053275834349222 -14.418238906021443 13.916673468080404 97 69 44 255
16.397096917649293 -13.505523611399340 13.540237396866289 91 64 40 255
15.476126456775233 -12.475210859289987 13.007150576248009 85 59 35 255
14.907617062251859 -11.591698212517755 12.682750253894611 74 50 25 255
14.515330908094398 -10.781441817315383 12.462688431908362 67 44 20 255
14.211132547512278 -10.007393907829993 12.294786341173264 58 35 11 255
-15.858898825179295 -29.229505629502640 -5.229118358436068 216 188 159 255
-14.676570483374917 -28.857986433092535 -4.517061882975099 219 183 159 255
-12.441519868771280 -28.821962849315753 -3.183534280155982 215 176 156 255
-11.433500026212556 -28.413574422317211 -2.574733002937592 208 171 152 255
-9.723320530263209 -28.234584915360628 -1.551520230560584 203 162 142 255
-6.433218200530973 -28.572808395783554 0.404137252504057 205 167 146 255
-1.562320040914244 -29.442772183177411 3.292486872745002 214 176 155 255
1.116142120562444 -29.626007735860824 4.886311409881358 211 175 153 255
1.688741109759178 -29.131268232037584 5.237072945336791 212 176 154 255
2.876181181434788 -28.844761246773132 5.950572120602146 211 175 153 255
4.415346472401438 -28.683688104553354 6.871459311881068 209 171 148 255
5.428085039514173 -28.353763813247980 7.481590926460058 205 167 145 255
6.616911430058508 -28.090298917321249 8.195479751701242 201 160 140 255
8.509123937692692 -28.076639351701218 9.324127335114895 196 154 134 255
11.368759806929631 -28.410917076603468 11.023144535808655 191 148 131 255
13.438367069996474 -28.485455665441691 12.255918598200367 194 148 132 255
14.717508669016098 -28.292980697751105 13.022325477741944 189 146 129 255
15.117815843781329 -27.794849980467419 13.270393690943138 176 133 116 255
15.606228869050682 -27.330971833566565 13.570357127964783 164 121 104 255
16.182795963944471 -26.902148332653525 13.922229416071659 147 104 87 255
16.495644597316016 -26.380483413629634 14.118579492527076 136 93 76 255
16.808617884303914 -25.860878160935329 14.314963146244438 118 78 60 255
17.209728042659208 -25.376039755206321 14.563250584660011 105 67 48 255
17.699023295430891 -24.926770407862747 14.863455444569183 100 65 46 255
17.660237200984710 -24.281103971841532 14.852434367014638 103 68 49 255
17.709505919204759 -23.668836745740180 14.893293563835741 106 70 54 255
18.023032353078065 -23.158354538226632 15.089824224252055 109 73 57 255
18.160494162985458 -22.581769206987147 15.182600690116473 111 74 55 255
17.769354695917798 -21.800128887296466 14.964003157101459 113 72 55 255
17.466203569446094 -21.050778615186914 14.797266698348409 107 62 46 255
18.308795148607885 -20.752976243104484 15.305291562981481 70 24 8 255
18.975385426392762 -20.390122985106174 15.709580001057603 92 46 29 255
19.201352893789505 -19.854358114113509 15.854354823740465 128 85 68 255
18.986453831763271 -19.141622946420071 15.739546595551261 140 97 78 255
19.124308056356710 -18.571423387159697 15.832417036667977 129 88 68 255
19.350439961195434 -18.038327963000384 15.977230468371630 126 87 66 255
19.400179186305309 -17.433662144821312 16.018195750645319 127 89 66 255
19.538195208645305 -16.866084626939099 16.111103636926259 126 89 66 255
19.323176127420851 -16.151230137415567 15.996246801131392 122 86 60 255
19.284656182958713 -15.509668794818907 15.985262458969459 124 90 63 255
18.627991470962684 -14.604838670933873 15.610596918389660 119 87 62 255
17.794443998486543 -13.620272471283101 15.131943090051962 116 85 59 255
17.048926756729315 -12.668684177664716 14.705161106228800 112 82 56 255
17.098314756278938 -12.057981315155573 14.746003854737239 110 80 56 255
16.617502332463459 -11.215581918089455 14.475015722250504 101 73 49 255
-1.314245450418582 -0.621824250599317 3.980198913940143 76 62 31 255
-21.990196070177575 -28.240870994108249 -7.962878587251623 195 188 145 255
-16.768683988311182 -29.079918504106203 -4.883928996004045 218 183 160 255
-15.057639820601423 -28.869061301636762 -3.865998516077667 220 177 158 255
-13.697253818248925 -28.559686281620998 -3.054059130435320 213 170 150 255
-12.336350084149103 -28.258933438335958 -2.241972204352351 211 166 150 255
-11.941374690508439 -27.660304545714283 -1.996821969141308 201 161 141 255
-8.646367139160418 -27.992724290930454 -0.050221614627304 206 165 145 255
-2.801291746549168 -29.169225839013379 3.392034991693293 213 172 152 255
-0.206617411932569 -29.320975737497506 4.926932513741264 211 172 151 255
1.685638823379065 -29.257339859957497 6.049533684803237 205 167 146 255
2.963028259472765 -29.001062143568078 6.811304052329035 202 166 144 255
4.856590755108101 -28.959174138179137 7.934276725900929 206 168 145 255
5.871144002564705 -28.631624588240214 8.541597997281769 205 166 144 255
7.150046965093736 -28.400542833194393 9.303798494433096 203 162 142 255
8.429432284798764 -28.177490141604693 10.066135973922485 197 156 136 255
11.645747465015859 -28.634662536868461 11.963790831128890 194 151 134 255
13.278598448256815 -28.556871148630023 12.932918049320151 194 151 134 255
14.735954914447149 -28.427061562669422 13.799002075590764 192 149 132 255
15.225099732192007 -27.961351060712815 14.097498819340643 182 139 122 255
15.626349296195087 -27.467164427846029 14.344431510684132 170 127 110 255
15.939654741017392 -26.943687596962164 14.539786191449423 155 112 95 255
16.164967185754023 -26.390106232936049 14.683548897808180 140 97 80 255
16.390371313645574 -25.838045740997600 14.827337014995607 133 90 74 255
17.056615582489741 -25.451047306339120 15.229330216894724 129 87 70 255
17.634946708565053 -25.035273061995781 15.579754058238436 127 88 71 255
17.860769371668397 -24.490162359630133 15.723659010584953 124 85 68 255
17.910285588982987 -23.879510041865387 15.764289181940569 127 87 72 255
18.312684965768739 -23.404419152932675 16.011543213106222 141 98 83 255
18.627007849215147 -22.897830800028615 16.207181183069778 143 100 81 255
18.411970632447918 -22.187291185749316 16.092870869608461 138 91 73 255
18.285123153244058 -21.510117783526681 16.030206834598573 105 55 38 255
19.217586317297787 -21.250653526322182 16.587604465069660 139 88 69 255
19.708918935158266 -20.821275204588943 16.886712380215116 155 102 84 255
20.288748055785305 -20.430370899087578 17.237553876092463 145 97 77 255
20.162170044848807 -19.757645670671437 17.174961914602463 149 100 83 255
20.565614151800190 -19.299877688420125 17.422504613182696 144 97 77 255
20.792488464067674 -18.772178657946881 17.566697042631006 142 98 77 255
20.754318482608625 -18.136430425559851 17.555810628231796 142 100 77 255
20.539350528407880 -17.426949949055057 17.441508779344730 141 101 76 255
20.324304975920853 -16.716164552249722 17.327183309187689 140 100 74 255
20.639733827396839 -16.227867629682152 17.523121265794089 139 101 75 255
20.955279101168742 -15.741496716913375 17.719090863311749 137 100 74 255
20.651734754520589 -14.992149055081413 17.553025174175829 132 96 70 255
20.525026593641513 -14.317144071266469 17.490382707643448 129 95 70 255
20.221289734713935 -13.564561138065883 17.324258665849314 123 89 66 255
20.182959785355564 -12.926040847673548 17.313313760273132 120 88 65 255
19.613475191880383 -12.053672672115084 16.991907889218254 115 86 60 255
19.220856927460829 -11.256147425242247 16.773933621943272 113 85 58 255
-21.503161427382111 -28.517458047150001 -6.779977577755886 195 190 147 255
-17.328392769530609 -29.037565652762012 -4.330715011218643 217 182 156 255
-15.614605118945377 -28.826088464671287 -3.317536374707970 216 174 153 255
-14.164062125334198 -28.543430275770191 -2.458099523911358 210 169 148 255
-14.032668224021478 -27.856085333008039 -2.368212083347117 209 166 146 255
-12.757261289961093 -27.531987633959815 -1.611165523697338 201 160 140 255
-6.816723649603830 -28.706750230264248 1.866142565033584 207 166 146 255
-3.162727206294676 -29.179780164467005 4.009559531828273 212 170 151 255
-0.035642056965543 -29.503406685888763 5.845371017402385 203 162 142 255
1.947816108537239 -29.470231892558104 7.014135401433151 203 162 142 255
3.051247423283087 -29.157367863816148 7.669697093804501 206 165 145 255
5.300305317768078 -29.234631708794922 8.992878802739455 206 166 144 255
6.404782200545810 -28.939198736640762 9.648740657159834 207 166 144 255
7.333425816590818 -28.590699340928097 10.202011646384733 203 162 142 255
9.143836280946857 -28.550889236263274 11.268983878997020 197 156 136 255
11.836498099236366 -28.827839841157981 12.849795735301100 194 153 135 255
13.912941756513334 -28.905686469387973 14.071308734600663 196 153 136 255
14.490928242730689 -28.467878907580399 14.419687359303524 196 153 134 255
15.245548781817178 -28.096488465638075 14.870886797781694 187 144 125 255
15.471121895399023 -27.540103091938491 15.013869990779753 176 133 114 255
16.049740588633313 -27.112840030096137 15.362430676078645 158 115 96 255
16.187307063019574 -26.528426734004427 15.454093291867750 152 109 90 255
16.324932285018264 -25.944995653089805 15.545773108924251 150 104 88 255
16.815763723678714 -25.493362306146565 15.843076221215739 148 102 86 255
17.659995152162423 -25.176754508770003 16.346057940623240 139 96 79 255
17.974627146202295 -24.665954599073828 16.540665608891544 148 103 87 255
18.377716617753777 -24.190703506472005 16.786723854782238 153 107 91 255
18.692608348090403 -23.684235752617781 16.981406326592008 160 113 97 255
19.007621276555255 -23.179789345785764 17.176123688506848 163 117 98 255
18.969218643475500 -22.540063354426607 17.165158638197084 145 98 79 255
19.107607402526554 -21.969373068410093 17.257059035781268 151 103 83 255
19.688133827020550 -21.573920623188400 17.606168123807137 161 111 92 255
19.915146263154838 -21.041548383297197 17.749566626870546 161 112 91 255
20.496041141521658 -20.652236770799234 18.098781275690385 159 111 91 255
20.457896133638457 -20.016810433198899 18.087890744646415 160 112 92 255
21.039109240776753 -19.632802216505198 18.437196521826834 156 108 88 255
21.355044879418472 -19.143738703267374 18.632178781252946 155 108 85 255
21.582584217780294 -18.620148935312685 18.775728342952831 152 106 83 255
21.633148050429213 -18.024458941020782 18.816360187546863 153 108 85 255
21.595184767299628 -17.392063183513372 18.805521943048220 151 108 84 255
21.911457908104722 -16.908623413349034 19.000600748336169 151 108 84 255
22.050689161052418 -16.351977064915047 19.092742818903233 149 108 84 255
21.924185427865041 -15.682652933981004 19.030430620325731 143 104 80 255
22.063467862904162 -15.126858513287800 19.122587223177675 141 102 79 255
21.671033806688456 -14.341601866341222 18.905764893284555 138 102 80 255
21.633028700705466 -13.708507412413894 18.894914468766700 133 98 76 255
21.683666807876165 -13.114052016817553 18.935567198806297 128 94 70 255
21.556966983135368 -12.441457410590715 18.873198543742873 125 90 66 255
21.075445248818454 -11.610152494680335 18.604745537548411 118 86 61 255
19.529232339128015 -10.298963585318873 17.717975406837155 108 82 55 255
-19.164272770541743 -29.350717021628512 -4.529491563661963 193 193 147 255
-17.712513476077504 -29.048842293057689 -3.674424814893001 214 179 151 255
-16.260204927341846 -28.756139665675377 -2.819198560462553 214 173 151 255
-15.159751870133135 -28.363336732807397 -2.168111003854790 209 168 146 255
-14.499465597775696 -27.839612400857433 -1.772297039961444 210 168 146 255
-13.045721129323027 -27.570892832242919 -0.916653267259562 201 163 141 255
-0.791026871156021 -30.070571494291073 6.210974944840842 204 166 145 255
0.401526286783280 -29.771823494744822 6.914293358848226 200 159 139 255
1.770925541976283 -29.538456308164967 7.719947209471712 204 163 143 255
2.346912200087417 -29.050872771391354 8.065787713370611 208 165 146 255
4.334806514251795 -29.038544176547759 9.229479258229361 209 166 147 255
5.087990972545555 -28.622217094011873 9.677757631925175 209 166 147 255
7.430188919803328 -28.750840663404205 11.046295225509795 205 162 143 255
9.420140547068002 -28.772845078398674 12.210581539588773 199 158 138 255
12.382074729064783 -29.143193638452161 13.937512462581054 194 153 134 255
13.843815794642950 -29.007923823773226 14.795468090974339 197 156 137 255
14.422829800194791 -28.570894349251702 15.142187726527141 199 156 137 255
14.913721710508781 -28.106210795844007 15.437828314450059 190 145 128 255
15.581521183198419 -27.707930649942924 15.835821731862808 181 137 119 255
15.807695247930525 -27.154412230481171 15.978122859691013 174 130 111 255
16.033960194362692 -26.602421371406308 16.120451564073349 169 124 104 255
15.995091670006957 -25.954655665992817 16.109320183661993 173 128 109 255
16.663609528659322 -25.568399782160682 16.507525545033900 165 120 101 255
17.509259517568012 -25.252289479189400 17.008148003940022 169 124 105 255
18.001399273797631 -24.808492572975624 17.304156782547352 170 123 105 255
18.405252382173444 -24.334298605885081 17.549039313892266 176 127 110 255
18.632281040182960 -23.795112267178411 17.691595916022209 177 128 111 255
18.947902934615485 -23.291457757076529 17.885369590838522 172 125 105 255
19.086602453471983 -22.721179012424500 17.976789305881653 156 109 89 255
19.313894380817288 -22.186418253674233 18.119425851159676 172 124 104 255
19.895487852258469 -21.792556159338872 18.466905614104363 171 125 102 255
20.211587876508872 -21.296920152260029 18.660822217185043 171 125 102 255
20.882150687409052 -20.944869370332597 19.059628139381658 169 122 101 255
21.021347584640068 -20.382942476030635 19.151197795960471 167 120 99 255
21.249215786944688 -19.857848034873498 19.294006831187787 163 117 96 255
21.477168779864002 -19.334179177155306 19.436841642934368 165 117 95 255
21.882508039676310 -18.884889653751316 19.682166144957307 166 118 96 255
22.287996135689241 -18.438092690575374 19.927534719968108 164 117 95 255
22.427582320414672 -17.882716025060432 20.019223335352308 160 115 92 255
