ply
format ascii 1.0
element vertex 649
property float x
property float y
property float z
property uchar red
property uchar green
property uchar blue
property uchar alpha
end_header
-19.495655623750338 -5.743387239040203 -35.175996488214423 161 129 104 255
-20.988967181445389 -6.796711981987329 -33.414868372695537 165 124 106 255
-22.604134532080309 -8.082174522618374 -31.487123694026565 170 123 102 255
-23.957188524225927 -8.937274543153592 -29.906944450891700 169 121 99 255
-24.541251337480816 -8.469307543756713 -29.355942980871930 167 117 95 255
-25.166568322122288 -8.077544679410209 -28.748904099077322 165 113 92 255
-25.664059400607300 -7.464640986478429 -28.313126535420452 154 102 83 255
-26.287166510536565 -7.076944283508794 -27.707802827253488 130 77 59 255
-27.915497023945392 -8.490390232788627 -25.745908517001851 73 25 9 255
-31.585773111313102 -13.600327203601978 -21.022455055883142 161 118 100 255
-33.402495927301857 -15.427790216811303 -18.794342575526287 200 153 137 255
-34.337852414253973 -15.682560814942207 -17.754626028837492 130 77 61 255
-35.104182689677486 -15.639885691332609 -16.942164879771695 166 110 93 255
-35.248268108804041 -14.460392037726194 -16.972862198551212 192 139 121 255
-35.764654563820386 -13.964918984039116 -16.498480885039328 176 126 107 255
-35.992608656349944 -12.935338299964542 -16.416054712490620 179 131 111 255
-36.672152660714119 -12.748136967727532 -15.718998569364601 196 147 131 255
-37.309096044186418 -12.487211676988352 -15.079027388338858 196 147 133 255
-38.148182798461221 -12.614951470042683 -14.162118866109580 196 145 134 255
-38.537855682530591 -11.896304944700972 -13.858148565503882 189 141 129 255
-38.644053386126615 -10.634412082803692 -13.942269704912121 186 140 127 255
-38.832623236287020 -9.525195865697157 -13.914438204000930 173 131 117 255
-39.183337650335034 -8.726122515252626 -13.664724818353307 161 121 109 255
-39.494117064984323 -7.848413518011682 -13.470021051065714 147 110 97 255
-39.525288177342475 -6.420329942331023 -13.660395246434177 129 97 82 255
-39.359156308903778 -4.594666976176995 -14.123942537566336 100 71 57 255
-39.713301711918461 -3.789299358903179 -13.871583593241752 39 13 3 255
-40.583024091915576 -4.012895682951751 -12.906985105068458 17 0 0 255
-41.647433046265292 -4.638915585870905 -11.671272038538461 60 41 35 255
-41.762025769737136 -3.361618489153898 -11.748916922960433 75 59 52 255
-18.875844128441543 -3.622794794518768 -37.584785342865018 165 159 121 255
-20.793963055427184 -5.402559440005518 -35.241682548208132 169 136 114 255
-22.746001458170383 -7.271684342958935 -32.847920220043278 183 138 116 255
-23.969236455127998 -7.902203207027583 -31.433960797698973 181 135 112 255
-24.681003712459813 -7.652910999032486 -30.709299216274303 180 132 109 255
-25.306775590376645 -7.258363499938412 -30.100101909373421 174 123 102 255
-25.637325788058121 -6.344810163718790 -29.890548068128794 157 106 85 255
-26.010152815378973 -5.505206560205067 -29.623817599276776 129 78 59 255
-26.591890571831243 -5.039932558959549 -29.073151389277058 69 24 6 255
-29.545384710823214 -8.860179898790506 -25.293322083885556 97 56 44 255
-33.148178675552742 -13.913732880365728 -20.619900824735566 198 154 137 255
-34.869909647436799 -15.599882157853642 -18.502544496992442 140 90 73 255
-35.717265036225456 -15.708205771648977 -17.575323367292555 206 153 135 255
-36.068160224242519 -14.909044093748378 -17.325696126497832 200 149 130 255
-36.337184915284809 -13.957025568946790 -17.188320745031461 151 103 83 255
-36.729581436631804 -13.233250679264586 -16.882128174920808 142 93 76 255
-37.570525334284980 -13.353404611779354 -15.959914037669478 162 114 99 255
-38.205444851078624 -13.093904196405276 -15.319382567483956 197 147 136 255
-39.082105654442046 -13.300118637841024 -14.345120805210485 201 149 140 255
-39.551609099171230 -12.738000787922601 -13.930406240038053 196 148 138 255
-39.899676169898555 -11.944075961525300 -13.683004722363478 180 132 122 255
-39.966677358975545 -10.605046316027085 -13.824211240068081 165 123 111 255
-40.275909709760924 -9.730830971034692 -13.631308006500348 145 105 93 255
-40.425823474401113 -8.542751049314717 -13.659463410757866 141 103 90 255
-40.457684969961150 -7.116625575717933 -13.852294350827066 143 111 96 255
-40.451974829931487 -5.607876539737163 -14.098634926134338 123 94 79 255
-40.606938009785438 -4.410510781582730 -14.122875972697784 88 65 51 255
-41.157864306965934 -4.002139213863018 -13.596317949949707 17 0 0 255
-42.101139610039084 -4.389428110820518 -12.521781046874310 10 0 0 255
-42.374353198240783 -3.429784917667575 -12.381231324405832 8 0 0 255
-41.866371326697163 -0.872397355706539 -13.333940581222976 4 1 0 255
-21.369762483069394 -5.329521231891533 -36.039193413068915 184 155 128 255
-23.061473067003703 -6.756028791782029 -33.983296444958285 194 150 127 255
-24.450691177628812 -7.679527584499056 -32.335113639628588 190 146 121 255
-24.825219199323385 -6.837074740928159 -32.067323047444148 183 137 113 255
-25.535291328176811 -6.588218555692492 -31.341490102536284 176 128 105 255
-25.741972115336523 -5.449091305811919 -31.302765680480775 157 109 87 255
-26.116508549148421 -4.606606599041186 -31.034953371246417 129 81 60 255
-26.532771133147747 -3.838718384124320 -30.710052121039894 76 33 14 255
-32.529862860638247 -11.722438196800681 -22.964542190232919 211 172 154 255
-35.155471140066709 -15.063886645879620 -19.591266597402864 199 152 134 255
-36.453511968014254 -16.003973565161857 -18.038734260213232 199 151 131 255
-36.886098678117435 -15.357538066473296 -17.676567689197924 205 156 139 255
-37.114204235907266 -14.330446424454692 -17.596589520787546 167 120 102 255
-37.668929440563886 -13.913422395585826 -17.065541965824650 134 87 71 255
-38.506784872474185 -14.035119098331165 -16.141887331497969 145 96 83 255
-39.422872371419942 -14.315649609613502 -15.108139463661217 184 134 125 255
-40.053298190077442 -14.062135389833998 -14.468980250269709 186 134 126 255
-40.722452617278691 -13.888755810843975 -13.775079636211018 134 85 77 255
-41.028864245989723 -13.020379188881833 -13.584966905822768 73 24 16 255
-41.015782401766614 -11.528797015563299 -13.840368729271972 89 45 35 255
-40.925322843466091 -9.876815283108385 -14.205206486911464 132 90 78 255
-41.076205242175149 -8.689073977113480 -14.234576068315960 128 88 76 255
-41.387003142156402 -7.812635892063099 -14.041067557999270 101 65 51 255
-41.698238729990550 -6.935399926117668 -13.847226258331517 124 92 80 255
-42.009913970519960 -6.057363292391017 -13.653051412221998 114 88 77 255
-42.007893870920810 -4.545430919960950 -13.899870890127630 29 14 2 255
-43.338864090429183 -2.696757337969643 -12.763231997481711 1 1 0 255
-43.419817626576105 -1.334962741344668 -12.896304476727039 0 2 0 255
-44.275962106184323 -1.574637993648537 -11.933990427681721 0 2 0 255
-45.591718183098607 -2.785351435079349 -10.318744124305880 0 2 0 255
-20.975238870182949 -3.570163478785958 -38.167129894936522 187 164 131 255
-23.506182843975324 -6.461407221219332 -34.948624934675252 194 153 129 255
-24.807656580016612 -7.235762739430186 -33.410676823798781 194 150 126 255
-25.601714958218309 -7.131705240263614 -32.567088968358547 183 139 114 255
-26.310050525512452 -6.883368629860314 -31.840123598857133 175 129 105 255
-26.683713474397791 -6.042773003536894 -31.573250518299915 158 110 88 255
-26.850082151158546 -4.828552875397918 -31.592469188741489 132 85 65 255
-27.679763199937639 -4.809965764028959 -30.696199106986001 88 46 26 255
-29.249458135504483 -6.147928972177027 -28.774855769798108 46 11 0 255
-32.868787478341943 -11.265089588573431 -24.010745869621246 211 174 155 255
-35.238943473983142 -14.150507723640260 -20.967434006848976 197 153 134 255
-36.902343915130643 -15.769225259876720 -18.898375076009557 198 151 132 255
-37.661315480107078 -15.729872947602928 -18.082154468040869 199 151 137 255
-37.849000784362147 -14.627527645268827 -18.059869841159809 187 140 124 255
-38.362037123384965 -14.134635332644962 -17.584766990031937 158 111 95 255
-39.278339199207693 -14.409875057203067 -16.546314250226601 140 91 77 255
-40.151160803217550 -14.614123899503568 -15.566662128714484 157 107 96 255
-40.739884080569368 -14.284029740384256 -14.982775237077192 152 100 93 255
-41.527561323596473 -14.342947634442851 -14.119308238006312 111 62 57 255
-42.113160885963140 -14.018627049577731 -13.537869843135184 176 127 122 255
-42.020872197179060 -12.374354119638099 -13.908153213789291 176 132 123 255
-41.733022206435606 -10.334822304995271 -14.555379482115200 121 77 68 255
-41.805270122149906 -8.991857300241463 -14.697814673649589 63 21 9 255
-42.352682317567030 -8.586808257451651 -14.171070295554102 107 67 57 255
-42.938405693221455 -8.262300185665026 -13.589573187309611 120 87 75 255
-43.366085769265425 -7.624531127503417 -13.230879530982349 110 84 74 255
-42.660208672840483 -4.692942560859478 -14.477882086117489 16 2 0 255
-43.093950826215377 -2.531985187643329 -14.363086152682030 3 2 0 255
-43.873793873724793 -2.605465171541255 -13.505836037667223 0 2 0 255
-46.889090582392043 -4.301073419832505 -9.959252018803170 0 2 0 255
-47.427608349881794 -3.912569159092754 -9.439576954813333 0 2 0 255
-47.888912526423297 -3.364112102535273 -9.029904497721020 0 3 0 255
-47.703814848127067 -1.437633354967147 -9.547391265807278 0 3 0 255
-21.472685577698286 -3.351281364916417 -39.086662880939400 183 171 130 255
-23.324091969811718 -5.064154586041866 -36.784567683223997 191 159 131 255
-24.874685009283610 -6.276099946725338 -34.893676208513881 193 154 129 255
-26.127007496093029 -6.982426693924054 -33.412003753273524 190 144 121 255
-26.709698165187774 -6.510683946403759 -32.856227003934151 180 130 107 255
-26.835681280378253 -5.222255978416456 -32.934140886685185 162 112 89 255
-27.458916771376209 -4.826543311392868 -32.321506080774924 134 86 64 255
-28.245597524423687 -4.732654050215103 -31.480486574528726 97 56 34 255
-29.604889324548481 -5.694138238470146 -29.839699453427926 63 23 4 255
-33.046523101425748 -10.506846252794304 -25.288292176715061 154 117 99 255
-35.449716028602495 -13.464329043059138 -22.177468290915272 206 163 147 255
-36.904928653758930 -14.701378053501287 -20.386214175635246 196 150 135 255
-38.069749450366544 -15.418278896510174 -18.998033742083123 194 147 133 255
-38.501682428312591 -14.772129880097424 -18.635525115727290 188 141 130 255
-39.215671114153224 -14.661512806373992 -17.876454841420269 190 143 132 255
-39.927669073891991 -14.554571637144733 -17.118941678509657 157 109 97 255
-40.918347544631928 -14.989391933688296 -15.967504267825632 135 86 76 255
-41.545575754764684 -14.737167194713663 -15.326568327293330 150 100 93 255
-42.490136733124345 -15.106238527947824 -14.236339570029827 175 126 121 255
-43.033930808448389 -14.706269009628699 -13.710940812707321 177 128 123 255
-43.101351917089616 -13.375059666191959 -13.859786676362745 70 24 18 255
-42.973190757918132 -11.650475799825301 -14.287302665676236 86 40 33 255
-43.084349279146622 -10.389432973501727 -14.376822576780143 169 124 116 255
-43.354156116586736 -9.439078423250663 -14.241716586875640 141 100 92 255
-43.624642919595829 -8.487479654662167 -14.106089258681465 123 87 79 255
-44.012842827500819 -7.771250258635689 -13.802990466462148 59 32 25 255
-43.389866593872227 -4.998649985996622 -14.944382398028893 18 2 0 255
-46.080433472783369 -1.392547289731056 -12.617272044719385 0 2 0 255
-48.258622590398460 -4.463678297027968 -9.732702506412011 0 2 0 255
-22.013403810194632 -3.205903739792575 -39.949531038075435 186 171 129 255
-23.816978469087701 -4.843883794889337 -37.698574948155112 190 156 126 255
-25.030121266945088 -5.464538147314499 -36.266091399855043 193 153 128 255
-25.906774511300000 -5.502199833512293 -35.300600861445787 193 146 122 255
-26.077638782616077 -4.283939743886378 -35.320253105146179 182 132 107 255
-26.744696096816767 -3.955912741894792 -34.646071168946605 166 116 93 255
-27.533569121170956 -3.854560319629002 -33.800171268730594 139 91 69 255
-28.566152169453289 -4.206418063098624 -32.610779657932994 104 61 40 255
-29.635909839174985 -4.640163286767915 -31.366827093808922 80 37 19 255
-32.739319635647490 -8.845645429456539 -27.258337724039791 68 30 18 255
-36.070504798266484 -13.533746775773466 -22.818806980505911 215 174 159 255
-37.358721262963400 -14.467301166009236 -21.251088048279911 202 154 140 255
-38.156886289868879 -14.499282908425243 -20.372400368164733 201 153 141 255
-38.751229912977180 -14.154933652505520 -19.780523499350693 191 142 135 255
-39.585194503212165 -14.271346857091373 -18.848354970608909 177 128 123 255
-40.536527393307438 -14.622649977436993 -17.747950065133608 185 137 128 255
-41.564238103804854 -15.133994854564236 -16.536848208997355 168 119 112 255
-42.309528985405876 -15.113071936496226 -15.724995279898991 159 110 104 255
-43.092260521190298 -15.173554232041965 -14.858381623005585 146 97 92 255
-43.793437980753225 -15.083556936875539 -14.106517527116381 95 47 43 255
-44.177240300678847 -14.375308138657147 -13.806729038208516 182 134 130 255
-44.285867131945281 -13.121426461020803 -13.900533919550895 181 133 129 255
-44.396135403426541 -11.864524726221532 -13.993064985568225 164 116 112 255
-44.508046781584198 -10.604600823016398 -14.084321828129248 143 102 96 255
-44.582660706433217 -9.263023864469119 -14.230242758826478 105 69 62 255
-44.581518728593991 -7.760273376877620 -14.486389581573576 45 17 11 255
-44.040930175582034 -5.146132579073253 -15.521203722244593 24 9 0 255
-44.393447152372076 -4.345201902387885 -15.271444073346231 10 6 0 255
-47.792254671192524 -3.792479911715247 -11.647404818546192 0 3 0 255
-23.096633109783141 -4.013097658783011 -40.054381366736067 190 162 125 255
-24.934242117083357 -5.726096438388424 -37.739578585482292 187 151 123 255
-25.728326522266912 -5.611730621773233 -36.886459595641355 187 146 121 255
-26.231139266506091 -4.984008151460785 -36.441891941502973 189 144 119 255
-26.157051169867543 -3.319167571006915 -36.810026596582361 182 135 107 255
-26.865663217897861 -3.062265509706094 -36.075378432032323 166 119 93 255
-27.654357549824624 -2.957821105541711 -35.226446324545691 143 95 73 255
-28.644824644674003 -3.231637533275887 -34.090588162723606 116 71 50 255
-29.550468280114103 -3.361738088757988 -33.072710484537993 90 46 28 255
-36.893433329857544 -13.980670867765383 -23.172861362133091 220 185 167 255
-37.975239699294548 -14.536299333213435 -21.888068761848814 204 159 144 255
-38.610668602184404 -14.264316994191915 -21.236440584421331 209 160 151 255
-39.204506438086696 -13.918964975918186 -20.643164098505821 201 152 148 255
-40.276590074471983 -14.492541826043151 -19.365972018249181 170 121 116 255
-41.543706314046347 -15.456826853230211 -17.807127349767200 169 120 114 255
-42.606866423471274 -16.046880178665305 -16.536914220405521 201 152 147 255
-43.230297041415085 -15.797057243671986 -15.894674969544155 194 145 140 255
-43.654842275248328 -15.163645620833336 -15.537106773645178 193 145 141 255
-44.197164001464856 -14.763266581953047 -15.009959936114370 206 157 152 255
-44.856178993612858 -14.597920209346796 -14.314081635012855 186 137 132 255
-45.239651648710321 -13.890203051629413 -14.014479545070145 172 123 118 255
-45.467099663009549 -12.869928577550695 -13.940209417152232 167 118 113 255
-45.578845497681939 -11.612810145098877 -14.033912934790493 148 102 97 255
-45.575975614529739 -10.116843704750863 -14.294742249603530 122 84 78 255
-45.420943113497330 -8.301195644125812 -14.777889186672923 65 39 31 255
-45.885449971922256 -7.744241168231554 -14.363316752340211 19 8 0 255
-47.194068623464887 -8.932297118551134 -12.720434145603917 10 8 0 255
-47.999338506180024 -9.097640348349017 -11.806951170330194 2 6 0 255
-48.888446126261073 -4.905062782399057 -11.552327836090456 0 3 0 255
-48.632936270346534 -2.824599311035968 -12.191670902175616 0 4 0 255
-21.714028352978232 -2.025482628782072 -43.362624819765585 170 174 123 255
-24.258925302784746 -4.966400235905439 -40.038115057347198 197 165 132 255
-25.716542149199540 -6.020191835829223 -38.244243270092738 193 153 126 255
-26.343633632756337 -5.611560254902940 -37.623217188738693 189 147 123 255
-26.681743058084919 -4.687934387375208 -37.411352504207997 189 145 119 255
-26.733409911751664 -3.244627739375403 -37.606665381367606 182 136 109 255
-27.277462429048285 -2.689707917396163 -37.102893914825017 163 116 92 255
-28.146605733353738 -2.732889343918714 -36.135539807041738 148 100 78 255
-29.094247790545552 -2.930713306609505 -35.054455224495769 126 79 59 255
-29.755211273291877 -2.609295923054617 -34.380736185854545 90 48 30 255
-37.150852943266443 -13.370852456405686 -24.332015379142547 111 89 73 255
-38.511421066041748 -14.453961090537518 -22.640135951403238 202 164 147 255
-39.385986660057824 -14.636894599833539 -21.642346469679524 209 161 154 255
-40.018245281169186 -14.368460075832218 -20.991060333477378 156 108 104 255
-41.126244517450971 -15.019145552096120 -19.653707330320287 75 27 25 255
-42.547042927529020 -16.290629625488009 -17.862386628048625 142 94 90 255
-43.447628759013838 -16.575316678256314 -16.818083663822279 187 139 135 255
-43.753890691629678 -15.710462023400112 -16.631096496258067 207 159 156 255
-44.335600347728843 -15.385581846042669 -16.045523914630877 212 164 160 255
-44.955220996673091 -15.140502442155594 -15.404140520664413 203 154 149 255
-45.768581821744164 -15.286675203121746 -14.480407544062331 190 141 136 255
-46.112123779302294 -14.502808393251087 -14.238123470882499 186 137 130 255
-46.339443326168833 -13.484164655882410 -14.165245555180093 168 118 112 255
-46.451627008603168 -12.228739513461448 -14.260925630307639 144 93 89 255
-46.526891440757879 -10.891701802883063 -14.411658843845743 113 72 66 255
-46.950046286747650 -10.260470384691359 -14.054819299976515 62 36 28 255
-47.372923176580841 -9.629765641841004 -13.698209613194308 18 6 0 255
-48.903431645537097 -11.297936027738359 -11.716493511143852 8 5 0 255
-48.070466910802182 -6.545307894748731 -13.467618665752497 0 2 0 255
-46.955849100235156 -1.114474829002745 -15.648447268403800 0 2 0 255
-47.836393920582395 -1.436348917238320 -14.619987831254917 0 2 0 255
-49.326507440681425 -1.531937414198239 -12.958223202348421 0 3 0 255
-22.634476611619448 -2.538755760840388 -43.703802564466713 190 182 136 255
-25.045144810058531 -5.260278652157467 -40.546221564242728 204 166 137 255
-26.044954929456679 -5.506351262363296 -39.393330057294975 198 156 131 255
-26.507894826620657 -4.801168459362373 -39.004919249820603 193 151 127 255
-26.970513104687086 -4.096570957844335 -38.616752060615369 184 141 117 255
-27.188074761634937 -2.947890418323482 -38.579285405991698 185 139 113 255
-27.772783972293922 -2.466124184509624 -38.016093488710652 175 129 105 255
-28.315902600696063 -1.911720354094768 -37.511932319640067 152 104 82 255
-28.817794528079901 -1.284008171321148 -37.066518348938672 132 86 65 255
-38.049683590443465 -12.479963184394364 -24.836676674535852 213 187 166 255
-39.363255782931475 -13.491461461300702 -23.199756200354699 204 161 152 255
-40.671215146384640 -14.513323033057532 -21.567225172504209 84 40 35 255
-42.013146613299540 -15.621883507795985 -19.881616575567648 176 131 128 255
-43.349229737922613 -16.741243890312063 -18.200583246954523 162 114 110 255
-44.089354809086899 -16.719620309023185 -17.383279476873440 180 132 128 255
-44.552713270531910 -16.163053825757942 -16.967999316622723 212 164 161 255
-45.054636790033314 -15.684710976908207 -16.496054330834767 213 165 161 255
-45.711702976968880 -15.517615976680474 -15.796743818482042 208 159 154 255
-46.483608749373317 -15.586760783270933 -14.928097902934240 196 146 139 255
-46.943152935680445 -15.037266170459105 -14.515827858243370 183 133 126 255
-47.131847755624108 -13.941910104129249 -14.500960217922682 163 110 103 255
-47.206213965189505 -12.609390375581881 -14.655046535784379 145 94 89 255
-47.320844058170167 -11.351964308837410 -14.751145662919328 98 57 50 255
-47.398866265736032 -10.012721336904349 -14.902397915524091 37 14 7 255
-48.394034563952147 -10.566243670594673 -13.700146052808407 9 0 0 255
-51.248057755330606 -15.009346347486883 -9.745146239386116 4 1 0 255
-50.183234378037412 -11.297589068197027 -11.585533940982430 2 2 0 255
-49.618601011151910 -8.604809162047331 -12.690123613921486 0 2 0 255
-48.570461742209986 -4.862293543573855 -14.517506816247419 0 2 0 255
-49.896057551778867 -6.150605768145994 -12.818317744597977 0 2 0 255
-23.799801866261646 -3.489670603019533 -43.688142014322096 206 177 145 255
-25.624726445097622 -5.188093134249698 -41.348038203001806 208 165 141 255
-26.294379349243883 -4.846058385052231 -40.663284213738109 208 163 141 255
-26.758289374747136 -4.138622746824296 -40.273686819181478 203 156 134 255
-27.221877809645946 -3.431772209663109 -39.884332883600507 188 141 119 255
-27.725746426859416 -2.799595555799726 -39.436617791374886 177 128 106 255
-28.350493573938479 -2.391386721140748 -38.813804633901754 170 123 101 255
-28.489649001257476 -1.091110286997377 -38.892978543059087 161 114 92 255
-39.029412812370481 -11.739766756166972 -25.226176829070482 201 165 153 255
-40.770539199915532 -13.592846053965076 -22.951546387769582 120 81 73 255
-43.330663969496428 -17.063879155211112 -19.472507342029274 183 140 137 255
-44.031641876970767 -16.962068853328589 -18.709507671279425 101 54 50 255
-44.808939119541975 -17.017456360758331 -17.833120485272417 218 170 166 255
-45.115391540575985 -16.153559976544102 -17.647198638833146 212 163 160 255
-45.733562962456830 -15.906550040937276 -17.002678749662408 211 163 159 255
-46.311447315061116 -15.584878718916457 -16.416525200077302 207 158 153 255
-47.081428325438551 -15.653801878579600 -15.545884859444584 193 143 136 255
-47.502007638959043 -15.026377367284198 -15.190180312135539 176 124 117 255
-47.691728111079598 -13.930893258444087 -15.176147274182313 155 102 94 255
-47.997537052442027 -13.068239085951689 -14.990778817788112 126 78 71 255
-48.074659879079647 -11.733516284593009 -15.145385126775864 66 32 23 255
-48.344010149940473 -10.789151686823175 -15.015407185422106 20 4 0 255
-48.917624348518274 -10.475445082564221 -14.432667662497465 8 4 0 255
-51.873080795102965 -15.154349772599346 -10.295466126803149 3 3 0 255
-50.475910310144712 -10.728700381856527 -12.650378127863519 1 1 0 255
-51.157251236288758 -10.663298424021775 -11.902875699132238 0 2 0 255
-50.974935231425903 -8.764322614960918 -12.448441821480770 0 2 0 255
-50.273377933781120 -5.737337507070436 -13.776050027976623 0 2 0 255
-22.147909583155581 -1.009555739713846 -47.444703233674119 176 173 128 255
-24.345265893594387 -3.345831920256785 -44.556847674527688 209 173 145 255
-26.041396875825910 -4.823336886700190 -42.387312717121802 212 170 146 255
-26.873689645177535 -4.773434288658564 -41.464442114925362 212 166 145 255
-27.540870355827906 -4.433644315014931 -40.779471148323410 210 159 138 255
-27.882260439410004 -3.505904330537021 -40.566842076671492 196 145 124 255
-28.304878984370163 -2.725546593857700 -40.236289710391929 172 120 99 255
-28.808002300226349 -2.093908422572611 -39.788381046313361 157 108 88 255
-29.109715456242924 -1.090722461175915 -39.633958131588656 147 98 81 255
-40.796044664301121 -12.520816744086176 -24.456812527905555 175 138 125 255
-43.112332668499846 -15.529551557253114 -21.312723131262459 171 131 123 255
-44.517808161984746 -16.800253511866941 -19.506435566829254 135 96 89 255
-45.059758993297052 -16.394295601947874 -18.973772650361525 204 162 156 255
-45.756064120586075 -16.298085166532530 -18.211620679791139 202 157 151 255
-46.256776632672597 -15.819597155568999 -17.738415565500986 206 158 153 255
-46.795318418963419 -15.419954425568619 -17.208437988945633 201 148 142 255
-47.294367091975303 -14.944555351189962 -16.736549719357527 187 134 128 255
-47.869369070561206 -14.626296767160341 -16.150880596629094 173 118 113 255
-48.251920449376726 -13.919963154054216 -15.851704707789906 145 94 88 255
-48.672550410952965 -13.292018650441406 -15.495565226876067 92 53 46 255
-48.940902152538214 -12.350512396941042 -15.367308753759829 36 13 3 255
-49.020544235433135 -11.014027328470718 -15.522623045157701 14 6 0 255
-50.046043727706021 -11.648259392336286 -14.258357891138644 6 2 0 255
-50.088823144315455 -10.231184114961849 -14.469725591818815 1 1 0 255
-51.596932555324628 -11.907266248817677 -12.474524517956553 0 2 0 255
-52.237650295166873 -11.765156893884921 -11.783179469442160 0 2 0 255
-52.913934069606455 -11.706082519298661 -11.036842046241588 0 2 0 255
-50.838684212641553 -5.724760781264990 -14.454834269752752 0 2 0 255
-50.223715868687549 -2.845921832788520 -15.670209597832098 0 2 0 255
-23.234552281574651 -1.812683080108457 -47.548956616673877 198 184 144 255
-25.340874695590088 -4.004418979156981 -44.772545065949942 213 172 148 255
-26.663777966791827 -4.824658897979873 -43.132028581085137 217 172 151 255
-27.616010848656941 -4.994456699746365 -42.029232005289316 214 168 148 255
-28.241303514010951 -4.581384762140431 -41.402418011849392 211 160 140 255
-28.461870102690057 -3.432436455517404 -41.367496081566287 197 146 125 255
-28.965127923201436 -2.799726828847724 -40.918719244033696 172 120 100 255
-29.467825652234268 -2.168044667473225 -40.470374241816330 147 99 79 255
-29.969964708714372 -1.537388439597692 -40.022460973831045 124 75 58 255
-42.316609004073300 -12.852013006313143 -24.031860033384987 99 63 51 255
-44.304914666258583 -15.261626400258478 -21.347720073816561 178 140 132 255
-45.275128200253164 -15.694839332556086 -20.175771589972641 186 145 138 255
-45.971090907140677 -15.596224488114359 -19.411072582967620 194 147 141 255
-46.588006126784606 -15.346938658361410 -18.763275470675723 200 147 141 255
-47.203426001934389 -15.100422453674526 -18.116655823513213 191 137 131 255
-47.664181162524500 -14.546224615343107 -17.701151649360639 176 121 114 255
-48.124409314480914 -13.993010336242349 -17.286069360496469 158 103 98 255
-48.660216402616967 -13.596890882911168 -16.756815932185617 142 94 88 255
-49.081224511019869 -12.967800626202575 -16.399965860393706 85 51 42 255
-49.388519985356240 -12.103734674926869 -16.214670408611795 26 7 0 255
-49.394736190756547 -10.609067090404380 -16.485148760745886 18 12 0 255
-49.741457892213688 -9.820551321043638 -16.241510731798996 8 5 0 255
-50.537784889185218 -9.981695188196454 -15.315823185638919 3 3 0 255
-51.518079610278349 -10.544759835745708 -14.108592362223277 0 2 0 255
-52.978209937135375 -12.149984559839254 -12.168134397063312 0 2 0 255
-53.875005132719451 -12.570628923421907 -11.081315536156438 0 2 0 255
-52.587288452736956 -8.274127923492358 -13.327636342503524 0 2 0 255
-51.605168655855607 -4.599926606457643 -15.114686721198325 0 2 0 255
-24.969478020588610 -3.778430966440283 -46.693151238276357 201 183 149 255
-26.536565716054469 -5.027267462732482 -44.686768335914451 215 174 152 255
-27.651106859627703 -5.484275513798707 -43.340984567136616 214 171 152 255
-28.599870004315193 -5.655584251340088 -42.236363612736113 216 170 151 255
-28.981548261939992 -4.802710985605700 -41.965559561729094 214 163 144 255
-29.162613700511429 -3.580511583201542 -41.991041716139875 194 143 122 255
-29.385085182811991 -2.429797070403765 -41.956253097988480 169 116 98 255
-30.087650281024025 -2.167979895915721 -41.211428521245210 145 94 75 255
-30.350728693621022 -1.090221390553268 -41.116990052067564 102 57 38 255
-38.643764460980663 -6.044951741784871 -30.810183765772877 92 63 45 255
-43.867627718732592 -13.265066792514745 -23.546072688740082 180 142 132 255
-44.915401139885205 -13.845342833786390 -22.252495329674275 177 133 126 255
-46.228284378407380 -14.971754932295312 -20.556435490883871 185 136 130 255
-46.960151043162753 -14.951766452621087 -19.732971612585828 188 135 129 255
-47.689799867981890 -14.935882642540491 -18.911251199947912 174 124 117 255
-48.112398264898118 -14.303373228899687 -18.552709823210677 156 103 97 255
-48.686646744675940 -13.982655338061022 -17.964060699828991 128 78 71 255
-49.221784696435293 -13.586216678838184 -17.433889454308400 98 60 51 255
-49.680432800918723 -13.035128464424758 -17.019309353260041 77 52 42 255
-49.912825897867876 -12.014130144034539 -16.948964457728380 53 39 28 255
-49.171092090429696 -8.945153217187453 -18.365324914841892 13 8 0 255
-48.249641428399059 -5.468285295735882 -20.061645509519423 7 5 0 255
-50.913669377827020 -9.574121329541697 -16.277499321931344 3 3 0 255
-52.077344279022824 -10.532348419113276 -14.781914467230706 0 2 0 255
-52.902751883145797 -10.783649186790740 -13.801808354908417 0 2 0 255
-53.430045631962344 -10.401832062053870 -13.277899794439008 0 3 0 255
-52.852963735151377 -7.620744509572319 -14.454080878510268 0 3 0 255
-51.219001662938055 -2.500640053102359 -17.265329700464633 0 3 0 255
-52.119452801948171 -2.909366997719587 -16.170861967253927 0 3 0 255
-52.870845627692759 -3.001552878002371 -15.304508297767626 0 4 0 255
-53.656118660378695 -3.179156153857321 -14.383803748973833 0 4 0 255
-54.872870591585382 -4.335467584557193 -12.791128724531319 0 4 0 255
-26.329359572247995 -5.089127885589846 -46.366728358052114 204 179 148 255
-27.727258317920246 -6.049611072906572 -44.595877835079847 214 176 155 255
-28.433682055015311 -5.778036618753106 -43.845595128667696 213 172 152 255
-29.098124688028832 -5.436389832511168 -43.156358079690676 214 168 149 255
-29.320078384759853 -4.288410039221333 -43.123623162365504 212 161 142 255
-29.623094127752893 -3.285899227568223 -42.971036768298319 198 147 128 255
-30.205676212435634 -2.800221158255738 -42.402241707747265 168 115 97 255
-30.826940716714915 -2.390689767314996 -41.774965662755818 139 91 73 255
-30.892465129193852 -0.941204084281310 -41.977430764251125 78 40 19 255
-35.839828697706508 -0.954203584162997 -36.356643804425005 144 105 86 255
-44.795416618187716 -12.457026702859537 -23.989427784475254 173 132 122 255
-46.144304073571334 -13.655592687726028 -22.228696577159099 179 131 124 255
-47.105546823435816 -14.094144363499225 -21.053358967799227 182 132 126 255
-47.987053586440567 -14.384777164327915 -19.996834404426778 168 119 112 255
-48.599970555496469 -14.138303700768802 -19.347928051837187 134 84 77 255
-49.211397891887145 -13.894592887983038 -18.700198008391538 116 70 64 255
-49.745988017617435 -13.497612258953325 -18.169015205818880 33 4 2 255
-50.580010914436457 -13.728394958796798 -17.177897288394291 22 5 0 255
-50.699858734278081 -12.473868648943665 -17.281533966541105 31 23 10 255
-48.694479420301690 -6.731439280899963 -20.655871862339978 14 12 1 255
-49.308006284908799 -6.483925305364409 -20.006567871138543 7 7 0 255
-49.697620138777154 -5.764395850408789 -19.701724270749764 1 1 0 255
-51.454445851495436 -7.980851808062283 -17.283462455469135 1 1 0 255
-51.029245226541761 -5.519121566922479 -18.236763801285065 0 2 0 255
-53.839946367192525 -10.069511244008652 -14.175929614672953 0 3 0 255
-53.341519057027170 -7.447875891044589 -15.242983395148087 0 3 0 255
-51.608838747879332 -2.087534469869411 -18.234846419953215 0 4 0 255
-54.235769446972171 -4.763661581263761 -14.741134544039085 0 5 0 255
-54.282851074853554 -1.725292475748518 -15.268843789031251 0 4 0 255
-55.314332173387228 -2.477277456038678 -13.954270925558092 0 7 0 255
-24.989491636576247 -3.128747822030050 -49.739939053891106 179 180 134 255
-27.077003208233180 -5.309476782138688 -46.935840863565033 214 175 151 255
-28.268776833513016 -5.905559123610828 -45.460718653925312 217 176 156 255
-29.014334087216241 -5.706259741685756 -44.648785438200861 215 174 154 255
-29.597799807787396 -5.217411518317931 -44.077873088830756 214 168 150 255
-29.900929901889498 -4.215721511643324 -43.926153825915208 209 158 139 255
-30.483150112876785 -3.729154061102463 -43.356198007549153 195 144 125 255
-30.786728328806163 -2.726618514509084 -43.204111475461190 171 118 100 255
-31.288636027850202 -2.093912646480419 -42.754083252492137 129 79 62 255
-37.895684704930289 -0.637128217887664 -35.498263067228748 82 50 32 255
-44.032963674518527 -9.766372240995707 -26.727330304178167 50 25 13 255
-45.952771688799189 -12.109594865332411 -24.083002852799098 126 96 84 255
-47.255395564655657 -13.237073879915158 -22.378396437043023 147 110 101 255
-48.211557326897008 -13.679401332034985 -21.201836274025538 144 104 96 255
-48.975422256510569 -13.740757860644663 -20.318497435206609 130 91 84 255
-49.774441433830646 -13.884427733484245 -19.379114563923935 85 54 47 255
-50.233391180345109 -13.331140425994562 -18.962776368073435 23 5 0 255
-51.177578821847362 -13.795635873174035 -17.795635554510568 17 9 0 255
-51.745660728177896 -13.482504183160017 -17.208286964604468 13 9 0 255
-49.973615260689940 -8.216050134879993 -20.250591244897834 8 7 0 255
-50.270424216781919 -5.753849155686623 -20.389359080344150 3 3 0 255
-50.807155687152445 -5.351464561415014 -19.855157327687664 2 2 0 255
-53.468231883863723 -9.564834228727619 -16.002927531612443 0 2 0 255
-53.192495129430014 -7.424040424544756 -16.732566062203688 0 3 0 255
-54.777881297750014 -6.262986180893506 -15.149634902452817 0 6 0 255
-54.547510713230565 -4.185738631316212 -15.815324656137960 0 5 0 255
-26.187770114495777 -4.145880414955968 -49.651268872863824 198 185 148 255
-27.783605835927006 -5.457162329705056 -47.564471047207292 213 175 156 255
-28.811335852970984 -5.761679850078110 -46.326686630717631 220 177 160 255
-29.355941348547219 -5.196192725115509 -45.813633736912550 221 175 159 255
-29.859910481275477 -4.558888976638627 -45.361259493342857 213 165 150 255
-30.244187369854046 -3.702064944419533 -45.089208563578723 203 154 139 255
-30.786983554888110 -3.139888143036160 -44.577542521440051 185 136 120 255
-31.407914659729755 -2.727109312606387 -43.946946374977358 154 105 88 255
-31.752129793257609 -1.797393905250033 -43.735111920115656 124 77 57 255
-47.560815363020438 -12.688883037972630 -23.474271329837734 40 21 8 255
-48.741034717774355 -13.592928806021973 -21.943840171475387 60 36 24 255
-49.390604501228694 -13.421034913687777 -21.233113784637709 74 54 43 255
-50.038445106115674 -13.252347739331668 -20.523752690561651 50 38 26 255
-50.535366730885869 -12.774975135685793 -20.048058068613017 14 11 0 255
-49.432889529693085 -8.936651532632709 -22.066164865275681 13 9 0 255
-51.267528798574844 -11.275568464685080 -19.503704926298724 5 3 0 255
-50.839596890071775 -8.834902934426310 -20.473993678070741 1 1 0 255
-50.380114091200838 -6.305667427978165 -21.497875997053796 1 3 0 255
-51.504069179775541 -7.166901326584991 -20.040484186391666 2 2 0 255
-50.538369017639354 -3.516623311864691 -21.864971559327500 1 1 0 255
-52.461520432905942 -6.132747094011080 -19.146680717217066 0 2 0 255
-52.630462161595219 -4.939549860118348 -19.187778142721896 0 3 0 255
-54.792631552235179 -8.142288965100533 -16.080276149556624 0 3 0 255
-56.365482384130104 -10.083734449977669 -13.896172120925598 0 3 0 255
-54.961660886670373 -2.249754999866298 -17.045990091734467 0 5 0 255
-26.618665889065028 -3.787304548359998 -50.709494045857497 213 191 160 255
-28.409728330260066 -5.459645113997965 -48.313740338053577 217 174 157 255
-29.315050616621818 -5.545146934450372 -47.254223053634831 224 178 163 255
-29.819763619426737 -4.905656806647926 -46.800513528880884 220 173 157 255
-30.403196638266024 -4.413740339585956 -46.226726667395496 213 165 151 255
-30.708935879188743 -3.409278883855563 -46.074863471445894 196 147 132 255
-31.409325542165334 -3.140796166142593 -45.321838292951156 178 129 114 255
-31.715151368316072 -2.136156532326027 -45.169890410884676 146 97 80 255
-32.217420805520931 -1.501132827500896 -44.718049879581883 103 56 36 255
-35.877117683574227 -0.599698062259108 -40.683216295468895 198 147 130 255
-36.795238682948536 -0.807992121595362 -39.584398671799875 195 141 124 255
-48.709130279462883 -12.347330124146367 -23.564893518355774 27 20 4 255
-49.620848189660478 -12.714034564270946 -22.441944794225208 28 20 7 255
-49.375019704206082 -10.677477240752467 -23.130985136601737 21 17 5 255
-48.910587670870143 -8.165737496707862 -24.166485141222154 15 11 0 255
-50.042192793911724 -9.005308905849120 -22.696123541828769 11 9 0 255
-50.652782255957931 -8.756318943265313 -22.042721213194426 2 2 0 255
-51.261893393163547 -8.510078068451719 -21.390493131488455 1 3 0 255
-53.224766460376287 -11.183688575137239 -18.597390319709774 0 2 0 255
-49.701107702172706 -2.017036642358335 -24.482276227233484 0 2 0 255
-50.606045457628070 -2.396406779722838 -23.364766197977303 1 1 0 255
-52.994534174933065 -6.041887378794030 -19.887904756013398 0 4 0 255
-54.140778442449346 -7.001064716942210 -18.376999845888179 0 5 0 255
-55.822343740304461 -9.168922802878399 -16.008758068451527 0 4 0 255
-55.699932982902766 -7.344110494308211 -16.513730437347704 0 3 0 255
-55.210671833767009 -1.509266583887552 -18.241222455937930 0 6 0 255
-26.971856624199575 -3.284312279972426 -51.891666555386990 211 183 155 255
-28.876870428790767 -5.171889924845516 -49.306283346886147 220 174 158 255
-29.859875778827330 -5.401631981150956 -48.122635003041125 221 173 159 255
-30.483249700847807 -4.980514842081732 -47.486580111711135 220 172 158 255
-30.908068828757990 -4.195512395732351 -47.153767648540565 212 164 150 255
-31.214811270995568 -3.190223398784724 -47.002069785636479 194 145 131 255
-31.718259276274125 -2.552214678147664 -46.548557704481368 179 127 113 255
-32.260238840969009 -1.989151393699331 -46.035310927016610 144 95 78 255
-33.074211507191706 -1.946560073041837 -45.102189926946807 80 31 16 255
-33.380650987677313 -0.941799270298702 -44.950700087609960 22 1 0 255
-35.076521588891183 -1.023386217477650 -42.972141301574595 186 137 120 255
-36.343737405278432 -1.897109233047445 -41.329442461805343 198 145 129 255
-36.953338166592289 -1.501378085308374 -40.704117734505076 196 145 128 255
-37.332188819402489 -0.655111588289969 -40.436809731725333 190 140 123 255
-47.835336176843555 -6.239116680731343 -27.156861764273941 11 9 0 255
-48.859038786956148 -6.832137377697734 -25.852725501604624 10 8 0 255
-51.590979811923575 -9.530244793414226 -22.146952669404868 1 3 0 255
-51.247286061786284 -7.242338714512840 -23.007099902102880 0 2 0 255
-52.548162865893502 -8.492488919681222 -21.249561370834925 0 2 0 255
-50.937447329287323 -3.430483604544520 -24.136271840040450 0 2 0 255
-51.760385923266313 -2.056309558571968 -23.462338187880903 0 4 0 255
-54.697199756756788 -5.399215717098855 -19.389551293691710 0 4 0 255
-27.884439869330834 -3.794412689608066 -52.222593204020512 212 176 153 255
-29.345803333531819 -4.884390203156386 -50.300727625702223 219 172 157 255
-30.405737983743307 -5.258287364920818 -48.992168725567211 220 172 160 255
-31.225412594788082 -5.201428008990206 -48.051121597163842 219 171 160 255
-31.649944655197942 -4.416874124721119 -47.718458115230732 208 158 146 255
-31.917822296166861 -3.338644162309379 -47.628043267244067 195 144 131 255
-32.459750784708149 -2.774492295470736 -47.113739952434770 174 122 108 255
-32.961976328824193 -2.137912346414339 -46.660416059564085 114 63 48 255
-33.929025963499157 -2.391817532917628 -45.484335771022785 69 22 12 255
-34.428690025723881 -1.759958257054791 -45.033006952368282 150 104 84 255
-35.351745299461413 -1.949364541687487 -43.921267408511454 192 142 125 255
-36.156334753369720 -1.920320871876697 -42.991983222637145 198 146 130 255
-37.418034890492635 -2.796023314375589 -41.345992673974195 200 147 131 255
-37.719896488374786 -1.800740036752529 -41.199033144399976 196 145 128 255
-37.984359318254064 -0.728779561248075 -41.111255921786096 185 138 121 255
-48.657557358598950 -1.998364499200875 -28.445602487279274 5 7 0 255
-51.784591087769016 -7.153996310239222 -23.754645900759670 2 4 0 255
-51.082249736161444 -0.871181962733317 -25.858955479437071 1 4 0 255
-52.625961031735400 -1.080381091334289 -24.022281533987439 0 4 0 255
-28.517746107795688 -3.798093831673270 -52.979650242437458 213 173 153 255
-30.013718135885881 -4.959837137275656 -50.991456361690695 217 171 156 255
-30.952636183425568 -5.115112266526012 -49.862822487810803 220 172 160 255
-31.927529329081324 -5.349312812466508 -48.675767070954123 216 168 158 255
-32.273743576221079 -4.418568221803355 -48.464836686447029 201 151 140 255
-32.698273229403810 -3.633926924387367 -48.132089939244793 187 135 122 255
-33.083891194283154 -2.775763659662005 -47.860044066467509 151 99 85 255
-34.011670046034595 -2.951570231244830 -46.740088555133212 96 44 30 255
-34.820457152770842 -2.911004598717625 -45.804025557738811 186 137 120 255
-35.665231120803156 -2.949351052114594 -44.809539593654904 194 142 124 255
-36.315520325955049 -2.619996860437084 -44.118542307025479 201 148 130 255
-37.002524360649716 -2.368211992245961 -43.368553985731040 202 150 133 255
-37.802104906358949 -2.344647673814620 -42.439693374257672 197 148 131 255
-38.143326137707675 -1.423078613669020 -42.232627519457481 191 142 126 255
-26.784953264700277 -1.067558541870028 -57.088965424580579 155 164 114 255
-29.151330647859396 -3.801858487039851 -53.737043360994534 214 174 154 255
-30.681535363310161 -5.035324846230367 -51.682132203077742 218 172 157 255
-31.539698452995196 -5.044846194541208 -50.673371233509499 219 171 159 255
-32.473140153339784 -5.205341446970181 -49.544486180816847 211 162 151 255
-32.858937156121328 -4.347159120933554 -49.272589045762913 198 148 134 255
-33.361198108720487 -3.708893029364731 -48.817735088525183 169 117 103 255
-33.862899552317458 -3.071651131171734 -48.363310475069852 97 45 30 255
-34.749297195468017 -3.173993642725918 -47.301814221450428 197 145 130 255
-35.363891755215917 -2.763264045686981 -46.667228120187445 193 144 129 255
-35.977207769547135 -2.354891955269920 -46.033638973412081 195 147 127 255
-36.780064498255513 -2.321501423646112 -45.098714970891791 200 147 129 255
-37.390225924648291 -1.918953060963304 -44.467592115951902 200 147 131 255
-37.999114526632241 -1.518755854773531 -43.837465646616010 191 143 125 255
-38.379921902080696 -0.669743993910515 -43.569431495333532 181 135 119 255
-28.135434085311573 -2.369551564075834 -56.745736938139657 158 165 117 255
-30.294560086728438 -4.745247268118362 -53.693869564789907 214 174 154 255
-31.232070388206012 -4.893365159536131 -52.557292839599342 218 172 157 255
-32.088477145898821 -4.901986274005765 -51.546064973997716 216 169 153 255
-32.980966254351017 -4.988595653892844 -50.475646556191776 206 155 141 255
-33.483488281528480 -4.349040789983405 -50.019840623241436 183 130 114 255
-34.024028100905753 -3.783899236855859 -49.503329218166016 109 56 40 255
-34.679140284972931 -3.441062551814753 -48.804317009294920 181 130 113 255
-35.447740335029209 -3.322537032121886 -47.923655753160602 201 150 133 255
-36.023013986324372 -2.837865204375532 -47.349000612528840 202 151 134 255
-36.787729189976517 -2.726508450279312 -46.471373696774720 203 154 139 255
-37.398303282060738 -2.321274740902027 -45.838145203680909 206 155 138 255
-37.931894382294388 -1.768939895947028 -45.327046531905182 197 148 131 255
-38.276026299047487 -0.843315133381907 -45.118926566480724 186 139 121 255
-29.909659384316654 -4.463163535149022 -55.714945056369260 160 167 119 255
-31.433163856068859 -5.688162897055292 -53.645957853282084 213 173 153 255
-32.288983597482655 -5.693739554719286 -52.631362317596029 216 170 155 255
-32.948304942771244 -5.340874682337812 -51.926966653149691 211 164 148 255
-33.644728509870419 -5.063743133998059 -51.162238130447093 194 142 128 255
-34.185341191488021 -4.497292392615122 -50.644580891231726 148 95 79 255
-34.840321855436372 -4.152413638019311 -49.943553538694943 158 105 89 255
-35.493778515261397 -3.810342399525496 -49.243712136820932 207 154 138 255
-35.916822188594494 -3.028195956167622 -48.911896858917146 207 156 139 255
-36.605987900599530 -2.764432407300376 -48.152814033926660 206 155 138 255
-37.331300923310664 -2.578176436230194 -47.334155458909294 206 154 140 255
-37.903468459948726 -2.097682144104908 -46.760485720954307 203 151 137 255
-38.210941549201607 -1.096155384012718 -46.612954373956313 189 141 124 255
-29.376599482027586 -2.307241267276765 -58.336634760650497 163 170 122 255
-32.101481940275647 -5.763847166384778 -54.337281417897060 212 170 151 255
-32.916500159779218 -5.696741310949619 -53.382408386567306 217 170 156 255
-33.574768151125681 -5.343529586880209 -52.676712167792772 214 162 148 255
-34.077736645875945 -4.701531228786223 -52.219056199720086 187 134 120 255
-34.695110145230842 -4.279925563238123 -51.576971378390795 130 77 61 255
-35.272998474630612 -3.787336164837086 -50.997407233229296 204 151 135 255
-36.040249366568929 -3.664506261316262 -50.111502041716932 209 157 141 255
-36.615454526163859 -3.176859288899777 -49.534025422421109 208 157 140 255
-37.378819340246139 -3.061199020385800 -48.651154232619092 205 154 137 255
-38.026786192245424 -2.726963353441533 -47.953473538514032 199 152 136 255
-38.259657011163597 -1.576453648483039 -47.928540424246478 195 145 129 255
-30.017244588191460 -2.312230977698732 -59.101725886161887 164 170 122 255
-32.499383320102766 -5.334109556446037 -55.463895106511643 212 169 150 255
-33.351814927110780 -5.337664168909271 -54.444276130762887 214 166 152 255
-34.009634166941311 -4.982989321294554 -53.736806573512354 206 154 140 255
-34.780688234419586 -4.849759981871500 -52.844796453351506 174 121 107 255
-35.625758883133471 -4.866881958758995 -51.830912148040767 161 110 93 255
-36.049956146085322 -4.082473077048689 -51.498071899376157 213 162 145 255
-36.549863119844787 -3.445287709449929 -51.042031818298028 203 152 135 255
-37.049214190946316 -2.809121682247621 -50.586419934433081 200 151 134 255
-37.623312952228503 -2.321961136952496 -50.008365868995099 197 148 131 255
-38.083785540851522 -1.614058447433251 -49.615140616398492 185 142 123 255
-30.503967380436961 -2.029444956299244 -60.117074342688142 162 168 120 255
-32.976677921917883 -5.049080901904233 -56.468401722190833 208 165 146 255
-33.750983392927452 -4.906468987763901 -55.570716411711516 211 163 149 255
-34.370288808106039 -4.477474255339075 -54.923577891025190 202 149 135 255
-35.407032503574385 -4.852268344021354 -53.594295582131338 140 87 73 255
-36.363946071248165 -5.088175078259553 -52.392110614471903 202 152 135 255
-36.787861943598273 -4.304214650197082 -52.059424522922740 208 158 141 255
-37.136295880483090 -3.373328823155362 -51.850426308129215 198 149 132 255
-37.560305993190070 -2.589175428942553 -51.517648937678103 194 146 129 255
-37.946782189179658 -1.731174405665456 -51.246551137435489 185 138 120 255
-32.805681041475310 -3.537485201718255 -58.538702578821528 202 159 141 255
-34.419520966819618 -4.982330536260008 -56.262408310316459 206 158 142 255
-34.999845081649596 -4.480621657205972 -55.676654774939152 188 141 125 255
-35.957899564743116 -4.709183559206338 -54.468721916540403 159 109 95 255
-36.912497805998782 -4.944124450062816 -53.263489678885577 205 156 141 255
-37.261464203514862 -4.012933177373156 -53.054703225538219 196 148 131 255
-37.498292937941642 -2.860461064988897 -53.031629733933670 189 144 126 255
-37.698860648184763 -1.632155346469858 -53.069577994391551 180 136 118 255
-32.833127629906187 -2.387585661555477 -60.303628299638660 196 161 134 255
-34.556930085047327 -4.045080390859255 -57.831598449912917 199 151 135 255
-35.516248094116435 -4.266073384098149 -56.617823952683636 194 145 130 255
-36.509797414950469 -4.566261055409427 -55.344256744017542 199 148 132 255
-36.973692106763252 -3.850752009790313 -54.947161428857925 197 147 131 255
-37.324927164762272 -2.916035271697240 -54.737215640001324 190 145 124 255
-37.564589749959339 -1.760101518768806 -54.713567291273563 178 138 115 255
-33.321229626022756 -2.103920746539416 -61.319443963284272 184 169 128 255
-35.114674882024389 -3.904269860199918 -58.714525417970634 199 155 135 255
-35.845949854735522 -3.688882212398426 -57.874404480119296 198 149 135 255
-36.725218908573879 -3.768366126164267 -56.785093719383610 197 148 132 255
-36.928674343843966 -2.539049841532687 -56.824789226760885 188 142 124 255
-37.133502675049499 -1.307182310932888 -56.863395886422211 177 133 110 255
