ply
format ascii 1.0
element vertex 651
property float x
property float y
property float z
property uchar red
property uchar green
property uchar blue
property uchar alpha
end_header
-19.336583188031739 -5.641566108780623 -0.268031355832761 78 40 18 255
-19.302825007338491 -4.853767463307847 -0.485253729296574 64 32 11 255
-19.165559558993756 -3.835142588097966 -1.300036823596429 55 26 5 255
-19.338903757996235 -3.505573173920070 -0.322243129788092 36 5 0 255
-20.116164835077498 -4.539296180198335 4.141716598541052 205 170 150 255
-20.720879678030556 -5.206444528067919 7.610205248623430 199 156 139 255
-21.187564712912035 -5.577585885681501 10.282246388158654 204 157 139 255
-21.498974181773640 -5.606606726493609 12.058053222736731 204 154 137 255
-21.827646976444882 -5.685043613715820 13.933726019643217 202 151 133 255
-21.897539844451430 -5.171206247103015 14.315117232832904 194 143 124 255
-22.105471230795843 -4.982720141562581 15.493691795369074 187 135 115 255
-22.261661637896658 -4.678402627753584 16.373472699312458 179 129 108 255
-22.590384250446007 -4.788413090788339 18.249928346399315 153 102 83 255
-22.660349460445609 -4.289859102427869 18.631687901568114 126 78 58 255
-22.937344598462587 -4.291360335600586 20.209531010634350 181 134 116 255
-23.300602973858915 -4.510197075444864 22.285967846453786 201 155 137 255
-23.681118646648088 -4.782217575852300 24.462366695047706 204 158 143 255
-23.785649508745138 -4.388663815909339 25.044004676816371 200 152 138 255
-23.907449643475964 -4.040675058468281 25.725410493383549 193 144 130 255
-23.908529559201028 -3.396085818979131 25.708967286705587 180 133 117 255
-23.926883880361942 -2.794324480406516 25.792221972207045 160 114 98 255
-23.945264005547308 -2.192781795950452 25.875476482720615 139 97 76 255
-23.877434788254689 -1.373003625563058 25.460102792646609 127 88 62 255
-23.809637194187481 -0.550698112900747 25.044658610454320 108 75 48 255
-17.386681196358758 -22.364417846110939 -15.293821778898348 202 169 149 255
-18.134759214221084 -22.928186899267288 -10.937680692738184 206 168 150 255
-18.474949760038434 -22.791754922944151 -8.967523411146772 211 170 151 255
-18.713175140401418 -22.483516984078534 -7.593781988222474 207 166 146 255
-18.917418124035898 -22.121429280811171 -6.418761213250889 204 161 142 255
-19.036694535739500 -21.610949967649546 -5.740885857894909 199 157 135 255
-19.121991169199049 -21.041757961888251 -5.261853986485448 201 156 135 255
-19.275277828544397 -20.601303420524957 -4.384857444443583 201 157 135 255
-19.411580002770030 -20.133907032838778 -3.607223128583428 195 153 129 255
-19.513903848622803 -19.606703241960417 -3.028460137841705 192 150 126 255
-19.565256103370025 -18.985748041362584 -2.748104812405415 191 149 125 255
-19.582632628616459 -18.301199866844684 -2.666716557589098 186 144 120 255
-19.651005169420266 -17.715735815247626 -2.286791935038821 181 139 115 255
-19.668409083985104 -17.032997989779062 -2.205364186389431 179 135 110 255
-19.702821292924462 -16.384151201012202 -2.024404733538915 172 128 101 255
-19.720254469287639 -15.702660073143790 -1.942952073602328 166 122 95 255
-19.771689849074164 -15.089525548223335 -1.662418398654893 160 116 89 255
-19.840133504640768 -14.512150995276755 -1.282306027932691 155 111 82 255
-19.908592170798123 -13.936861031859067 -0.902144547520493 154 110 81 255
-19.926087519889549 -13.259405276816182 -0.820604099819661 151 106 77 255
-19.977585153506595 -12.652438023283281 -0.539929056207313 150 105 76 255
-20.012106783230657 -12.011708520757821 -0.358789576996116 151 105 76 255
-20.063637974464527 -11.407515437141399 -0.078052163744019 152 105 77 255
-20.064210208796254 -10.697351782647701 -0.096032398799252 154 107 79 255
-20.064801398374080 -9.987073186891507 -0.114019690370014 157 110 80 255
-20.150370018564359 -9.458509346614065 0.365973838344644 157 111 78 255
-20.134007866911283 -8.712691257887045 0.248401318420918 145 99 66 255
-20.168639807450205 -8.076918387136161 0.429641165344037 137 92 61 255
-20.135327952020688 -7.293369903840315 0.212427535339998 126 80 53 255
-20.186991277242015 -6.695827478226235 0.493303109178498 110 65 40 255
-20.153722900520165 -5.911154169519662 0.276051642099787 90 47 26 255
-20.137467700309543 -5.163218910162342 0.158402383666441 73 35 14 255
-20.121235552758108 -4.414565194010393 0.040729994851858 59 22 4 255
-20.359868921036920 -4.243127614928298 1.417821074521498 132 95 76 255
-20.989267793644835 -4.971473742450627 5.087259077882493 202 161 143 255
-21.448778645451952 -5.328937454940004 7.760533372022081 198 153 135 255
-21.823353240620470 -5.504104618203485 9.935803167957005 201 154 136 255
-22.096008093055083 -5.453298834993163 11.513285291321608 203 154 137 255
-22.368676260934819 -5.410940033018178 13.090976855882644 200 149 130 255
-22.488470322825108 -5.015636131773675 13.771634082451868 194 143 124 255
-22.591297069906275 -4.583465522456365 14.352675784409314 183 130 112 255
-22.728118121176713 -4.235696970209588 15.133203641567036 172 124 102 255
-22.966876920319407 -4.137821696650519 16.512116601959491 157 111 88 255
-23.052776950585042 -3.676131377925344 16.993718568247516 143 97 74 255
-23.478410685944297 -4.047098235733827 19.469942412295609 142 98 79 255
-24.022946467098720 -4.723842393783855 22.644645667587582 202 159 142 255
-24.431604048013753 -5.081260236564844 25.021842167565353 203 161 145 255
-24.534550429554635 -4.689571463750582 25.603875337993742 204 158 143 255
-24.586567116253761 -4.173055281026194 25.886710342042790 195 147 132 255
-24.587658504440270 -3.529255378847253 25.870284458465107 181 134 118 255
-24.605760822918626 -2.928281439684639 25.953614335438147 163 118 102 255
-24.657855495414893 -2.414355135141562 26.236497309590533 143 102 84 255
-24.557138814506374 -1.508544868161792 25.621353177344503 128 90 67 255
-24.541364678433062 -0.818915146158020 25.505064049166066 108 77 49 255
-17.390898071162312 -21.067445150374709 -19.833765992120846 199 175 150 255
-18.578956637102927 -22.426335733196709 -12.789054169395911 204 169 150 255
-19.181469278884649 -22.767855822084059 -9.225849752008628 212 175 156 255
-19.499580852587599 -22.611462386060353 -7.353759330644266 211 173 154 255
-19.683863211477259 -22.219712169293146 -6.277514968138007 209 169 149 255
-19.734318913909178 -21.586130087573991 -5.997280018984611 207 165 145 255
-19.818245431605590 -21.016644212223383 -5.517954357065207 205 162 142 255
-19.969101228748457 -20.575886326055908 -4.640431089504318 204 162 140 255
-20.136697561714968 -20.171747470647915 -3.663248673719579 203 161 139 255
-20.203930467535265 -19.580687525221677 -3.283214224782114 201 159 137 255
-20.220989472853262 -18.894804223854038 -3.201789739592925 199 157 135 255
-20.171147238764547 -18.079077118954174 -3.518597076842809 195 153 131 255
-20.288608187711567 -17.590275120199550 -2.839777650415272 190 148 126 255
-20.355896783380324 -17.005823405413182 -2.459589303624284 183 139 115 255
-20.439928481720898 -16.456877929826575 -1.979770349894352 175 131 106 255
-20.473789991864344 -15.809574288180826 -1.798651045718259 167 122 98 255
-20.507667524805932 -15.163288749056051 -1.617509667238835 162 118 91 255
-20.558289466874797 -14.552221205295837 -1.336745215834014 154 110 83 255
-20.608927907697549 -13.942698429290601 -1.055945553695096 150 106 79 255
-20.626127987307115 -13.265222360022022 -0.974340710598085 149 104 75 255
-20.660073530962720 -12.623214372307316 -0.793106738972654 148 103 74 255
-20.694037147081481 -11.982191692576805 -0.611851968098961 148 103 72 255
-20.728019249361893 -11.342147459900772 -0.430576661408963 149 102 72 255
-20.745293414175315 -10.667249439210664 -0.348923288192168 151 104 74 255
-20.745860703611612 -9.956680650232983 -0.366912621873496 155 109 76 255
-20.846807022809671 -9.464180598342054 0.213025674262383 158 112 79 255
-20.864140825391800 -8.791614270582315 0.294724559729104 152 106 73 255
-20.914947523931254 -8.193261299980705 0.575768059036136 141 94 64 255
-20.882146312437563 -7.410505675672013 0.358462112823929 131 86 57 255
-20.899544824106556 -6.738853430061098 0.440169755167688 117 71 46 255
-20.900240563389801 -6.029864158445150 0.422191896787524 103 58 37 255
-20.984584109264055 -5.510637968000353 0.902689482050562 81 38 19 255
-21.068948685936434 -4.993938206887407 1.383245962074568 69 28 10 255
-21.370750648198992 -4.980614475336267 3.160100120127197 200 158 141 255
-21.856530545967054 -5.403615689948410 6.034084455661628 201 154 136 255
-22.275422633859996 -5.685838610327707 8.509559109227723 200 152 134 255
-22.577260278064117 -5.706014480603883 10.287247647643909 199 150 133 255
-22.828942338420198 -5.616894631596679 11.765958341732954 200 151 133 255
-23.114085320170908 -5.615442551421353 13.444354543481666 196 145 126 255
-23.148407204384249 -5.020693052854597 13.626693928400130 189 138 119 255
-23.216198004297013 -4.507637816296338 14.008566881867409 180 127 108 255
-23.250569445991673 -3.915117836634209 14.190951426094841 164 116 94 255
-23.502342596108747 -3.855983151450332 15.670395963218510 153 107 84 255
-23.553481649470804 -3.309881778869197 15.952680078072348 137 92 69 255
-23.922334396408736 -3.553802261334781 18.130936199093696 121 79 59 255
-24.525277328122684 -4.394317361918368 21.706591419814345 202 162 144 255
-25.027900570178545 -5.001798554033414 24.683929722525306 202 160 144 255
-25.145986017502331 -4.651850342347657 25.366102838237140 204 160 144 255
-25.230656673344505 -4.220219767296271 25.848730786964865 199 152 137 255
-25.265197349413235 -3.662399189825948 26.031950518623262 188 141 125 255
-25.283048120554355 -3.062210946653138 26.115355444147752 171 124 108 255
-25.267493633037908 -2.375416166005266 25.999089306982000 151 108 91 255
-25.168387164636954 -1.469314642826419 25.383583895341360 132 91 69 255
-25.119466753974137 -0.691467959222464 25.067526286431502 111 76 50 255
-19.773245147756022 -22.532890278902229 -10.181188447172985 211 176 156 255
-20.217982010266411 -22.617718036898339 -7.511520961254632 214 177 158 255
-20.316978896240556 -22.072435223037161 -6.932481168732750 214 176 157 255
-20.317202935046232 -21.344579748823591 -6.950829659037709 211 170 150 255
-20.449152552750199 -20.866626118518056 -6.172503987363029 211 168 149 255
-20.597578391767243 -20.424485582239882 -5.294481328169582 210 167 148 255
-20.778944335658394 -20.050738602078027 -4.217143254465157 209 166 147 255
-20.795685212551930 -19.362435933813657 -4.135709664361741 208 165 146 255
-20.861831764126187 -18.771596946864818 -3.755430857903093 207 164 145 255
-20.895065829139156 -18.117712370404902 -3.574339082110555 205 162 143 255
-20.994168888147485 -17.596292307991135 -2.994722687642650 199 156 137 255
-21.043896982825096 -16.978689669606084 -2.713926051607473 193 148 127 255
-21.159493598192647 -16.496236051413504 -2.034537200846444 183 138 117 255
-21.192790533764700 -15.849180120722096 -1.853287564138213 174 129 106 255
-21.259030242542366 -15.271010494694877 -1.472710711126069 162 117 94 255
-21.259436082103676 -14.558114993710930 -1.490723051498378 154 109 86 255
-21.309248091572130 -13.948566754144750 -1.209742363448640 147 103 78 255
-21.309691054536444 -13.236325661833149 -1.227746411592364 140 96 69 255
-21.310153526083546 -12.523996957713720 -1.245756950787609 139 95 66 255
-21.327097992936203 -11.846856923769650 -1.164087470538220 139 94 65 255
-21.376986182169674 -11.241261304155557 -0.883024154266195 140 95 64 255
-21.426894130985019 -10.637176448612493 -0.601927198952467 144 99 68 255
-21.460360843726676 -9.998502345176988 -0.420504152512592 148 102 69 255
-21.526770966538173 -9.433511174109469 -0.039633436247186 152 106 73 255
-21.593201655628526 -8.870549778738564 0.341283790365480 152 106 73 255
-21.610271080408211 -8.198901182978091 0.423063864334495 147 102 69 255
-21.643823795073267 -7.564820547733078 0.604583491656285 132 87 57 255
-21.628018523354498 -6.819335916620716 0.486896941975999 118 72 47 255
-21.628698002609930 -6.110863034065773 0.468935640573136 98 53 31 255
-21.744620284799247 -5.668111141235812 1.149251056763660 73 30 10 255
-21.975780030319378 -5.496751161847016 2.527986938765480 161 118 99 255
-22.388008108428188 -5.756558335661822 5.004362913328180 199 153 137 255
-22.800247345298615 -6.029701113213676 7.481071709556602 199 152 134 255
-23.097287646826942 -6.042710422715444 9.259634622849774 204 154 137 255
-23.295593663868033 -5.829235412262904 10.439696779702501 199 148 129 255
-23.444544958340856 -5.503221566906902 11.320523510758250 196 145 126 255
-23.626432506333764 -5.261620515666323 12.401069247601839 192 141 122 255
-23.742511158219990 -4.865151245112557 13.082513896494589 184 133 112 255
-23.792785400581593 -4.310554669888390 13.364774533512048 176 124 103 255
-23.925368235729998 -3.960801077646977 14.146184128610457 159 108 87 255
-24.090886026120238 -3.697060610941094 15.127353249316968 149 103 80 255
-24.124779725456087 -3.108603679858760 15.309944961220424 132 90 66 255
-24.356164904085631 -3.019040643221629 16.690687771046441 108 67 47 255
-25.114123981921622 -4.273707174495982 21.266863675577383 193 157 138 255
-25.575894087724848 -4.796184984558892 24.046208413103471 199 160 144 255
-25.774406072443455 -4.656443746594306 25.228079057985383 204 161 145 255
-25.874216603869620 -4.267367427240643 25.810867231335777 202 155 140 255
-25.924693363770402 -3.752650753720573 26.094085984038827 191 143 129 255
-25.991651231832847 -3.282389155288186 26.477217920782380 176 129 113 255
-25.976376747162270 -2.596926907261377 26.360923735024670 159 116 99 255
-25.977587234209103 -1.954266981187928 26.344500331637363 135 94 74 255
-25.880124544328069 -1.047525220433528 25.728617488273130 117 83 58 255
-19.251522017067174 -20.217149632674321 -18.010940966727560 202 169 149 255
-20.563786072568050 -21.924198932664737 -9.960594806685663 217 181 162 255
-20.839334044259800 -21.710350080040556 -8.285429363995547 214 177 158 255
-20.985304071646055 -21.257940638274633 -7.407125042178848 217 177 157 255
-21.196081383250096 -20.935323719367645 -6.130129894063657 216 173 154 255
-21.390672745770431 -20.588202470770298 -4.952611223912982 214 171 152 255
-21.520483343499222 -20.120438075308201 -4.173559182236602 213 170 151 255
-21.520721100750691 -19.400612015744400 -4.191708818104757 213 170 151 255
-21.553371251814212 -18.745389029554019 -4.010522335755297 211 168 149 255
-21.586037358270858 -18.091213545277029 -3.829313025146234 209 166 147 255
-21.699710134797350 -17.602346344503005 -3.149662522114568 203 160 141 255
-21.748606879153776 -16.984719278538421 -2.868683752835580 197 155 134 255
-21.862311935818624 -16.502231744841382 -2.188879952417153 186 144 122 255
-21.895044994633970 -15.855152801748986 -2.007506942910936 175 133 111 255
-21.960191313784200 -15.276955216149119 -1.626690443987002 165 123 101 255
-21.928171184199037 -14.495636723227122 -1.844131956214881 156 114 90 255
-21.993354881688063 -13.919993912658541 -1.463259443397419 148 106 82 255
-21.993769049815171 -13.207462672630257 -1.481264456556005 142 98 73 255
-21.994203848972724 -12.494843303603247 -1.499276220505351 137 93 66 255
-21.978463014629931 -11.746847780495244 -1.617040061927298 130 86 58 255
-22.043727138147190 -11.175964990067158 -1.236065555200241 130 85 54 255
-22.141404715330282 -10.678774082000785 -0.655526658643339 128 83 52 255
-22.222906361498545 -10.148615521566697 -0.174679221264626 135 90 57 255
-22.288233054309053 -9.584672584378154 0.206456008504290 150 105 72 255
-22.304994261555031 -8.912866173569512 0.288299867158344 153 109 74 255
-22.321779083126671 -8.241461432944092 0.370148633428300 147 102 69 255
-22.338588011899830 -7.570450736740753 0.452002007248439 137 93 63 255
-22.371616620989016 -6.937267942115156 0.633659416323042 125 81 53 255
-22.388474997178434 -6.267292313437650 0.715527943571033 99 54 32 255
-22.518720890874604 -5.863563289465503 1.496094231811128 92 47 26 255
-22.810931920346711 -5.846510451590049 3.274962913592788 207 160 142 255
-23.216517839259609 -6.108672920684015 5.752858182466866 200 151 134 255
-23.573535332910367 -6.267790103319001 7.931583861980528 200 150 133 255
-23.768633047892230 -6.047971454084106 9.112191780221963 201 149 130 255
-23.947558069109625 -5.795108649797228 10.193105604295084 197 145 126 255
-24.029347707370228 -5.310352879212033 10.675031221005582 191 139 121 255
-24.159740007464436 -4.947715060064638 11.456598413030036 187 136 115 255
-24.176811469239610 -4.308146100536177 11.539184563393860 177 125 104 255
-24.339637279449036 -4.032652911102588 12.520649956168910 166 114 93 255
-24.453911826886717 -3.640264600043608 13.202593783888545 151 101 79 255
-24.600593496124262 -3.333341754273150 14.084399396639014 135 89 66 255
-24.650155792664698 -2.783640648599217 14.366939612081580 115 75 50 255
-24.845458358889701 -2.608837354935943 15.548634245065642 93 56 34 255
-25.348387251391209 -3.234021055899504 18.628768825473855 140 108 87 255
-25.997024852318354 -4.254196031786648 22.608569937252980 201 164 147 255
-26.240938374380782 -4.237825574770326 24.090817326249578 205 162 148 255
-26.322986943608832 -3.803393852603506 24.573951237407613 203 156 143 255
-26.486002995065938 -3.585694634841346 25.556827827677466 194 145 131 255
-26.584293009514369 -3.200576529020822 26.140049755676785 181 133 119 255
-26.650236940795928 -2.731582359916800 26.523436440788970 162 116 101 255
-26.732397267134303 -2.308113409772304 27.006821403984588 139 96 77 255
-26.636542925828863 -1.403530245043015 26.390639283456153 124 88 64 255
-26.637841980712039 -0.760678642981048 26.374191592105603 102 69 46 255
-20.156861107255935 -20.525303960813389 -17.178021140564113 201 168 153 255
-20.523442522483492 -20.470217108484945 -14.904364770985808 208 175 158 255
-21.240568712807672 -21.102811370879579 -10.437271098111751 211 178 159 255
-21.623106951685187 -21.109431057550481 -8.063152571849002 213 176 158 255
-21.846325657494184 -20.816653904324880 -6.685723678041654 214 175 155 255
-22.005825558996811 -20.405404664790026 -5.706940269496044 214 174 154 255
-22.181273022886487 -20.031305611634949 -4.628310047396383 214 173 155 255
-22.229271322810682 -19.406780562623140 -4.347307206457117 214 173 153 255
-22.293218809573567 -18.816159355483009 -3.966539526413328 213 172 154 255
-22.357182862811925 -18.227663681922479 -3.585722049306924 210 169 151 255
-22.468962075067303 -17.739840860352146 -2.905629046009437 203 161 145 255
-22.517027644432268 -17.123266970901938 -2.624441089646098 202 159 140 255
-22.628841319573041 -16.641823125799192 -1.944195286135994 187 144 125 255
-22.661010614687157 -15.995798901155794 -1.762671833115348 179 136 116 255
-22.693199097131092 -15.350791549591477 -1.581127032328425 170 128 108 255
-22.645746530261405 -14.535797030645412 -1.898441247932055 160 118 98 255
-22.662043503051407 -13.856986074132863 -1.816671444757674 153 111 89 255
-22.662429568929788 -13.143893741719410 -1.834684387080472 143 101 76 255
-22.646905695733871 -12.395703752109981 -1.952500810033769 135 93 68 255
-22.615472903712345 -11.611599496830678 -2.170141468497604 127 85 57 255
-22.695583228122722 -11.075153916352846 -1.689146254778052 124 81 52 255
-22.791646335784101 -10.577116416635519 -1.108273750038620 120 76 46 255
-22.919593064404751 -10.154378989949677 -0.327679955646090 131 86 56 255
-22.983837786346861 -9.590402867581645 0.053692278585004 147 104 71 255
-23.016244502405144 -8.955198185679578 0.235435559253631 146 104 71 255
-23.016814947501167 -8.247137003848422 0.217508576430816 145 103 72 255
-23.097062016961736 -7.724774947198242 0.698827809137413 134 93 63 255
-23.177333139722855 -7.204960801956062 1.180205812286317 114 70 43 255
-23.241699050414795 -6.649977676474052 1.561777502559721 84 38 16 255
-23.401666756140237 -6.324868408941498 2.542623750380415 189 142 122 255
-23.848381471131731 -6.693501393176547 5.321410102268430 202 153 136 255
-24.183606907027126 -6.807450045346840 7.401372113206008 202 151 134 255
-24.327705978991894 -6.467070587386971 8.282904289207124 202 149 133 255
-24.312545944305320 -5.740739674906649 8.165557453185500 199 146 128 255
-24.520407219869114 -5.564325200628701 9.446869325578149 196 143 125 255
-24.600869024543179 -5.077904415298548 9.929044965943575 189 136 116 255
-24.760994252574690 -4.793344524670630 10.910876051785181 183 131 110 255
-24.777800955019686 -4.152658877933234 10.993492326549131 170 118 97 255
-24.826491394878346 -3.593109737039029 11.275976600949775 155 104 83 255
-24.922990041401029 -3.157004022192737 11.858310411930859 140 90 69 255
-25.130997080249777 -3.010614260208953 13.140345103327377 124 78 55 255
-25.100145484695602 -2.252547582434829 12.923231305164649 108 66 42 255
-25.101178821041714 -1.576125229876297 12.905998011312249 93 57 34 255
-25.930323305397714 -3.071685322035123 18.087092732467539 64 33 12 255
-26.456897974949300 -3.796339141490492 21.369367111629060 205 169 152 255
-26.808316539642483 -4.073141880055900 23.552282316787569 202 159 146 255
-26.889054527317505 -3.637578840843389 24.035675877120127 203 156 144 255
-27.097203996772492 -3.547324598885211 25.319090580092734 196 147 133 255
-27.193920171619759 -3.161888398613925 25.902650472120911 186 138 124 255
-27.322509090685656 -2.866207204831809 26.686297460729406 170 124 109 255
-27.419283217523862 -2.487190808358960 27.270006016048853 148 105 86 255
-27.356881091134710 -1.671578179384085 26.853544070308317 130 92 69 255
-27.310440462856491 -0.897651907960793 26.537039920069674 107 72 50 255
-19.787705552391650 -19.165114647773194 -24.402776833250186 204 175 152 255
-20.273467160759537 -19.325824765552866 -21.330546016932146 205 169 153 255
-20.806245880982893 -19.594529348006787 -17.958680172782522 202 166 150 255
-21.918748560103715 -21.017171789761505 -10.895756853442663 210 176 157 255
-22.404549136469861 -21.239640497483649 -7.821981911044077 215 179 160 255
-22.561339696448428 -20.822968522063320 -6.842739269881292 211 175 155 255
-22.702477817685711 -20.380178589307903 -5.963130951616677 214 177 156 255
-22.859299363009903 -19.973996913694094 -4.983631381742953 217 176 158 255
-22.984801669257124 -19.509107299822077 -4.203560015869527 218 177 157 255
-23.063317928826585 -18.951577057964599 -3.722744490963521 216 175 157 255
-23.141851603584264 -18.396711184751751 -3.241865808537909 213 172 154 255
-23.251737914766906 -17.910201393356331 -2.561323696520844 209 167 151 255
-23.298972931406567 -17.294949381706260 -2.279919934356542 200 157 139 255
-23.361894236538518 -16.714653608477320 -1.898667084155818 185 142 123 255
-23.362166457977409 -16.001828122324937 -1.916648292334457 178 135 116 255
-23.378126359922291 -15.322867672007817 -1.834808152734468 171 128 109 255
-23.362773498978356 -14.575983190829362 -1.952629345396645 162 119 100 255
-23.378776165164950 -13.897417656122784 -1.870788677533199 154 111 92 255
-23.347801046382180 -13.115098777274653 -2.088485054997932 143 103 78 255
-23.363848794958272 -12.436631439894228 -2.006651828333474 136 94 69 255
-23.379919689876644 -11.758607600755013 -1.924812539568734 128 87 58 255
-23.458678887174692 -11.223206330786880 -1.443494065819038 118 77 47 255
-23.553126911574296 -10.726210647023166 -0.862240340938513 112 68 41 255
-23.647597839747881 -10.232337402097116 -0.280913148553054 126 84 54 255
-23.742092063977729 -9.741579987246297 0.300487258952785 136 100 68 255
-23.742617502155419 -9.034171831943496 0.282586587492688 138 101 72 255
-23.774499945994755 -8.400417830179236 0.464481585656756 133 95 68 255
-23.822073660711467 -7.804764463526283 0.746303630890225 123 86 60 255
-23.932332707700589 -7.360326902362303 1.427821559239135 102 63 38 255
-24.011287622168567 -6.844095889575826 1.909578975881686 167 124 102 255
-24.168590039299175 -6.520288516058940 2.891043838630139 198 153 132 255
-24.623532220751592 -6.928433790715928 5.771433421561653 202 154 135 255
-24.906187326391930 -6.928374786535812 7.552829933320879 201 151 134 255
-25.016564428730888 -6.511179160712089 8.235006808764837 199 148 131 255
-24.939010242436702 -5.628849277851543 7.717779827264337 198 143 128 255
-25.174746272091255 -5.530227008123504 9.199756873678751 193 137 122 255
-25.253879229942982 -5.043493831552851 9.682216767159105 186 130 114 255
-25.458337930848394 -4.878229691998300 10.964556927392266 176 123 105 255
-25.365245800266024 -3.957043872415099 10.347350205305389 161 109 89 255
-25.397482379746222 -3.355685106256942 10.529981816140548 142 94 72 255
-25.382767813289085 -2.633101948057529 10.412631280777902 125 79 55 255
-25.540355492900176 -2.360251892747868 11.395314571015859 107 69 46 255
-25.604008222458312 -1.845186951322148 11.778046628279071 93 58 36 255
-25.526754163846135 -0.958510566671464 11.260644395965954 72 45 24 255
-25.903663194624897 -1.280231081314966 13.643922382926661 18 8 0 255
-26.985240770496773 -3.506690326700436 20.529015863629638 187 166 145 255
-27.440451049926892 -4.077725040780550 23.413441767615865 202 160 145 255
-27.582509324663739 -3.812469695737022 24.297311270376753 207 159 145 255
-27.802882837380011 -3.766103952959782 25.681560700717284 199 149 136 255
-27.882365715873703 -3.338849079937020 26.165439037290696 188 140 125 255
-27.977537100493180 -2.957395816241672 26.749438641282069 175 128 112 255
-27.994459916236337 -2.360487883275255 26.833130021219660 155 110 91 255
-27.948798215268262 -1.587977094946638 26.516490234322589 136 97 75 255
-27.887523940376198 -0.769248845701725 26.099702033539842 113 78 55 255
-21.042781543848960 -19.362743337768777 -21.396310082611478 209 174 155 255
-21.443270622704354 -19.388261474471875 -18.820825574332900 202 167 148 255
-22.552286625562431 -20.839521240568715 -11.653997935442248 205 168 150 255
-23.168439340094025 -21.338913985224778 -7.680149146534859 215 180 161 255
-23.307132969180735 -20.891781492913083 -6.800112657778072 212 179 160 255
-23.476647741732179 -20.512488617579407 -5.720308891278364 213 177 158 255
-23.553765369866149 -19.948504468912034 -5.239348178970999 215 177 158 255
-23.677107347148400 -19.483308033620204 -4.458809643587813 218 180 159 255
-23.769662627560422 -18.957784657228302 -3.877857079462444 217 179 160 255
-23.862236252937421 -18.435464444161710 -3.296828016195377 211 173 154 255
-23.970230730738926 -17.949188089178065 -2.615864172562965 207 168 151 255
-24.032038258433502 -17.367294425055334 -2.234406664937410 198 157 139 255
-24.078463822913676 -16.754122021674902 -1.952772684958688 186 145 127 255
-24.094106341766661 -16.075200209385272 -1.870861806812968 177 136 118 255
-24.109770361586342 -15.396754856625535 -1.788943676190570 170 129 111 255
-24.125456428318472 -14.718779530458988 -1.707018574833796 163 122 104 255
-24.110362082600503 -13.972338119670951 -1.824885454928392 152 111 92 255
-24.095291382395999 -13.225274258216714 -1.942773182005453 146 106 81 255
-24.095646177890401 -12.512585445988876 -1.960769105446900 138 96 71 255
-24.157629949119176 -11.940897330637839 -1.579093758772672 128 87 59 255
-24.219637654399612 -11.371264838326553 -1.197371992218734 111 70 42 255
-24.281669764776161 -10.803681243921844 -0.815604078408739 117 73 46 255
-24.374527973403879 -10.310308300808472 -0.233909799850551 128 89 61 255
-24.452010366748830 -9.783696489755258 0.247910319414473 131 95 66 255
-24.483317462567612 -9.149779880509186 0.429927702385555 130 95 67 255
-24.483851565253502 -8.443014700147700 0.412041291527714 125 89 63 255
-24.546013391093460 -7.884761290556511 0.794015264385507 108 75 50 255
-24.715999595113537 -7.590560610724893 1.875854730342553 144 107 83 255
-24.870610842693331 -7.264438754508674 2.857852976711172 187 145 123 255
-25.025247208292534 -6.943554402020652 3.839977379357322 196 151 130 255
-25.287700838415326 -6.895626104486055 5.522192680109470 201 155 135 255
-25.565574834573496 -6.895227665198121 7.304631641267264 201 152 135 255
-25.704885485890998 -6.555290615139555 8.187227530366584 196 147 130 255
-25.690242777113156 -5.829443251944795 8.069779132853853 192 137 122 255
-25.860405150267553 -5.574795144633057 9.152574276916141 186 130 113 255
-25.907414564833246 -5.009089847186814 9.435273300353856 177 121 104 255
-26.031440479548436 -4.644140233888237 10.218181829348254 164 111 93 255
-26.032321484802836 -3.962158391822356 10.200842248044296 150 98 79 255
-26.110218520941871 -3.482000577732279 10.683739135017106 132 84 62 255
-26.095771378963271 -2.760198218925723 10.566349444740922 113 71 49 255
-26.142942841352131 -2.201416558724802 10.849186916163688 98 62 40 255
-26.143962823212007 -1.520312998276040 10.831838866182238 81 50 27 255
-26.083440909193811 -0.672936025303812 10.414165014947656 60 39 15 255
-27.009300526499487 -1.829661292718470 16.384828279819970 95 92 70 255
-28.164947048161771 -4.336179774975776 23.875191394200385 198 166 147 255
-28.458559238942371 -4.498365150440293 25.760676758202379 209 162 147 255
-28.536697362077483 -4.070564281356738 26.244836971772457 206 154 140 255
-28.645652386548548 -3.731429877347125 26.929289009891363 192 144 128 255
-28.708464887878542 -3.265572653421302 27.313442912695734 179 130 115 255
-28.678967750162371 -2.539504561047295 27.096835864122824 161 115 95 255
-28.618732402076162 -1.724102042245164 26.679902899731673 139 98 76 255
-28.604711200870256 -1.038823992698283 26.563337848258186 116 80 56 255
-21.796432607868510 -20.134982213320583 -21.542562522032540 199 186 149 255
-22.023452573897330 -19.821773237051943 -20.064064502454755 204 172 151 255
-22.159667080760805 -19.334159068939982 -19.184500815648676 203 168 148 255
-22.038569407935164 -18.329723337053082 -20.002481175849766 200 163 145 255
-23.612833063520704 -20.788123996120817 -9.635214561674672 212 176 158 255
-23.991290377748300 -20.835720141714361 -7.156750363343122 215 182 163 255
-24.233532047922395 -20.613323187927918 -5.576896843086047 217 181 162 255
-24.324421894579551 -20.081882756057283 -4.995726945939850 217 179 160 255
-24.430467146949312 -19.585691452117715 -4.314583898504850 217 179 158 255
-24.506257529435160 -19.028638218319358 -3.833157178828401 216 178 159 255
-24.612341044974514 -18.539397279688444 -3.151847801093481 210 172 153 255
-24.718444299748640 -18.053892649041458 -2.470448826748679 205 166 149 255
-24.748884192175311 -17.406549716227815 -2.288578370571884 197 156 138 255
-24.749072108189708 -16.693467642093410 -2.306547497695078 188 147 129 255
-24.719009065485096 -15.913021947376478 -2.524397273368720 178 137 119 255
-24.734378516935962 -15.233202451694794 -2.442448938499467 170 129 111 255
-24.795180240078018 -14.656430410703408 -2.060641570639518 161 120 102 255
-24.840868800674414 -14.047277436664359 -1.778744528774496 152 111 92 255
-24.856308887337292 -13.370195318367394 -1.696742899673040 144 103 81 255
-24.826365743934922 -12.588556099959732 -1.914649038357595 139 97 73 255
-24.887264158952334 -12.017372741553274 -1.532722418484070 126 85 58 255
-24.993594968350592 -11.554870715182119 -0.850795149517239 112 71 43 255
-25.069679321606856 -11.024413000899642 -0.368764404206956 129 85 58 255
-25.115518605305098 -10.424373031994136 -0.086671381374515 140 99 74 255
-25.191655326843829 -9.898532171225327 0.395463926100604 138 101 75 255
-25.252683699701393 -9.338637294448858 0.777645785895345 132 94 71 255
-25.283469906827115 -8.706978547683619 0.959834436219182 114 78 54 255
-25.329419656262573 -8.113415455518350 1.242066013662622 115 80 57 255
-25.481339448907008 -7.783349267504974 2.224556729838753 171 133 112 255
-25.603017103306613 -7.383120019982542 3.007094476978807 189 149 124 255
-25.709588313341854 -6.949072764931643 3.689684291394542 193 151 128 255
-25.816187886270143 -6.518633704959242 4.372358585841482 194 149 128 255
-25.998483342563773 -6.284370182816104 5.555417532868375 196 147 129 255
-26.180805071367537 -6.056407611336780 6.738629118844500 190 141 124 255
-26.257223275147247 -5.561346890358010 7.221476404028408 186 133 115 255
-26.409335116841334 -5.265419471092798 8.204783197453906 179 123 106 255
-26.440417327648021 -4.657908648557068 8.387513890778706 169 113 96 255
-26.577456467618603 -4.330337819756807 9.270920006422614 155 102 84 255
-26.638867332773714 -3.806711770919335 9.653929632725891 141 89 71 255
-26.639786823621264 -3.123367606992900 9.636547340960874 124 76 56 255
-26.595350755676030 -2.317724502418855 9.318805145550584 104 64 44 255
-26.550954513177416 -1.510192058606009 9.001006695244001 90 56 34 255
-26.627638769298564 -1.030561714563277 9.484183436747998 71 43 21 255
-28.568570879464119 -3.706038949465281 22.234348234830236 188 174 148 255
-29.068955350344453 -4.460249595442889 25.523122839548734 207 165 148 255
-29.176039356564843 -4.117841136989583 26.207903850777456 207 156 141 255
-29.358789514378039 -3.994570958243401 27.393653363697752 197 148 133 255
-29.390306010021114 -3.443498255825986 27.577707520980283 185 133 119 255
-29.391610194627191 -2.805831619316834 27.561389058854814 164 119 98 255
-29.332456064943379 -1.992031567949326 27.144258709224431 144 103 81 255
-29.348971059447415 -1.396790191274022 27.228081635818938 122 86 62 255
-29.305032727938425 -0.623756190149635 26.911049863678556 91 64 37 255
-22.178273486244436 -19.394960313618114 -24.205563922764100 172 178 131 255
-22.579725449643227 -19.436703002481210 -21.527464767725519 201 173 149 255
-22.728379048610925 -18.975959551162461 -20.547541474966351 201 169 148 255
-22.817564335104088 -18.397875034258035 -19.967169575020989 196 159 141 255
-23.278558132669097 -18.596883178188321 -16.888531437141239 200 162 146 255
-24.661610554551970 -20.748484117476337 -7.613548542982585 220 184 168 255
-25.033412577258034 -20.808662724651555 -5.133305039206164 221 182 166 255
-25.152416280567344 -20.342332386344324 -4.351841372469551 224 182 165 255
-25.167338397534117 -19.656064606662696 -4.269956822881397 216 174 154 255
-25.241766898184359 -19.099518066561970 -3.788217995464493 216 174 156 255
-25.301344405172948 -18.513062380846563 -3.406384980012490 213 171 153 255
-25.420428872968117 -18.060091543659013 -2.624603191525352 207 164 148 255
-25.450306039433769 -17.412721513788725 -2.442609718212054 198 157 139 255
-25.465334168648411 -16.732997577796681 -2.360583951410206 187 147 129 255
-25.465514028059161 -16.020104388012214 -2.378546558730648 177 137 119 255
-25.480588864601884 -15.341067612672816 -2.296513783010312 169 129 111 255
-25.540301292451275 -14.765070890655963 -1.914447473777784 159 119 101 255
-25.600037955007011 -14.191155298751596 -1.532334169474211 151 110 92 255
-25.585444738751008 -13.445664167600754 -1.650287316544109 143 102 80 255
-25.556007121672458 -12.664542655672733 -1.868291564178890 137 95 71 255
-25.571208877593762 -11.988053330476319 -1.786222641629195 122 80 54 255
-25.690531671472030 -11.560777624884807 -1.003847232630221 122 81 53 255
-25.780139418774155 -11.066090183159929 -0.421471486049654 155 111 84 255
-25.854903687911673 -10.538444342048749 0.060920134267121 154 113 88 255
-25.929695501805085 -10.013373180268886 0.543370430515324 148 112 86 255
-26.034255123845568 -9.564110033705830 1.226019884614516 140 104 80 255
-26.079363655900863 -8.970927677836173 1.508445950629891 121 85 61 255
-26.109632439172792 -8.342058047866985 1.690818463096491 119 84 62 255
-26.244016933332730 -7.976129393026014 2.573843756746783 177 140 118 255
-26.318953312567970 -7.464098859650264 3.056590133165969 189 147 123 255
-26.408788856006083 -6.992572979360006 3.639498117670996 193 148 125 255
-26.483786143927034 -6.485871825691561 4.122365092747884 193 148 126 255
-26.588551283408066 -6.058714776658533 4.805525146325181 194 146 126 255
-26.693347025357689 -5.635151718086377 5.488768830507581 186 138 118 255
-26.798173747258204 -5.215175751247884 6.172095888873827 185 132 113 255
-26.917899235712738 -4.838104867009733 6.955644992686274 177 121 104 255
-26.993054533199924 -4.346361475678023 7.438853291889188 166 110 93 255
-27.127710270295943 -4.016567671235109 8.322727438505723 154 101 83 255
-27.217797864543698 -3.571003504080650 8.906232728763797 136 84 65 255
-27.203856735329644 -2.845585432796298 8.788640903029290 120 72 54 255
-27.071029639472897 -1.793928709226392 7.869633304830245 102 61 41 255
-27.057170964074629 -1.064738657975411 7.751928521574200 87 53 30 255
-27.162271914857307 -0.664518773661527 8.435691992810774 73 45 21 255
-28.876110374645428 -2.779767488955045 19.890252406265859 153 155 119 255
-29.590709359244947 -4.166626276600780 24.684120014045050 198 163 141 255
-29.740544358335754 -3.950822360303462 25.669941712941494 207 158 141 255
-29.964718171877998 -3.955780264457204 27.157064506657832 202 153 138 255
-30.010586676125300 -3.447789070824129 27.441465333277108 189 140 124 255
-30.086215403306255 -3.028440965676381 27.926389675719577 165 119 96 255
-30.072723033948577 -2.347803892697584 27.809825056699481 147 105 81 255
-30.118712701573259 -1.843136273131648 28.094282808206316 126 88 65 255
-30.060733494572439 -1.028302984067778 27.676868210179578 99 69 45 255
-23.376565387188535 -19.534028661303921 -21.392923983024332 198 181 149 255
-23.303429615351973 -18.617861522317625 -21.911972933204311 202 167 145 255
-23.347161632653481 -17.944461126085599 -21.631261068625918 195 156 139 255
-24.500939559932718 -18.881675628644629 -13.770267956254372 214 176 160 255
-25.654806782057008 -20.626117860111719 -5.888999707886796 224 185 168 255
-25.917713831382670 -20.475737729838926 -4.107041449836913 217 174 157 255
-25.946941442755545 -19.822555443750915 -3.925051319107467 167 124 105 255
-25.976190121853975 -19.170423430107050 -3.743039414256430 169 125 108 255
-26.063885275930744 -18.649614777001517 -3.160899963074939 204 160 143 255
-26.151602422316913 -18.132002152757252 -2.578684993880813 209 166 150 255
-26.195523630796416 -17.518252500500083 -2.296515019288165 198 158 141 255
-26.181043720268285 -16.772553732457339 -2.414498293481415 186 147 130 255
-26.151982028471039 -15.992608545399150 -2.632555602640991 175 136 119 255
-26.152157322889948 -15.279356111394009 -2.650526238356463 167 128 111 255
-26.196175741471691 -14.668596587418861 -2.368302456733318 157 118 101 255
-26.284037161259974 -14.162751703031006 -1.785823345283063 148 109 92 255
-26.284289904581719 -13.451693705111879 -1.803755834808555 142 101 80 255
-26.226147557074228 -12.600553711744112 -2.222047369504821 136 94 70 255
-26.270272515672190 -11.994029049396488 -1.939740537522027 124 82 57 255
-26.387452172597349 -11.566706279086091 -1.156895207535968 140 98 73 255
-26.490053697236704 -11.107783345349517 -0.474058184296098 167 123 98 255
-26.578077934255710 -10.616443839144765 0.108749820928097 173 129 105 255
-26.680735606212068 -10.164566430133036 0.791751635608080 162 123 98 255
-26.798026647791986 -9.752954941621624 1.574967483274293 143 104 80 255
-26.856928184371064 -9.197973178994374 1.957740386250748 137 98 75 255
-26.886651668492000 -8.570688238654157 2.140272607526583 129 90 69 255
-26.916407164074322 -7.944328324647103 2.322821048420849 157 116 95 255
-26.902383530355038 -7.205788747135315 2.204917466930794 191 147 123 255
-26.946809238591413 -6.618414098102974 2.487639644617161 190 145 122 255
-27.108095711514821 -6.338402218962472 3.571748210096246 191 145 122 255
-27.269411877908318 -6.064154894081867 4.655995176819715 189 141 121 255
-27.401552200376273 -5.718103614094360 5.540013527474628 186 135 116 255
-27.416903107985902 -5.064305805181618 5.622620158015252 181 126 106 255
-27.534506533609303 -4.686097819642214 6.406607145351671 172 117 97 255
-27.549928895036388 -4.034847644154880 6.489262119766465 161 105 88 255
-27.623795486083807 -3.543369920493419 6.972760381587250 146 93 75 255
-27.668495093843376 -2.974093845183063 7.255877372596444 132 80 63 255
-27.698631301242749 -2.365791610913533 7.438796119212128 117 69 51 255
-27.655803734396500 -1.554927434450761 7.120569078571009 97 61 39 255
-27.671420107570768 -0.905969550005636 7.203239036539401 83 52 29 255
-30.013997328991422 -3.574947687534078 23.142339677330341 193 171 140 255
-30.277980974751571 -3.698093725203947 24.930938084937424 204 160 139 255
-30.512796574112528 -3.744471619087506 26.519181356204058 208 160 143 255
-30.587085422005011 -3.321864130153315 27.004318285656353 193 146 129 255
-30.690603604392294 -2.988985477048374 27.690122727915082 171 124 104 255
-30.677402199696097 -2.308032459823309 27.573486205804841 150 108 86 255
-30.708029854175230 -1.758824779652599 27.757782637214234 129 91 68 255
-30.665735029869140 -0.987895277897948 27.440442499281062 104 72 47 255
-23.497616904284129 -17.438789144492134 -25.978620257161708 194 180 145 255
-23.884689019669629 -17.491162025858586 -23.297092867671097 191 150 129 255
-24.200079283462749 -17.403345984028931 -21.115424918032659 190 146 127 255
-26.021221173795610 -19.876842046793996 -8.446424313196530 223 180 164 255
-26.537452592103193 -20.291576390892843 -4.862412859173219 211 168 151 255
-26.623478576106834 -19.764861513543821 -4.280054981342118 145 102 85 255
-26.652162932148030 -19.112162829897017 -4.097933273853130 136 88 73 255
-26.766915395489413 -18.655912052974713 -3.315281686358276 143 96 80 255
-26.824327308921070 -18.072587364808726 -2.932893912852307 203 160 141 255
-26.881762909798290 -17.491373573890698 -2.550458275591552 197 156 139 255
-26.896200260486069 -16.812135343348572 -2.468290432611411 186 148 130 255
-26.881981109866885 -16.066085122562114 -2.586339863017884 179 142 123 255
-26.882128614293364 -15.353345891639293 -2.604291487339481 166 130 110 255
-26.896643276404262 -14.674720448290699 -2.522125232677922 155 119 97 255
-26.968547298938375 -14.134378475642606 -2.039424070512041 147 111 87 255
-26.968775794583905 -13.423022391656232 -2.057358724189612 142 102 76 255
-26.954692350307212 -12.676578872189268 -2.175447873602536 133 92 64 255
-26.997999439518068 -12.070557654294504 -1.892948600358238 128 84 55 255
-27.098696343430760 -11.608191208248499 -1.209779477907261 156 111 82 255
-27.213761944314555 -11.185297011426357 -0.426358096078786 172 125 97 255
-27.300176559863068 -10.694452788476909 0.156816188126299 178 134 108 255
-27.458319727959228 -10.388449896223236 1.240962266523354 175 133 108 255
-27.516114499201933 -9.831946525689744 1.623940203379448 164 122 98 255
-27.573940707345450 -9.277463219300969 2.006962016842010 168 126 103 255
-27.517085280921698 -8.427743871499771 1.588423308113136 144 102 80 255
-27.603655633641431 -7.949969675200862 2.171891955808690 157 113 92 255
-27.546870524019255 -7.098306553691330 1.753288921021294 192 144 122 255
-27.633508258377518 -6.623980245623855 2.336829441324880 193 144 122 255
-27.777532521337235 -6.305670554033256 3.321351326187425 194 143 122 255
-27.993278661294895 -6.185126207257554 4.807171399341769 190 139 118 255
-28.123027498465774 -5.839830499932546 5.691734442261406 183 132 111 255
-28.123771933524338 -5.147754876478814 5.674171110896395 175 123 102 255
-28.196240765514176 -4.652070878303306 6.157870876779015 169 114 94 255
-28.182724687060038 -3.921324936733740 6.040051666755033 157 101 83 255
-28.212258753942749 -3.309395673129103 6.223011587589582 141 88 70 255
-28.270504416051807 -2.778579994489192 6.606536231933859 126 77 59 255
-28.371795867301230 -2.370901680785721 7.290949592457963 111 67 48 255
-28.372776270492722 -1.682030645915887 7.273414958153751 96 60 37 255
-28.359464397261490 -0.951946667429056 7.155567502368996 82 52 26 255
-30.430381473124697 -2.940724640999264 21.498588914248359 167 161 123 255
-30.761277413603068 -3.273963516239476 23.789852681629526 200 161 136 255
-31.063531937288573 -3.533159814919074 25.880714073315090 208 160 141 255
-31.179511743677708 -3.239322717446456 26.667179159431868 196 149 131 255
-31.295528807914636 -2.949508506421864 27.453737196176775 180 132 114 255
-31.339936587698745 -2.444003368869687 27.738521621886463 156 111 91 255
-31.398717141180832 -1.983992424394330 28.123708810401382 135 94 72 255
-31.371572503835054 -1.258873170800129 27.906608490369450 107 74 48 255
-24.387918866043947 -16.945945454710568 -25.264951513316362 189 171 136 255
-24.767807708178097 -17.007935769927769 -22.581603302153383 188 147 122 255
-26.175134088986965 -18.623938254580992 -12.608493146500280 197 154 137 255
-26.963289309413121 -19.662896131982720 -7.020194140709066 225 183 167 255
-27.174369577801301 -19.418981204677408 -5.536450114252034 150 108 92 255
-27.272868338021773 -18.924764215471043 -4.853598560433056 98 52 37 255
-27.441768965541371 -18.597111884266127 -3.669943080082362 120 77 60 255
-27.498088791675329 -18.013213515268930 -3.287329667091456 149 108 88 255
-27.526282175132863 -17.365216679561129 -3.104981823404614 190 151 134 255
-27.526349841391763 -16.651497009065409 -3.122940547242251 180 142 124 255
-27.512368177346950 -15.904073646000683 -3.241076704534919 173 138 118 255
-27.540640003831612 -15.257785395180022 -3.058703148123300 165 130 110 255
-27.568939218585442 -14.612503572833518 -2.876310309266671 153 117 95 255
-27.625417207098224 -14.037128290494522 -2.493517381934680 145 107 86 255
-27.639697654098057 -13.359656376820382 -2.411270640868963 140 100 76 255
-27.625857139426344 -12.612645269565149 -2.529427460957379 135 93 68 255
-27.682422693648078 -12.041309559725576 -2.146552222159528 136 92 65 255
-27.739018402476958 -11.472026771278735 -1.763631998807114 159 113 86 255
-27.880094064146661 -11.119608412133644 -0.779319489237196 176 129 102 255
-27.950825709082977 -10.592104798617953 -0.296037841885550 180 136 111 255
-28.106036358076310 -10.285233687871084 0.788731034558623 177 133 108 255
-28.162756118056379 -9.727877075754392 1.171923828722242 178 133 110 255
-28.205434447541947 -9.135656119961965 1.454908272602722 174 129 106 255
-28.149628117357850 -8.284829266028225 1.036111107433840 162 117 96 255
-28.290892986262556 -7.955621839842649 2.020965578803384 178 133 112 255
-28.305527121726278 -7.292404363972523 2.103492947367670 192 144 122 255
-28.432785037643100 -6.933275796252360 2.988255768201270 196 145 124 255
-28.531929889164360 -6.502364021358915 3.672556874454472 195 144 123 255
-28.687401010781812 -6.229077043118494 4.758112842998116 191 140 119 255
-28.828832373239280 -5.922771137847448 5.743506490062884 185 133 112 255
-28.829574019593998 -5.231197505555798 5.725956392427349 175 123 102 255
-28.900715922849386 -4.736004561078161 6.209960189451408 168 116 95 255
-28.887465163521227 -4.005761640542161 6.092095303599763 153 98 80 255
-28.874256583027872 -3.274746609693949 5.974201734132009 137 85 66 255
-28.931446080897189 -2.743609299772473 6.357950458213026 121 74 54 255
-29.016816948502580 -2.295199565488716 6.942421037788279 106 64 42 255
-29.031875602595179 -1.646416576517296 7.025217990638538 92 57 35 255
-29.004768297185848 -0.875072883419335 6.806947321212419 77 49 24 255
-31.404613721001610 -3.321190163571032 23.752040268671351 197 161 134 255
-31.715386350231064 -3.623694881460281 25.944536442793037 206 159 137 255
-31.871462752757445 -3.460523268901014 27.032727803364082 200 153 134 255
-31.957250626189278 -3.084676524790311 27.618931045568985 180 138 120 255
-31.958695192801130 -2.448116939230161 27.602609557392299 160 117 98 255
-31.946125857297275 -1.766986277633876 27.485829627651668 138 98 78 255
-31.947671049085564 -1.129426299400194 27.469460868868737 109 79 53 255
-32.019578168588730 -0.715282558647374 27.955334139474246 77 58 30 255
-25.231921741638544 -16.365072319650437 -24.850573686876771 179 174 132 255
-25.853214762025914 -16.997719227794747 -20.362412647885890 176 143 119 255
-26.474535639367673 -17.654620202325148 -15.873647953340992 161 119 101 255
-26.971591450559401 -18.049988572547278 -12.285908204344025 204 163 145 255
-27.620587161019863 -18.817002325693267 -7.595621807499015 217 174 158 255
-27.827678800347819 -18.575962944120846 -6.110928705810579 153 110 93 255
-28.007174970176763 -18.277852575638363 -4.826441211855467 129 86 69 255
-28.048593076288569 -17.658389549742878 -4.543864647141334 132 91 69 255
-28.103847469944846 -17.073598527249246 -4.161039473318169 168 129 112 255
-28.103887046555911 -16.357424047094526 -4.179053739628159 172 134 116 255
