ply
format ascii 1.0
element vertex 648
property float x
property float y
property float z
property uchar red
property uchar green
property uchar blue
property uchar alpha
end_header
-25.297351268166487 -0.551687745002482 -3.959498147235308 56 27 7 255
-22.412686640607774 -18.326498072700417 -27.971017606013163 201 181 151 255
-23.785433054868221 -19.621478925614625 -18.612887397822760 190 152 134 255
-24.515657258772755 -20.399042500651447 -13.632936203543125 219 182 163 255
-24.939172231145037 -20.553577621044866 -10.752014385314624 219 181 162 255
-25.202038876905945 -20.380307972075357 -8.970622718303275 218 182 160 255
-25.406500612698935 -20.090768606600278 -7.588989266068097 219 181 160 255
-25.625588885915008 -19.840522443187737 -6.107164734411356 216 178 157 255
-25.727847818964200 -19.342099374841794 -5.425245487943130 212 174 153 255
-25.815521614314818 -18.815122819539383 -4.843256410845697 209 172 150 255
-25.874004595955469 -18.226208426432905 -4.461244612018845 203 166 145 255
-25.961722135239967 -17.705089976841236 -3.879117870242965 193 155 134 255
-26.020249986202160 -17.120943367502221 -3.496996066245401 183 147 125 255
-26.049588916814528 -16.472144438703381 -3.314920202349128 176 140 118 255
-26.064345834333118 -15.790717254228866 -3.232877639708704 168 132 110 255
-26.049915560488330 -15.041927933178656 -3.350949525594956 161 125 103 255
-26.020905059894517 -14.258339377572469 -3.569109686670288 154 118 94 255
-26.006526878933940 -13.508051223381358 -3.687230706244293 144 108 84 255
-25.992175736278114 -12.757138280828528 -3.805373377376782 137 100 75 255
-25.977852320861409 -12.005593540684657 -3.923538027730331 130 93 66 255
-25.992768296326481 -11.323945022728836 -3.841535993813920 126 90 59 255
-26.109950380849355 -10.891492950725436 -3.058820154840305 122 86 52 255
-26.212554544338730 -10.427439902895159 -2.376112689475178 136 98 62 255
-26.242161363005422 -9.786659012623971 -2.193894128703050 151 110 78 255
-26.286403132571728 -9.183178500893618 -1.911536440158727 160 119 87 255
-26.301465737158580 -8.507947964300087 -1.829405281771756 161 117 88 255
-26.331164500938243 -7.870003103371786 -1.647135630869116 159 115 88 255
-26.317082078479075 -7.121513750598680 -1.765276439832917 154 108 83 255
-26.332241663850439 -6.447182606594652 -1.683143987846790 145 99 75 255
-26.376642639596781 -5.848623704380543 -1.400697560272704 135 94 66 255
-26.421076881742124 -5.251512768671219 -1.118222041538047 128 87 61 255
-26.450941537797078 -4.617602068285194 -0.935887432975107 123 80 55 255
-26.422428489030167 -3.830540203388310 -1.154244267440788 128 86 62 255
-26.320938806868170 -2.848289711872425 -1.873558687632965 139 99 74 255
-26.175682849971551 -1.744884175319470 -2.893553608773857 144 104 80 255
-26.191096375124005 -1.068395419955237 -2.811531222999406 147 107 89 255
-23.268484067419095 -18.512837304844950 -27.539943731160008 187 193 147 255
-23.755899021904327 -18.757306465805613 -24.158715336647845 205 170 144 255
-24.243336557885073 -19.020120016249450 -20.777030703965863 190 152 131 255
-24.902886361543636 -19.669430292021204 -16.194441928736524 204 166 146 255
-25.662845538005769 -20.560190995263468 -10.910925945854217 222 186 164 255
-26.006942856864669 -20.574171810832624 -8.528172270067444 219 183 161 255
-26.164630168631973 -20.191729274061373 -7.445847778363941 218 182 161 255
-26.293657039676276 -19.751684228147013 -6.563508155640420 220 182 161 255
-26.408364743386102 -19.284441348087611 -5.781123084988280 213 175 154 255
-26.494412798547287 -18.756888455077586 -5.198791127651702 204 169 147 255
-26.580483542515751 -18.232536594703333 -4.616383679605065 201 166 144 255
-26.695259267187524 -17.777054087633076 -3.833717890102037 193 156 135 255
-26.752695113424693 -17.193412947272620 -3.451343333527802 186 148 129 255
-26.752791963181657 -16.478370725737449 -3.469341723149739 178 140 121 255
-26.738573273119293 -15.729623026680628 -3.587459072940590 170 133 114 255
-26.738721335851693 -15.014186069675603 -3.605478644364098 163 127 107 255
-26.738895994570115 -14.298676845690281 -3.623505879002664 154 118 94 255
-26.710416753781480 -13.514177465468691 -3.841805720907814 146 110 84 255
-26.710646809715946 -12.797963866493035 -3.859862841871461 140 100 75 255
-26.710905521759372 -12.081657573858465 -3.877928592459853 134 94 68 255
-26.739874162941312 -11.435782165455208 -3.695697830419192 126 87 57 255
-26.783212531031324 -10.826415055901222 -3.413289553005143 122 81 51 255
-26.898281023369968 -10.397580469026067 -2.630018155980281 131 90 60 255
-26.912999297901564 -9.720418043822804 -2.547859877193957 150 107 75 255
-26.999447945015362 -9.225394757613287 -1.964798140942150 157 114 82 255
-26.985550206693432 -8.477167965195548 -2.082972946051598 160 116 87 255
-27.043383088904513 -7.912686587650839 -1.700203964315961 159 114 85 255
-27.058230823059830 -7.238747696190188 -1.617993099467469 152 107 81 255
-27.044434815025426 -6.490337481531682 -1.736194878399431 144 100 73 255
-27.102368485232091 -5.929703705723938 -1.353351318117291 140 98 73 255
-27.131659294590960 -5.295123615774926 -1.170907395935103 131 91 65 255
-27.218339047216091 -4.814393689027028 -0.587537107464755 133 93 67 255
-27.132996721709219 -3.874617560539718 -1.206914776078634 154 112 87 255
-27.090709073673771 -3.047730771636409 -1.525663331155499 160 116 91 255
-27.034124620134506 -2.179960348182462 -1.944715432868293 162 116 95 255
-27.120953893315011 -1.703012666539081 -1.361282921391762 170 124 106 255
-27.279503984016969 -1.427047157417178 -0.276471113458058 175 128 110 255
-27.524106794890713 -1.395984375598459 1.410092174677231 181 134 116 255
-27.596705564269044 -0.892288882777507 1.893561958237285 181 134 116 255
-29.930040522929332 -0.788605899039325 17.969822695290702 124 93 62 255
-24.852764966952279 -19.487661178426123 -21.923424641738734 198 179 145 255
-24.796274968739141 -18.601347476848218 -22.342963708971070 193 161 135 255
-25.190218456359275 -18.694556555367527 -19.559501707120091 177 141 118 255
-26.302035400603863 -20.381161112718885 -11.670444083864197 227 191 167 255
-26.738255411295199 -20.611960954110202 -8.585560888407542 224 188 166 255
-26.864836742885636 -20.166766918838221 -7.702813139677517 218 181 159 255
-26.991440495019347 -19.726408026787240 -6.819948757582324 213 175 154 255
-27.118067126283840 -19.290878786632092 -5.936967980987788 213 172 152 255
-27.202490216324023 -18.763287851659172 -5.354279780326010 206 168 147 255
-27.272861442405443 -18.206332431912344 -4.871659362791206 205 164 144 255
-27.385483828572895 -17.750536302763862 -4.088528111398546 197 153 134 255
-27.441828548367674 -17.166590479618080 -3.705921363590505 188 147 129 255
-27.470047525840450 -16.518000601135896 -3.523594055852641 181 139 123 255
-27.427914916898359 -15.702210486480240 -3.842097706657512 172 133 116 255
-27.442111519512800 -15.020389894909755 -3.759941866394286 165 127 108 255
-27.456335685146179 -14.339035945798742 -3.677780353028538 157 119 96 255
-27.442437333347073 -13.589235469982469 -3.795994587749874 149 111 87 255
-27.442643493770994 -12.873532039183260 -3.814033629705989 140 100 75 255
-27.456954641029270 -12.192728366564566 -3.731877401963175 134 94 68 255
-27.485371185341030 -11.547627260626498 -3.549505811036170 129 89 59 255
-27.499743478876127 -10.867965635051519 -3.467334311902960 122 81 51 255
-27.612671510627280 -10.439350691262248 -2.683586876825245 127 86 56 255
-27.655256281231495 -9.834569405967954 -2.400897650008403 140 100 69 255
-27.740097135146108 -9.340309478147120 -1.817463296905544 150 111 80 255
-27.740523413782718 -8.629474610025497 -1.835428323179087 150 110 80 255
-27.783206997991826 -8.029146711942516 -1.552648853563142 145 105 78 255
-27.825924743180998 -7.430288736999174 -1.269839937414758 145 104 79 255
-27.812381831888004 -6.683196119743698 -1.388064225931146 138 97 72 255
-27.827023319513579 -6.010784579844355 -1.305769624357822 138 96 72 255
-27.841701786396214 -5.338738231401820 -1.223473970170232 140 100 74 255
-27.898637432456084 -4.781756134955486 -0.840319216258081 158 117 92 255
-27.843026660521275 -3.918695752681813 -1.259466935993260 162 120 95 255
-27.843748213343432 -3.208377253680723 -1.277483887225685 171 126 102 255
-27.858582527201605 -2.536896816020416 -1.195208263572340 176 129 109 255
-28.112681997105547 -2.534157361223876 0.592397956532523 184 137 119 255
-28.183879547539647 -2.026279106936229 1.076070595855413 189 142 124 255
-28.536543607765900 -2.318090011546559 3.566344545599520 191 144 126 255
-28.579670604869655 -1.740313642580958 3.849593519261816 192 145 127 255
-28.679121414806431 -1.325526164884621 4.534232755750281 192 145 127 255
-28.792681212204727 -0.954951921901241 5.319300535546120 192 145 127 255
-29.032908000790414 -0.956964541933118 7.007657319699717 189 142 124 255
-29.259096402316629 -0.926714988417956 8.595870506535448 188 141 122 255
-29.471247602497797 -0.863384265190348 10.083919244770868 186 139 119 255
-29.795979602386609 -1.142000077305042 12.375164673745616 185 138 118 255
-30.064464294288129 -1.264690951970337 14.265180619675135 181 135 116 255
-30.417382596062261 -1.651238454293932 16.757780484486119 180 133 115 255
-30.784389721770978 -2.093654136773978 19.351106345578359 161 114 94 255
-30.954485992737446 -1.950017405515410 20.539125393394556 145 103 79 255
-30.899562170127084 -1.122644155318540 20.120723889842168 117 83 56 255
-25.301370005297663 -18.061064092199970 -24.311108333843038 188 178 141 255
-25.549741477233638 -17.842579726019210 -22.527667095805555 180 152 123 255
-26.806276866127376 -19.892753085618523 -13.432260059304326 173 141 116 255
-27.303284764062255 -20.275211570164601 -9.844834349490895 224 190 167 255
-27.565544611310671 -20.141845338105000 -7.959887670326054 221 184 163 255
-27.703536363524407 -19.732925094630076 -6.976317787481094 192 151 131 255
-27.841552183577853 -19.329373290920032 -5.992618225604247 199 156 137 255
-27.910540825270971 -18.769720120742150 -5.509761713426883 208 167 147 255
-27.979554266489004 -18.212727467990860 -5.026843763779198 205 164 144 255
-28.090024146430309 -17.756886331959549 -4.243240480109705 195 154 134 255
-28.117657821774841 -17.106700513059877 -4.060824635324991 189 147 130 255
-28.131507720403008 -16.424167509849596 -3.978610493573001 182 140 124 255
-28.076333326025868 -15.573905827091679 -4.397532361693493 174 132 116 255
-28.090238622698422 -14.890975129819651 -4.315340396087663 166 126 107 255
-28.117982846928228 -14.242691391320420 -4.132901031355061 156 118 95 255
-28.118136004825224 -13.526504672479248 -4.150940572794184 148 110 87 255
-28.187369891403826 -12.983835021581157 -3.667710982365406 140 100 75 255
-28.215203854772369 -12.338798149704658 -3.485209713596646 134 94 68 255
-28.229259145859437 -11.659479425814936 -3.402959910002835 131 90 60 255
-28.201917097543074 -10.874000492555851 -3.621534356748612 126 85 55 255
-28.298895953518240 -10.409533091844352 -2.937600753947663 135 93 63 255
-28.368287679252767 -9.876582496012318 -2.454161509911160 137 99 70 255
-28.451521910892090 -9.382544389690935 -1.870368412297864 139 103 74 255
-28.410505963979375 -8.562110615211893 -2.189234275396984 138 102 75 255
-28.479999755214578 -8.034962188760176 -1.705671593238719 138 102 76 255
-28.577146213640262 -7.584667599996607 -1.021418509702301 142 104 81 255
-28.577666183040137 -6.876043058317123 -1.039348560566282 134 97 73 255
-28.550607149942820 -6.091865472405118 -1.257952502122464 139 99 74 255
-28.495971247918106 -5.230503669572073 -1.677271813194750 150 110 85 255
-28.593265323131661 -4.787362186021639 -0.992871340317890 162 120 96 255
-28.635365081432823 -4.193799314912965 -0.709793452461781 171 126 103 255
-28.760349347168670 -3.834308930141574 0.175460065483151 180 135 112 255
-28.885370231798348 -3.479482905963152 1.060822802013092 186 139 121 255
-29.024234996401006 -3.168631273375738 2.046666352935517 194 147 129 255
-29.135523245618245 -2.783797554528604 2.831874962394693 197 150 132 255
-29.426331055575844 -2.921228794857683 4.922191236696051 200 153 135 255
-29.620527023695331 -2.788896989900991 6.310033713902101 201 154 136 255
-29.704313185072884 -2.340701724895069 6.894858035558798 199 152 134 255
-29.746724632180424 -1.773487503034161 7.178529847628369 197 150 135 255
-29.885812692782899 -1.494242261965312 8.165118939809162 196 149 133 255
-30.245807587038357 -1.879599098436771 10.758551694970237 195 148 131 255
-30.799080394254339 -2.859618027909050 14.758306315123633 195 148 130 255
-31.200526489503460 -3.401741352013133 17.653823789040530 197 150 132 255
-31.408751720423837 -3.370908102336273 19.143552562784606 193 147 131 255
-31.561800226313878 -3.178722136193656 20.231680056502597 187 140 122 255
-31.604470779225075 -2.651613339809813 20.516303214992064 176 129 109 255
-31.757597568533882 -2.468597989954887 21.604644061785052 159 116 95 255
-31.758953472914449 -1.816930534083752 21.587962231643218 141 103 77 255
-31.746559550949897 -1.121533692548141 21.470785072015815 124 89 62 255
-27.616767957406040 -19.345529047979142 -13.009669691661941 192 160 135 255
-28.212573389834567 -19.991038119823486 -8.618001002155552 223 185 165 255
-28.442693078277244 -19.802978424113945 -6.932201143296481 144 103 83 255
-28.591568490710955 -19.431937517049448 -5.847652968392197 146 101 82 255
-28.645654190577531 -18.840765338900994 -5.464731322989735 166 124 105 255
-28.672675487732491 -18.186593411219377 -5.282281081270071 206 170 148 255
-28.753903519243558 -17.664776760138224 -4.698745369928019 194 157 135 255
-28.740342837966139 -16.914450662878139 -4.817047046179312 191 149 133 255
-28.753900028496027 -16.230268529887880 -4.734810022635656 181 139 123 255
-28.740395418632772 -15.479286111151666 -4.853140525285880 171 132 115 255
-28.781100254290422 -14.863331802862945 -4.570318955730158 165 125 108 255
-28.781199693329768 -14.146385570049375 -4.588365783871041 154 116 95 255
-28.794874730871939 -13.463806744565588 -4.506114356196179 147 109 86 255
-28.862760687282332 -12.920553791917612 -4.022603128798266 145 103 79 255
-28.917133198976032 -12.344916779147269 -3.639353955905733 137 95 70 255
-28.917358827334958 -11.630304029544291 -3.657369856145237 131 89 60 255
-28.944707317878105 -10.986639394721109 -3.474727370923745 144 100 71 255
-29.012723322580200 -10.451334439864652 -2.991044907636535 146 102 73 255
-29.121406417329233 -10.026812974543205 -2.206261435300917 143 104 76 255
-29.175945928355901 -9.461128326838747 -1.822798756670693 139 104 76 255
-29.189888255465895 -8.787640638371997 -1.740377521456082 132 99 72 255
-29.244499317785284 -8.225185812238067 -1.356849369273107 130 99 71 255
-29.312690655366879 -7.701889975271953 -0.872903522661886 139 105 80 255
-29.326744320653205 -7.031457469423088 -0.790429950497924 141 107 82 255
-29.246033242326988 -6.097564788031391 -1.410677742047710 144 107 81 255
-29.205994492759586 -5.274131887297159 -1.729833814588631 155 115 90 255
-29.328513251621118 -4.907667453891975 -0.844213665785901 170 127 104 255
-29.518782587364043 -4.738391215738488 0.543563132000145 181 136 113 255
-29.722629218492557 -4.615266282401748 2.031934075245374 190 145 122 255
-29.777547200407653 -4.070575941314004 2.415841382852591 194 147 127 255
-29.900215383003406 -3.724408328182136 3.301938974043708 199 152 134 255
-30.022922170637102 -3.382892702893955 4.188145036158687 203 156 138 255
-30.416490460597267 -3.843154677297605 7.083336107038804 206 159 141 255
-30.579890603361257 -3.636730066510765 8.271248527699896 207 160 142 255
-30.635004600083263 -3.113374926431192 8.655649142303162 204 157 139 255
-30.622462084453218 -2.388582036712208 8.537765591287069 202 154 140 255
-30.785982328890796 -2.195225217788021 9.725980152646457 201 153 139 255
-31.342175666234233 -3.203302030666578 13.828216595488925 200 153 138 255
-31.871303271471191 -4.150404226624758 17.730032841368313 202 154 139 255
-32.224445934766038 -4.575578733158750 20.325972922085668 204 157 141 255
-32.361008158951819 -4.342137774408712 21.314268823285488 205 158 142 255
-32.416385959330171 -3.860032338294445 21.699648520290253 194 147 131 255
-32.390589135426353 -3.124357180597087 21.481986534689838 189 142 125 255
-32.500206261275835 -2.815730086657709 22.269478424992144 171 124 104 255
-32.596329933602952 -2.468016619825278 22.956535361384226 162 117 96 255
-32.665427295385136 -2.037001722199506 23.442602109757644 145 102 78 255
-32.572159124702878 -1.084408884106011 22.722226069670569 137 94 69 255
-28.663030174487197 -19.368105574022564 -10.781049760587734 205 181 152 255
-29.154199554650013 -19.809557965807244 -7.088439042372102 153 117 95 255
-29.247006129781795 -19.310391145413917 -6.404460677970860 99 58 38 255
-29.299999831757219 -18.718104015170681 -6.021327021006812 121 81 61 255
-29.406139700205820 -18.258167570010158 -5.236874875879153 164 128 106 255
-29.472467684915109 -17.704020587975222 -4.753295065421014 194 159 137 255
-29.445864651312547 -16.920840899442453 -4.971974156312797 188 149 132 255
-29.419290248458452 -16.136526186969817 -5.190688076806111 178 139 124 255
-29.459144682971548 -15.519253718640798 -4.907712712387934 171 132 117 255
-29.485749393232865 -14.869624728895658 -4.725056681135129 164 126 108 255
-29.459265647637899 -14.084294120509355 -4.943816070859384 153 117 95 255
-29.459373371162641 -13.366694593569378 -4.961881144767403 147 109 87 255
-29.512632574079156 -12.787870982699786 -4.578467359655576 144 102 78 255
-29.592483917522074 -12.281083410802680 -3.994251174032570 137 95 70 255
-29.605970420634755 -11.601152312679091 -3.911891735387428 144 101 72 255
-29.699168523085788 -11.134808535016177 -3.227174222119118 161 117 88 255
-29.765841922030496 -10.600536426300962 -2.743170660194892 162 118 89 255
-29.845829673006065 -10.104907883282820 -2.158703907033839 155 113 88 255
-29.872736239555451 -9.467044138745948 -1.975818436105726 145 108 81 255
-29.926237922676421 -8.903336225089689 -1.592077924509169 131 100 72 255
-30.006334471783646 -8.415398399402392 -1.007441732618247 128 97 69 255
-30.086468136016535 -7.930550863312860 -0.422736005435240 134 100 75 255
-30.100247104516832 -7.261698155902010 -0.340162331231113 149 113 89 255
-29.981283707125030 -6.216335577779887 -1.262059203841375 153 116 93 255
-29.995146195509889 -5.545513510726266 -1.179553401260705 163 122 100 255
-30.128550850627427 -5.219110365028385 -0.192900594804030 182 137 115 255
-30.368214001640069 -5.205926068446743 1.597616419150256 194 147 126 255
-30.501693085724440 -4.892120688849616 2.584569589012517 198 153 132 255
-30.635210822738081 -4.583522432295922 3.571645176098684 200 153 135 255
-30.728937498640370 -4.162187632435234 4.257378083164838 202 155 137 255
-30.968745236991083 -4.179839695138540 6.048638580490376 207 160 142 255
-31.195311091878892 -4.167162811193236 7.739628996980116 209 162 144 255
-31.342257768080799 -3.922710650979027 8.827783753858455 209 162 144 255
-31.383041466350747 -3.360801817799583 9.111946762030612 205 158 140 255
-31.516794958262807 -3.084943623497196 10.099793653631224 205 157 143 255
-31.823156786867713 -3.346468637822028 12.394647527629616 204 156 142 255
-32.222466049057886 -3.908694036850690 15.393558514084503 203 155 141 255
-32.741259663548647 -4.860290626429858 19.297759372238886 203 155 141 255
-33.060970038029240 -5.206476853331040 21.694225865036543 207 159 146 255
-33.221435793031290 -5.061100371900665 22.884318152778292 208 161 146 255
-33.196130912066465 -4.329767432441500 22.666657197372786 199 151 136 255
-33.210693827812023 -3.724752796278054 22.750663517247290 191 144 128 255
-33.304933241007120 -3.377027995173037 23.438134366427306 181 134 117 255
-33.372676536402572 -2.946558961544326 23.924512489342305 174 127 108 255
-33.413927741632733 -2.431702885894097 24.209755698250547 164 117 97 255
-33.349076488905006 -1.568845946908127 23.690225933912501 155 111 87 255
-33.416971355314097 -1.142249401847820 24.176668097941160 141 100 75 255
-33.431844308659684 -0.541187260087256 24.260705636264078 125 87 59 255
-29.735531675291973 -19.498708303318750 -8.248226622610900 197 181 151 255
-29.917551127767304 -19.220911614103628 -6.861364682503904 140 105 83 255
-29.956439153473951 -18.595492605167522 -6.578381696876306 118 77 56 255
-30.021384160304024 -18.036763802050785 -6.094613073287917 129 92 69 255
-30.060328565165250 -17.415037657781241 -5.811549637457745 182 143 121 255
-30.047243533985096 -16.662500206510487 -5.930011467431996 181 143 124 255
-30.060217570033331 -15.976095389172116 -5.847702136102214 175 137 119 255
-30.112266193876323 -15.391069944646517 -5.464178163799545 169 132 114 255
-30.164346111290278 -14.808133357758436 -5.080608553825016 161 124 105 255
-30.112340845969584 -13.953887005319430 -5.500327239559908 152 115 94 255
-30.073383314977384 -13.131842638199871 -5.819686075955076 147 108 86 255
-30.073503470587085 -12.412230509982081 -5.837804482121498 144 102 77 255
-30.203803262571533 -12.042359668820751 -4.851561999734827 143 102 74 255
-30.269064846472737 -11.501515777058998 -4.367413315952433 159 115 85 255
-30.425462108958186 -11.211928505938886 -3.180052340956934 174 130 101 255
-30.477779822535155 -10.642353960201817 -2.796199064067423 181 136 107 255
-30.569176532630067 -10.183008008038058 -2.110909634303823 172 129 102 255
-30.634581690086776 -9.654644147232119 -1.626478746491784 159 119 93 255
-30.700024402979963 -9.128843431707566 -1.141991673276834 143 108 81 255
-30.778518985956353 -8.642473748694968 -0.556963912107278 137 103 76 255
-30.804997832907958 -8.010613606178651 -0.373833481443000 134 98 74 255
-30.792477110569877 -7.267426776656322 -0.492184270852476 163 127 103 255
-30.740959405466654 -6.410471316265784 -0.912078242579753 170 132 109 255
-30.832628523236608 -5.968695612043589 -0.226406954358993 183 142 120 255
-30.989401548705160 -5.721657816659274 0.961941170113107 196 151 130 255
-31.159225431792763 -5.519419975995561 2.250965186851886 204 158 137 255
-31.303063113560569 -5.246482772033033 3.339087211335141 204 158 138 255
-31.433928368945004 -4.940255088201937 4.326805466108169 203 157 138 255
-31.668926413200296 -4.953711771934735 6.119017752809981 204 157 139 255
-31.877937393502137 -4.897536906258225 7.710355083123289 209 162 144 255
-32.034941460072773 -4.690394741073391 8.899655448667829 211 164 146 255
-32.074890324352168 -4.128407618233538 9.184000001700440 210 163 145 255
-32.218966858819535 -3.890960538663109 10.272961789911875 206 159 141 255
-32.441142589438542 -3.903226122463792 11.965544329676845 206 159 143 255
-32.637335608595336 -3.842582040782418 13.457168540147393 205 158 142 255
-32.768521810440376 -3.583765942004135 14.446008233973060 205 157 143 255
-33.316018926674928 -4.657506711864983 18.654225559226205 203 155 141 255
-33.655400619291299 -5.085743353460529 21.253267561912338 207 159 147 255
-33.955785708558047 -5.401753752490450 23.550805076544151 210 162 150 255
-33.996061213543399 -4.884035567280009 23.836190806638967 204 156 142 255
-34.062398721105694 -4.452783128574168 24.322858253931798 198 150 135 255
-34.063755185445061 -3.809729042355144 24.306392852120013 190 143 127 255
-34.143196766781266 -3.425036005554276 24.893768728519035 184 137 119 255
-34.183672368774168 -2.913118528141723 25.179256310708695 177 130 112 255
-34.198192125320553 -2.315173792994869 25.263449864428651 168 123 102 255
-34.251776802407178 -1.849218975436699 25.649629773456070 155 110 89 255
-34.253403290469947 -1.208261131851202 25.633157717334797 142 97 74 255
-30.436667164349139 -18.747316731457701 -8.523659562047555 186 176 143 255
-30.538475798482253 -18.279231720566059 -7.738460190852777 172 140 115 255
-30.563817879402400 -17.620105690108474 -7.555765376553211 147 109 88 255
-30.614688308170557 -17.027658182645808 -7.172169013874793 173 131 109 255
-30.652839741252265 -16.404224681452405 -6.888974192222747 175 134 116 255
-30.640024402684858 -15.648903345917375 -7.007565296518294 169 130 111 255
-30.690988119033562 -15.061137875490459 -6.623871727753681 162 124 103 255
-30.729234914816999 -14.441558482757912 -6.340600971379729 156 116 96 255
-30.729266580604047 -13.721005931672138 -6.358723569183269 150 108 89 255
-30.716582931500398 -12.965927801460751 -6.477337506948970 145 103 81 255
-30.729433116974974 -12.279641960838234 -6.394997959561522 144 103 75 255
-30.869812502590506 -11.943613006121907 -5.307701942031201 149 108 78 255
-30.946480683198672 -11.437161912219466 -4.722777574217560 169 124 94 255
-31.112429690592364 -11.182490593653625 -3.434220028967047 185 140 109 255
-31.214668813007627 -10.755764879425982 -2.648075460672430 195 148 120 255
-31.342442977118424 -10.405359544366704 -1.660788406518691 190 145 121 255
-31.393760888339770 -9.842233584125808 -1.276553227221598 169 127 103 255
-31.419620400974331 -9.207925437739149 -1.093348200550224 149 109 86 255
-31.471017461379489 -8.648296399786105 -0.709042502605769 146 108 85 255
-31.471461298860703 -7.942103763923896 -0.726894676850577 137 101 79 255
-31.471947745712313 -7.235748537222761 -0.744760305232148 175 139 117 255
-31.536217816868515 -6.717641780428053 -0.259822025747724 184 143 123 255
-31.677016895030292 -6.429788101354831 0.828592924659688 193 152 130 255
-31.868846181311817 -6.300601605216002 2.319453124390861 200 158 136 255
-31.920493144479323 -5.755888950052025 2.704078906167410 203 161 139 255
-32.061413670880363 -5.484506381045961 3.792881265158428 203 160 141 255
-32.227868536551739 -5.296947584889153 5.083014909582687 202 157 138 255
-32.483588371396522 -5.391373984958292 7.077544621196267 204 159 140 255
-32.624628567419776 -5.140202136272151 8.166828798457232 207 160 142 255
-32.740218620544923 -4.815061570361777 9.055010951278234 209 162 144 255
-32.855851770867112 -4.494562541641727 9.943300324813663 209 160 143 255
-33.009763396804530 -4.299877805310942 11.133593666615440 207 160 142 255
-33.252928571797504 -4.396101744029707 13.028509933948072 202 160 140 255
-33.419664167815952 -4.256762885642530 14.319794180777478 201 158 141 255
-33.497234254861695 -3.835760836886195 14.906668592731251 202 156 140 255
-34.008122111384651 -4.828040045559419 18.916048510100495 202 155 140 255
-34.264168952611030 -5.006754276245488 20.912625445897589 204 157 142 255
-34.647671224467921 -5.616287563050690 23.916200506563882 207 160 145 255
-34.738136085279628 -5.269052505134340 24.604513390443174 206 160 145 255
-34.841388507124364 -4.967889841218778 25.393592035225225 203 157 142 255
-34.817280995531817 -4.242369070722745 25.175813999702910 200 154 138 255
-34.869671304904912 -3.774109402187833 25.562198507601096 192 146 130 255
-34.947591816917438 -3.394467021558967 26.150035725507678 186 139 121 255
-34.987345894971767 -2.886780085580170 26.435788274418030 179 136 119 255
-35.078105972644259 -2.556101712549136 27.124452520534675 166 123 104 255
-35.117966079961775 -2.052067070698200 27.410273585566671 156 111 91 255
-35.005043082095348 -1.015570052901637 26.487271804465195 145 100 79 255
-30.988277742202882 -16.878035204937888 -10.023349981495073 198 157 139 255
-31.075512255901110 -16.377802790272099 -9.338173557272114 176 134 113 255
-31.100357672349872 -15.715844612914083 -9.155440770104633 171 128 109 255
-31.087782619039899 -14.954827202955300 -9.274227900681694 164 121 102 255
-31.087724831736338 -14.226834031933507 -9.292517901864187 155 113 92 255
-31.187575303701323 -13.769963872841828 -8.506606131464935 150 107 86 255
-31.274976171913195 -13.283163615498864 -7.821128573214764 146 100 80 255
-31.324959487398559 -12.696739060981287 -7.437185780396078 142 96 74 255
-31.337526110349152 -12.008254481029681 -7.354839179502164 144 100 75 255
-31.499940136732363 -11.739960545407214 -6.065847065381774 155 111 84 255
-31.587485749272801 -11.267086177411002 -5.380051209683131 172 127 99 255
-31.762457453880998 -11.046514608216796 -3.990201319360096 189 144 115 255
-31.887530193970981 -10.690229002138068 -3.002468276048432 198 151 125 255
-32.075060335136925 -10.519517578104768 -1.511707029655668 197 152 129 255
-32.150273908931169 -10.029811423986047 -0.926041920478383 187 142 119 255
-32.175592830629384 -9.396808096795638 -0.742685256267350 167 125 103 255
-32.213436857867080 -8.801608587479720 -0.458713021058657 150 110 88 255
-32.213873054047745 -8.096453830288397 -0.476537421960927 143 105 84 255
-32.176903811340061 -7.278902460096248 -0.796220363944656 180 141 121 255
-32.214878105473367 -6.685646623091671 -0.512227897524895 192 149 130 255
-32.415171954706011 -6.587213480724174 1.079963203545844 197 155 133 255
-32.590539912643607 -6.420807653878157 2.471087787350427 201 159 137 255
-32.716019122188399 -6.107812762361903 3.459819865960696 204 159 138 255
-32.878986538565343 -5.916324742264564 4.750621335463336 204 159 140 255
-32.954623438038070 -5.458422538564534 5.336992982275376 204 157 139 255
-33.042787172565930 -5.042860441979968 6.024093868169444 203 156 138 255
-33.180920303756864 -4.789176388330205 7.113953916143146 202 154 136 255
-33.393980406105484 -4.780314170745342 8.808009072187929 205 157 139 255
-33.569638538977060 -4.660072916072963 10.200230507699757 205 156 139 255
-33.807737172888906 -4.749134976661978 12.096080442816941 204 155 138 255
-34.008434366050430 -4.726267103056713 13.690082690899970 202 157 138 255
-34.184212763519469 -4.629956156667120 15.082879329218542 201 155 139 255
-34.409946454171745 -4.705802533601457 16.878696664445954 199 153 137 255
-34.648195372878135 -4.832630419606005 18.775463046394805 194 148 132 255
-34.749226517001688 -4.510259308511152 19.564496764129103 196 150 134 255
-35.149754439201715 -5.200460424950506 22.771194145239861 198 155 136 255
-35.413061592026907 -5.442546056148416 24.870186761361509 205 162 145 255
-35.514213560160940 -5.142402012087004 25.659752737211534 205 162 146 255
-35.440757598907162 -4.246564606307032 25.038866885782056 204 160 147 255
-35.504588597798779 -3.821351075211595 25.526237139747991 202 155 141 255
-35.605893870985156 -3.528679580265461 26.315957285783526 197 148 133 255
-35.744667933876201 -3.370997791050513 27.408090067137380 191 145 129 255
-35.783704798600368 -2.867533057887982 27.694106425566844 180 134 118 255
-35.747965876488621 -2.100129650519506 27.375413820189010 167 121 104 255
-35.674879114170913 -1.197286478216910 26.754270677301008 155 112 93 255
-35.689157532089553 -0.604023137790321 26.838634978474573 141 98 79 255
-31.363631693760816 -15.235805933308924 -13.014863308351210 188 143 122 255
-31.461234540124465 -14.762891896468261 -12.228860829154826 165 122 103 255
-31.485557248862840 -14.094090206083578 -12.046185195306350 151 108 89 255
-31.509914530712194 -13.426300629929855 -11.863491715436965 143 101 79 255
-31.693155845288636 -13.200177761198219 -10.373180815862213 140 94 73 255
-31.827556931623960 -12.845403659869916 -9.285041926481995 138 90 70 255
-31.961994677237158 -12.496481077689893 -8.196763980669459 136 88 68 255
-31.962059466731048 -11.771629471915531 -8.215001943602942 144 98 75 255
-32.121010371889057 -11.501376069326284 -6.925297829923124 160 114 90 255
-32.206685142608684 -11.026555443487055 -6.239139657347891 177 131 107 255
-32.439026177425191 -10.981605021395310 -4.345393336828920 188 142 118 255
-32.585872854465592 -10.696289139610187 -3.155825564292286 196 150 127 255
-32.769414807738251 -10.525501608100498 -1.664189548081822 198 151 130 255
-32.806371746844356 -9.926757005924330 -1.380111441493568 195 148 127 255
-32.855589170488550 -9.366090525786447 -0.995352698565796 188 143 122 255
-32.880412311145626 -8.733701771728136 -0.811871600616257 170 127 106 255
-32.905279253975415 -8.102238187970585 -0.628376871262219 155 113 92 255
-32.881318757839509 -7.322056481277130 -0.847561471406323 184 143 122 255
-32.979583410055703 -6.917415098767222 -0.059988006184597 192 149 128 255
-33.126762130872436 -6.668723000734616 1.130427546507008 193 150 128 255
-33.261765778069339 -6.388117999735570 2.220298689536264 199 154 131 255
-33.347944064388876 -5.959307742257650 2.907502940398217 200 155 134 255
-33.531902518883427 -5.844183960968749 4.400446861083822 199 154 134 255
-33.605953531581918 -5.385677100218842 4.987151915573747 198 150 132 255
-33.667835379497760 -4.890899050855595 5.473201688498591 198 149 132 255
-33.766413180375210 -4.517330452715640 6.261487527987072 197 148 131 255
-33.974977558800802 -4.506482996827614 7.956481022338579 197 148 131 255
-34.159152100499000 -4.424379357382008 9.450207612458854 198 149 132 255
-34.380012837033249 -4.471332670173098 11.246369710650640 199 150 133 255
-34.552055590657041 -4.365157724014281 12.639739524105920 195 148 132 255
-34.797424391143707 -4.511913383193829 14.637860225833521 193 148 129 255
-34.908482500028910 -4.216020329808032 15.527773911265740 191 147 128 255
-35.166143364234422 -4.422445889234126 17.627111153247398 188 145 126 255
-35.252865533588604 -4.055536608500645 18.315752119583493 185 143 123 255
-35.461756609580107 -4.112335002834826 20.012374504768673 185 144 124 255
-35.731743572759420 -4.389540351670092 22.213200122574364 195 157 136 255
-35.965131264048495 -4.550721460844528 24.111898784413796 203 161 145 255
-35.966561878227751 -3.908041221833088 24.095426481997521 206 163 147 255
-36.053518692754714 -3.566797033755165 24.784661122764675 207 160 145 255
-36.103900132149761 -3.098887937738525 25.171496034212396 204 157 141 255
-36.313043773161027 -3.200325866156717 26.869185197054691 198 151 135 255
-36.400150561856421 -2.871413177473698 27.558696900590576 191 144 128 255
-36.414069160944450 -2.280755669838797 27.643205811178291 179 134 117 255
-36.403637626244311 -1.601323024710055 27.525998640536926 168 123 104 255
-36.588554958246178 -1.636922817037430 29.022521169319162 153 108 89 255
-36.675878060601171 -1.320167008832215 29.712290962731458 140 95 74 255
-36.726644586396851 -0.870956377080404 30.099511328444066 122 82 57 255
-28.371538042373473 -6.679941743751343 -44.424369943045235 200 154 132 255
-31.538477452950303 -12.232856929360409 -17.840042441040453 157 111 95 255
-31.777451652797239 -12.155159294796860 -15.846159128979309 173 126 108 255
-32.016463998935009 -12.088180613958301 -13.852014713665994 152 104 86 255
-32.231606654699434 -11.963586774050242 -12.058908587866256 135 83 66 255
-32.375063842208505 -11.642015298469985 -10.869507251135644 129 78 59 255
-32.375112308919810 -10.910374870014124 -10.887912305910106 140 91 69 255
-32.470832089220721 -10.458428002438353 -10.100968749067931 157 108 86 255
-32.650269097752627 -10.257404325549942 -8.609190560500679 166 120 97 255
-32.985145450043838 -10.526057191950471 -5.808333536831356 176 130 107 255
-33.140753773525049 -10.272944090077146 -4.517463727356755 189 144 123 255
-33.332263416361215 -10.134891704785090 -2.924337762260279 195 148 128 255
-33.368417243243329 -9.533123792331494 -2.640159125573064 196 149 129 255
-33.524148547524938 -9.298789644633317 -1.348844222171920 190 145 124 255
-33.548435437394033 -8.665810186926095 -1.165260096666657 183 138 117 255
-33.632532984245529 -8.219436184526785 -0.478040033364834 171 129 107 255
-33.585192767160450 -7.365209565567596 -0.898783693639643 190 148 126 255
-33.633523401965412 -6.810063895064502 -0.513691216432846 194 149 128 255
-33.741663356197670 -6.446641254590432 0.375166155138345 191 146 123 255
-33.897657548627251 -6.240775936433096 1.667139014226962 194 148 125 255
-34.017839350383191 -5.926285302292797 2.656997963814490 193 147 124 255
-34.114163158567607 -5.539486494098583 3.445446651013356 191 144 124 255
-34.222485387269415 -5.195841141881743 4.334761182009061 191 143 126 255
-34.342805558656792 -4.896155609481482 5.324961934884243 189 141 123 255
-34.451221518322370 -4.562090315930035 6.214496717195345 188 140 123 255
-34.643337985330454 -4.511580901265120 7.809690235435937 189 142 124 255
-34.775746957017446 -4.268929466142197 8.901085942372845 189 142 124 255
-34.944051436149607 -4.153157634516177 10.295036224837645 189 142 124 255
-34.992908146769992 -3.638141257998001 10.681021963215585 182 136 120 255
-35.077664402430102 -3.247820074242512 11.369506470624117 177 133 114 255
-35.305851265855331 -3.355448655464471 13.268001997326365 174 132 112 255
-35.402652156004066 -3.016909602255268 14.057559125984909 171 132 109 255
-35.535345662035951 -2.807665444193134 15.149732189397014 157 118 95 255
-35.405258946739508 -1.679714010342067 14.023367248808540 145 113 88 255
-35.836715137996734 -2.533091760995916 17.637042059988630 142 112 88 255
-36.220408227237726 -3.235506098252984 20.847747129626953 201 167 146 255
-36.472729172857299 -3.483848675863200 22.949312041103440 202 161 143 255
-36.677307913302378 -3.570878320835888 24.647642416995552 208 160 147 255
-36.702771750148045 -3.016139903741134 24.832934908547429 207 159 146 255
-36.919382979106615 -3.160593301920841 26.632482413416881 203 156 141 255
-36.944956582365123 -2.611702149687957 26.817897784036006 198 151 136 255
-37.018357536546908 -2.240335585138197 27.406936555794971 191 144 128 255
-37.079873860993189 -1.827401440284589 27.895124341269366 182 135 118 255
-37.296666794211056 -1.998517360649572 29.695302234726398 167 122 103 255
-37.429923387223980 -1.863952775356680 30.789229062881219 153 106 86 255
-37.384155862224773 -1.055605228955926 30.369293153623630 141 97 74 255
-28.501855830735494 -6.489811094329141 -50.398063810942460 201 164 143 255
-28.910572496525944 -6.772896575876288 -46.896146696174299 203 157 139 255
-29.260891059587777 -6.913456776891877 -43.897067793347219 205 155 138 255
-29.587875416958440 -7.005068670318209 -41.098926994225621 206 155 138 255
-30.312314876731691 -8.227367374263437 -34.877502155407285 194 149 130 255
-30.884848766000545 -9.052988126861450 -29.964097665118402 187 138 122 255
-31.621069331690279 -10.371919529459277 -23.640414674053432 171 122 107 255
-32.193691568759341 -11.254068744547027 -18.725608404619379 181 131 116 255
-32.520890850012677 -11.450853134300530 -15.924870675432999 181 127 112 255
-32.719553318244820 -11.286885857998669 -14.231550176978828 173 116 102 255
-32.848122813379604 -10.925414321115696 -13.142297769839729 163 108 92 255
-32.859844471082518 -10.222765139652154 -13.060121545404627 126 75 56 255
-32.906673920218438 -9.625468553292407 -12.675758806998317 102 52 30 255
-33.035366710120726 -9.276916679576530 -11.586208685216661 107 60 40 255
-33.316054558647750 -9.395848685442729 -9.186877732194034 159 112 92 255
-33.538339831425660 -9.348711079415622 -7.290975943251397 184 138 121 255
-33.807420435770027 -9.455920403977800 -4.991806611452034 183 138 117 255
-33.901215101895687 -9.030579894273885 -4.203770957345853 186 141 120 255
-34.053495144921278 -8.792385755149112 -2.911794443122915 185 140 119 255
-34.077248549550461 -8.155569652293948 -2.728189505214914 184 139 118 255
-34.206240691171743 -7.853882293797099 -1.637526951479344 184 142 120 255
-34.206711393468382 -7.146528951181949 -1.655414212838025 190 148 126 255
-34.265669333664306 -6.627376553034964 -1.169334509792691 196 150 130 255
-34.383112219515944 -6.300476407550718 -0.179185483256276 193 147 124 255
-34.559037177538414 -6.169881884225262 1.315135405450803 192 146 123 255
-34.641511072995527 -5.739314699731437 2.003109783871821 190 142 120 255
-34.688973743943777 -5.196059561551166 2.388692000441097 184 136 116 255
-34.806605317502168 -4.888932330765655 3.379296666687651 177 130 112 255
-34.959342776797875 -4.704903688999039 4.672534423398190 174 127 109 255
-34.971898504207836 -4.052839728945401 4.755799081544239 170 125 106 255
-35.077991653403409 -3.719819418995854 5.645870736194070 168 123 104 255
-35.300983736890572 -3.792572934520763 7.544631374224224 171 126 107 255
-35.325381303813806 -3.188837625765998 7.728926406999705 170 128 109 255
-35.338151195222395 -2.545269104922070 7.812357574120540 165 129 109 255
-35.526233542886665 -2.515896175442819 9.408969271254051 153 120 97 255
-35.667628097512520 -2.330137587779632 10.602238530129114 148 120 95 255
-35.657196999238337 -1.611480201146890 10.484045102059383 142 120 92 255
-36.550538661154086 -2.133176199030345 18.084585415987078 84 76 41 255
-36.949171819860702 -2.931163126260600 21.499245983593084 193 167 141 255
-37.301108567894502 -3.574928878404435 24.510620425215109 202 161 144 255
-37.431179251605066 -3.410528550836275 25.604497470063109 208 162 147 255
-37.572976880764685 -3.295435198461249 26.799454741894806 206 160 145 255
-37.644760628647148 -2.922992011432669 27.388821940157669 201 155 140 255
-37.786658578587023 -2.818647668785275 28.584027403695814 195 149 134 255
-37.858552181202654 -2.453663401417202 29.173557980728646 189 142 126 255
-37.988876504467001 -2.315300932627864 30.268033896493534 179 132 116 255
-38.025860967270887 -1.822420542626631 30.554767518090131 171 126 106 255
-37.981199696521223 -1.013735701372894 30.134579952044362 156 111 92 255
-32.418745985293754 -10.512276008397876 -23.402557563476194 183 132 115 255
-32.966932189823837 -11.361725296518927 -18.585620287156075 180 127 111 255
-33.218146748361875 -11.355872620265473 -16.387784570650410 178 122 105 255
-33.412284363100085 -11.191013599543950 -14.693491838757041 166 108 92 255
-33.480802685605425 -10.656515790825409 -14.107481100778898 149 93 76 255
-33.537939136460366 -10.090460365520201 -13.622180201713604 129 78 59 255
-33.537999788553442 -9.352151794712483 -13.640755580930261 105 58 40 255
-33.629493270890663 -8.895649598034723 -12.852997526438628 79 36 19 255
-33.721030603843445 -8.443349991634150 -12.065143452550615 66 23 6 255
-33.824035904022395 -8.031026669135827 -11.176386808926907 69 28 13 255
-34.029896897869783 -7.947886625855759 -9.380198185812048 163 118 103 255
-34.292917992889613 -8.055938558897353 -7.079675668698485 174 128 113 255
-34.544558214214817 -8.139686834486852 -4.879680835813019 177 131 115 255
-34.579202789353225 -7.534811967820104 -4.595248548391965 177 132 113 255
-34.808084772767117 -7.562639209905583 -2.596493731902967 181 134 114 255
-34.831400892812866 -6.927876090707642 -2.412741055415950 187 140 120 255
-34.923302072773595 -6.520056723775880 -1.623848670747520 193 148 125 255
-34.980984607144691 -6.002552987076129 -1.137447158545683 191 146 123 255
-35.175782027404097 -5.946136118625105 0.559426912996003 188 142 119 255
-35.233562563855848 -5.436905405161696 1.046014877049913 181 135 112 255
-35.382766605976101 -5.240224143296828 2.339711245865089 174 127 105 255
-35.372120860986328 -4.503995199774621 2.221123229418367 166 119 101 255
-35.464319618326854 -4.120683023304039 3.010566343582127 158 113 94 255
-35.373840947237298 -3.108370559028387 2.185657284586853 141 98 79 255
-35.397627675408884 -2.489881755303855 2.369715669674520 131 88 69 255
-35.581348828036610 -2.433792154320273 3.966614352285148 120 80 60 255
-35.593826023723608 -1.780381613443268 4.049862418460975 110 75 53 255
-35.640619754721165 -1.249211078098639 4.435895504155383 93 69 46 255
-35.710308365876600 -0.801789851624534 5.023838208928566 73 58 29 255
-35.905651615476501 -0.810523278984547 6.722230260254491 39 35 4 255
-37.215645089363434 -1.564698513050431 18.128926282433952 93 102 57 255
-37.959163037984453 -3.708259395714919 24.676574233709687 191 172 141 255
-38.177652044461034 -3.891606750646872 26.579105212202506 199 167 144 255
-38.373355241773197 -3.997677665530702 28.279865332055721 206 163 147 255
-38.443571381318833 -3.629526993016626 28.869685041353165 204 161 145 255
-38.536667615420185 -3.352683305857127 29.661607629807719 203 157 141 255
-38.641229478976214 -3.124310188571030 30.554646859386793 197 151 135 255
-38.700208541386793 -2.721506636042022 31.043647082062478 190 143 127 255
-38.656573675314831 -1.915897463360565 30.623311218138184 183 136 118 255
-38.601609636016164 -1.062404232096540 30.101843462952075 174 129 110 255
-33.839145571734548 -12.520093621507243 -17.519206470593588 163 112 95 255
-33.984042131930877 -12.208969099060710 -16.227440485126465 167 114 98 255
-34.084346168094257 -11.769234333194532 -15.338779209454856 163 110 92 255
-34.173533465546498 -11.300116012624486 -14.550831395435637 152 98 80 255
-34.240445998578330 -10.766370827919488 -13.964448750941472 148 93 75 255
-34.296242998362530 -10.201069703837604 -13.478834449687099 130 82 62 255
-34.352083812016062 -9.638363312873949 -12.993164544598471 111 64 46 255
-34.385652153079207 -9.007770059648237 -12.709142273457360 91 47 30 255
-34.463899979442431 -8.520707948381201 -12.021659277365700 73 32 14 255
-34.419451169713277 -7.643745171527343 -12.443610143514263 59 20 3 255
-34.453159086800582 -7.016821911483646 -12.159526285521338 44 5 0 255
-34.553864583855955 -6.609287694100132 -11.270143694902799 69 32 24 255
-34.900095955100447 -7.011420685137509 -8.161171661009234 167 127 110 255
-35.078999935698391 -6.877274478905861 -6.565176513412325 167 125 108 255
-35.358370193801946 -7.085785410397790 -4.060885394494619 163 119 100 255
-35.481576713928298 -6.784050113084589 -2.968952250981545 175 130 109 255
-35.560201630523210 -6.337407273544798 -2.280535953294077 184 139 118 255
-35.571933542780805 -5.666720016846583 -2.197558418268386 188 141 121 255
-35.650660923899480 -5.225653838386279 -1.509024439747122 183 136 116 255
-35.762909949000246 -4.903626409693118 -0.517611192508241 175 127 107 255
-35.864052999743585 -4.548053407491167 0.372981588242112 167 119 99 255
-35.976403612504519 -4.236165381537106 1.364627422381943 152 104 88 255
-35.865689750839053 -3.143554039419229 0.337310839845031 139 95 78 255
-35.866595866324104 -2.440956716975066 0.319447438572013 124 85 66 255
-35.845251765068042 -1.658438794813748 0.099628967115052 110 74 54 255
-35.801660896394509 -0.794362885542739 -0.322186498824522 101 72 50 255
-38.303477438126762 -2.634684486480324 22.013435940984067 136 143 98 255
-38.717640920316583 -3.591862659460773 25.735940114921988 193 170 139 255
-39.053788540174381 -4.263351080426034 28.751482306182112 202 164 143 255
-39.133591740021153 -3.940681904549393 29.442756454354679 207 164 148 255
-39.336054810258759 -4.107613546336921 31.245979139305803 204 161 146 255
-39.404820884214040 -3.750400984263891 31.836392600402775 202 156 142 255
-39.529366942040284 -3.619798467603033 32.932333789565178 195 148 133 255
-39.408818545276219 -2.504491617872389 31.804190037726642 193 144 127 255
-39.410925925237422 -1.880940327753336 31.788049895577160 184 136 118 255
-39.435389388308906 -1.348103765055683 31.974112930612108 171 124 104 255
-39.571325236741060 -1.274319147962586 33.171397294617350 157 112 89 255
-39.540225644992617 -0.515004657445090 32.851888237863591 131 91 66 255
-34.542920025660017 -16.170938564867939 -17.889378305075070 183 136 118 255
-34.869332279441153 -16.390206893363640 -14.883065492911669 182 133 116 255
-34.945248975910033 -15.877301535548042 -14.195719801108964 163 112 95 255
-34.966738709387819 -15.204094326172111 -14.012532183313681 140 87 71 255
-34.966480443357284 -14.465756928668938 -14.031038182705686 122 69 53 255
-34.955367924459338 -13.694008770860648 -14.150416592610270 107 56 39 255
-35.009655535333465 -13.123338180968659 -13.664605492981821 102 51 32 255
-35.031304502597408 -12.453633329143059 -13.481364824082846 97 46 27 255
-35.031208758652447 -11.716612996235583 -13.499873436338476 94 43 24 255
-35.074729949026093 -11.117199604928075 -13.114836695914789 92 42 22 255
-35.118295250540399 -10.519847003014874 -12.729757841049150 101 52 35 255
-35.151012044614077 -9.889583515323906 -12.445540092153749 108 62 44 255
-35.161987833062256 -9.190356896030167 -12.363113863071135 108 65 48 255
-35.183903942233684 -8.527054967737243 -12.179770939389755 89 49 32 255
-35.118721318157981 -7.578501641214515 -12.803800782825988 65 28 10 255
-35.075375252000555 -6.698660735690979 -13.226066413943329 46 13 0 255
-35.053866527779192 -5.889145440857632 -13.446527447377946 40 7 0 255
-35.250269928585610 -5.810125291344988 -11.648156277105045 29 1 0 255
-35.501185176118703 -5.924964728599846 -9.344802006447367 79 45 35 255
-35.839288036763534 -6.349098380593162 -6.233490038270304 166 127 112 255
