ply
format ascii 1.0
element vertex 653
property float x
property float y
property float z
property uchar red
property uchar green
property uchar blue
property uchar alpha
end_header
-33.169484122312895 -15.188716928684926 -39.478556574471526 180 128 115 255
-32.898706231356016 -13.192055857891603 -40.181389656877087 162 110 96 255
-33.391034667439698 -12.576269399976155 -39.738141491122093 132 80 66 255
-33.603987106006002 -11.448456307056460 -39.715733942442000 67 18 7 255
-34.096038790471141 -10.833159045370138 -39.272682011957954 104 56 40 255
-34.231229762031518 -9.555229868050390 -39.368886015695267 150 103 87 255
-34.644314213675671 -8.792046438508237 -39.045391967071964 159 112 94 255
-35.411452801074518 -8.696663804125109 -38.184824720991571 162 114 95 255
-36.058665548166061 -8.382197491360131 -37.504768385542434 161 114 95 255
-36.782571414672191 -8.219796770034890 -36.706914623983209 160 113 95 255
-37.270564210999282 -7.611960149132187 -36.267005825465418 156 107 90 255
-37.524817534588379 -6.554672955284303 -36.183340825436858 146 97 80 255
-37.508760093703756 -4.968621328405902 -36.513426966355098 129 83 64 255
-37.147678771315782 -2.698078033134550 -37.373507814660883 100 61 41 255
-45.620215041978867 -14.805373550228524 -25.282655941159675 53 16 3 255
-46.811962199007397 -15.688089700228204 -23.743167738970271 210 163 152 255
-47.580364962808716 -15.737256534923688 -22.852747314578096 207 157 148 255
-48.422107359053911 -15.944696583433995 -21.847166741601256 201 151 142 255
-49.109789648262151 -15.849249576734110 -21.077707942277243 198 148 141 255
-49.795497540677147 -15.757459920483939 -20.309804232888695 189 139 132 255
-50.253999809763769 -15.204161095949075 -19.893039453675044 180 126 120 255
-50.861651660656548 -14.962842007673714 -19.244017303754845 167 112 107 255
-51.393221783254106 -14.568336332573438 -18.712321727055240 150 99 92 255
-51.849435076168817 -14.019306097882605 -18.297386242331527 97 62 53 255
-51.601043717093830 -11.981322538940105 -18.982722470369424 31 11 2 255
-51.467522714040243 -10.171774912089802 -19.491518070264306 11 6 0 255
-52.368200937560999 -10.564210717932212 -18.382160281626369 5 6 0 255
-53.448959413232274 -11.358367868643256 -16.987461140089124 2 4 0 255
-53.574149593623090 -10.099072266610904 -17.091642362367878 1 5 0 255
-54.211375055958911 -9.950135850184608 -16.390723054075892 0 3 0 255
-55.609927775478937 -11.479150799931517 -14.487407669003261 0 2 0 255
-56.241215326769520 -11.341229392088138 -13.791179767738868 0 3 0 255
-53.965869336887764 -1.592183986814007 -18.316233166020766 0 4 0 255
-54.354195999516364 -0.875093109825514 -18.012453633586659 0 4 0 255
-31.188556798791069 -18.053483957955763 -42.603151282850547 212 161 147 255
-31.965456465264197 -17.936798161074194 -41.731909436264743 219 164 153 255
-32.820829494139133 -17.968134983151401 -40.740777164029225 218 166 153 255
-33.270997591950731 -17.282966247712267 -40.359047714715189 212 160 147 255
-33.359714615367693 -15.946968314562611 -40.523248255196194 199 147 134 255
-33.290267208252374 -14.317122203992000 -40.928134422865014 169 117 103 255
-33.183756670287664 -12.609225489552585 -41.391241772510625 144 92 78 255
-33.915325976292877 -12.429682574607199 -40.584620783040776 79 27 13 255
-34.605242067489371 -12.180571992155564 -39.839818007795543 120 70 56 255
-35.253868966295158 -11.861222394451943 -39.156549479408255 161 112 97 255
-35.506967015629812 -10.807498001578267 -39.075113259311820 166 116 101 255
-35.996634543711764 -10.195766385379954 -38.633150561794963 170 120 103 255
-36.485746031542135 -9.585055160193576 -38.191616907476174 168 117 98 255
-36.974302955385838 -8.975362817880210 -37.750512270494909 163 114 96 255
-37.306636524670182 -8.068246104860094 -37.548582429622968 160 111 94 255
-37.522993082939422 -6.935861412919280 -37.525101180634920 154 105 87 255
-37.585783430615919 -5.501145007591049 -37.738715532763848 140 96 77 255
-37.535011893700187 -3.836700474595489 -38.128888866467577 118 83 61 255
-37.294894777963918 -1.789517590252274 -38.813388242871611 99 72 47 255
-46.394362537087630 -13.693951326215767 -25.962063058420227 192 153 136 255
-47.845080546940636 -15.115966061696270 -24.008048505358147 190 143 131 255
-48.987305075058316 -15.935844013452709 -22.529302196890455 198 148 137 255
-49.635973770202554 -15.762933464549860 -21.816795901313981 197 142 135 255
-50.245438822934744 -15.515951041972869 -21.164209386284881 188 133 126 255
-50.704012416110785 -14.961708079382191 -20.746635727653455 172 117 107 255
-51.422672686030012 -14.952544810280642 -19.920931635027728 154 99 89 255
-52.064906251744389 -14.791571800003339 -19.213509749109619 124 78 69 255
-52.372513548695409 -13.930236618564066 -19.031035415781616 58 29 19 255
-52.164403769988567 -11.970550597899773 -19.661370744231192 19 9 0 255
-52.695082042358493 -11.576192060852065 -19.128982627967957 6 6 0 255
-52.821857953758894 -10.316440906451845 -19.234215431295553 3 5 0 255
-53.315367440423742 -9.844279974708684 -18.760180374395162 0 3 0 255
-54.062839939425785 -9.928520628843302 -17.882818109033508 0 4 0 255
-54.989216639460025 -10.414812700383550 -16.719327372533968 0 4 0 255
-56.164988267261634 -11.465946821467696 -15.156087536948604 0 4 0 255
-55.570159921340036 -8.609256538904845 -16.410712744077898 0 5 0 255
-53.541100549037751 -0.930506587674358 -20.278425269858246 0 4 0 255
-54.930205376328999 -2.466682016313882 -18.372965974457742 0 4 0 255
-55.068492140550802 -1.185901368680959 -18.469404181881458 0 4 0 255
-30.649349088108607 -17.534655457029686 -44.756411131960704 207 166 144 255
-32.276801128837207 -18.912134950581333 -42.595342392443825 216 162 150 255
-32.808829228053071 -18.367597959076249 -42.090019233567205 221 167 156 255
-33.540940319513481 -18.184091354407229 -41.280227652395041 219 167 154 255
-33.830402125354823 -17.210816366223867 -41.142143792767001 211 159 146 255
-33.920824851251894 -15.874546744812335 -41.307677855075667 195 143 129 255
-33.694574893645438 -13.954189518438625 -41.957608747527303 154 102 88 255
-33.988145712323643 -12.973275881146151 -41.816263338961079 125 73 59 255
-34.796825530743661 -12.940513348809645 -40.887333729171161 119 68 53 255
-35.524104926896712 -12.765845644026342 -40.081244576170775 169 117 104 255
-35.974047676057864 -12.080562322818423 -39.699199461084845 171 119 105 255
-36.266826533010317 -11.101066814890231 -39.558432503390804 171 120 103 255
-36.482073632274478 -9.972521024027685 -39.537478549091759 172 121 102 255
-36.893306830966480 -9.212587766540651 -39.215276611157122 166 118 98 255
-37.149069849381306 -8.155316134274585 -39.133029220856372 161 113 93 255
-37.521915169805254 -7.320152934456360 -38.870431799776043 157 109 89 255
-37.470240981777863 -5.661734603501827 -39.265352170688061 147 102 81 255
-37.382906822606174 -3.923053575134190 -39.717747382838638 128 94 69 255
-37.298642555246772 -2.178698692610851 -40.167736508148352 111 90 61 255
-37.332188819402489 -0.655111588289969 -40.436809731725333 78 69 35 255
-47.849606465090218 -13.958937950645634 -25.580044052813236 187 143 127 255
-49.177571951312189 -15.158903778679189 -23.801164523606815 195 143 131 255
-50.013227383150564 -15.368583460227796 -22.792002459949799 188 134 125 255
-50.510403556396938 -14.888340515177447 -22.313883756514059 178 125 119 255
-51.081137707580609 -14.564494597603442 -21.719068709128663 161 110 102 255
-51.613584534091473 -14.165256270496570 -21.183801038621027 135 87 77 255
-52.366556261942691 -14.235463205177751 -20.298541430434483 83 45 36 255
-52.381066294478259 -12.747159208437580 -20.582627221206565 26 3 0 255
-52.911475749230789 -12.351732435894803 -20.048999048551224 14 6 0 255
-53.404329683228156 -11.879566142895555 -19.574349719018301 6 6 0 255
-53.750672618920305 -11.093531422756143 -19.332659462346697 2 4 0 255
-53.697716125037559 -9.437663590097088 -19.728752186808208 0 3 0 255
-54.335403502158215 -9.282547698310680 -19.022534122061813 0 3 0 255
-55.476484060292876 -10.243421367771703 -17.508402224907599 1 4 0 255
-56.216949146663936 -10.336896980074869 -16.633087296056033 1 5 0 255
-56.345745191712638 -9.076047468649193 -16.739179586015553 0 4 0 255
-54.333154617628352 -3.002936506724495 -20.295344869866113 0 4 0 255
-54.116540412343582 -0.918876623537756 -20.967505768618082 0 4 0 255
-32.022852949592419 -18.889584439770402 -44.318631818578808 210 165 146 255
-33.561956434043651 -20.127571097107477 -42.276181719376581 218 167 154 255
-33.890884355393410 -19.228222050983618 -42.078286762910835 220 170 157 255
-34.220213192105234 -18.328113117905559 -41.880060057521547 220 168 155 255
-34.230993203145431 -16.850339974541953 -42.170440587735470 210 158 144 255
-34.442849184041734 -15.729914680742297 -42.153862079299131 192 140 126 255
-34.418070703491537 -14.172030968935559 -42.501952787252748 151 99 85 255
-35.146489877839116 -13.992244044420318 -41.692177724574549 89 38 21 255
-35.833512093089212 -13.743154867453597 -40.944705080090301 182 131 114 255
-36.558030722680513 -13.570550892164164 -40.137962914525758 174 122 108 255
-36.771670070961875 -12.446763787828218 -40.119925715586277 173 121 107 255
-37.025465280813904 -11.394549572484522 -40.040537334380105 175 123 106 255
-37.007835249875541 -9.823386637192812 -40.382962948929958 169 121 101 255
-37.186697137322568 -8.618052267932910 -40.422030106232000 163 116 95 255
-37.096308037287287 -6.889753326581229 -40.881209611663223 158 111 91 255
-37.278769396639973 -5.677756224378015 -40.917446255898767 148 106 84 255
-37.232090644979593 -4.014462578551047 -41.312490444440215 129 99 72 255
-36.690349252014812 -1.370763369774977 -42.483852544361895 112 102 69 255
-48.774550076074462 -13.153739006981482 -26.023388205658222 185 141 127 255
-49.834450759944019 -13.819252401605354 -24.655074816759253 182 131 121 255
-50.630311227405912 -13.952187520021511 -23.702805472483959 160 111 104 255
-51.164663294726296 -13.547866688318720 -23.164597384231456 139 93 85 255
-51.624304596083732 -12.990043306003258 -22.744697225685627 128 88 79 255
-52.009959874743615 -12.277379387015060 -22.442538358891511 83 51 42 255
-52.615253554404674 -12.033584859164193 -21.789029792262340 31 14 7 255
-53.073100141837614 -11.479126845234703 -21.370581076145214 10 5 0 255
-54.422272281102778 -11.318688518460988 -19.835549920212031 1 3 0 255
-54.515832287609157 -9.979585424919691 -20.001373430622237 0 3 0 255
-54.827357484175820 -9.112450294861617 -19.817164307121544 0 3 0 255
-55.785367860137313 -9.674865952525920 -18.588619730535981 0 2 0 255
-56.417578564484117 -9.527268522811028 -17.884280636361098 0 3 0 255
-56.121197395421959 -7.305182981924872 -18.684396336432769 0 3 0 255
-56.184668114610801 -5.876026511402870 -18.903796857334243 0 4 0 255
-55.081796594384812 -1.791222375519794 -21.023098743023979 0 6 0 255
-55.506437042537641 -1.152594565869492 -20.660783884313361 0 6 0 255
-32.827172994120133 -19.247015144702914 -44.737453117329864 211 162 147 255
-34.000077762398291 -19.842514934060489 -43.244253262427634 218 170 156 255
-34.369864452100501 -19.013743375901299 -42.984737750037652 219 168 156 255
-34.501004084464029 -17.753448359209273 -43.093522276225940 220 168 154 255
-34.594074087658612 -16.418067060801491 -43.262340282316671 213 161 147 255
-34.886793243773070 -15.440820157334969 -43.123602186233455 182 130 116 255
-35.101280200009853 -14.317289035537385 -43.106590079723333 102 51 34 255
-35.749390157378173 -13.992035342535274 -42.417368261960149 167 116 99 255
-36.278381721043104 -13.450637136147691 -41.912132303182432 182 131 114 255
-37.001952147576958 -13.276748906960705 -41.103318387977254 171 123 108 255
-37.333961268529293 -12.372247803283528 -40.903511535583618 173 122 105 255
-37.549874951186894 -11.246018886855325 -40.885324770353776 168 118 100 255
-37.341069108563858 -9.305033625959908 -41.532347866891087 165 117 97 255
-37.290426109291275 -7.653438672700503 -41.934551625533544 154 112 88 255
-36.742464145510610 -5.030410364674708 -43.119292972172587 143 109 79 255
-36.622336097129846 -3.216369061679075 -43.636371218764054 130 107 72 255
-36.390822686818439 -1.171900509442651 -44.331383361704866 101 99 57 255
-48.493067140301335 -11.380085110270699 -28.078119697465922 129 109 85 255
-49.515408481272530 -11.962864856221927 -26.763225324430124 168 134 118 255
-50.496704230211890 -12.476087930233177 -25.510724112586161 141 104 93 255
-51.069465270101048 -12.144660840705001 -24.910765565960617 102 72 61 255
-51.201002881634494 -10.883571457225401 -25.019183653000681 37 13 4 255
-52.503612296893266 -12.111844164560182 -23.242976085111081 28 11 4 255
-52.853139125642826 -11.320472223518038 -22.999297743165357 37 27 18 255
-51.678115497790685 -7.238785235035607 -25.219446069835300 10 8 0 255
-53.878467627560255 -10.443622090324311 -21.984358792995039 3 3 0 255
-56.427385607830828 -14.458544335825252 -18.173969637655773 1 3 0 255
-56.681627074956126 -11.952940677375096 -18.397959628579542 1 3 0 255
-56.168606258608094 -9.265572541475137 -19.555537009387336 1 3 0 255
-56.337635837242615 -8.080809549669311 -19.604534232462953 0 4 0 255
-56.791784673610110 -7.532545286334027 -19.188389959344050 0 5 0 255
-55.443045750128547 -2.899563278152129 -21.726166507567257 0 8 0 255
-56.289773332681463 -3.225510034485239 -20.670050832411391 0 8 0 255
-33.270109962934669 -18.963723955700885 -45.711636602153561 211 162 147 255
-34.559552313996306 -19.771910042780803 -44.028846552060031 219 170 156 255
-34.810524889791935 -18.727849756146753 -43.954392983653349 215 162 151 255
-35.101994556566041 -17.753981695715879 -43.817625579000037 213 161 147 255
-35.157158566225746 -16.346483288158026 -44.049381439264778 195 146 131 255
-35.529382501163326 -15.513446558428200 -43.788177609547887 153 104 87 255
-35.705518717508340 -14.317509629430162 -43.833422378493253 132 81 64 255
-36.313445315096430 -13.919168311522185 -43.204122095895741 185 134 117 255
-36.647028059220702 -13.012444887821090 -43.003717860456675 170 120 103 255
-37.214342336413836 -12.544078915953492 -42.436779645783417 168 121 103 255
-37.392947023244176 -11.343527462461680 -42.480041285971083 162 115 96 255
-37.534279861209541 -10.066792935649431 -42.583061228243480 162 115 94 255
-37.099347934565031 -7.679219382912123 -43.596057582343462 152 112 87 255
-36.938486767461029 -5.800511695661498 -44.180352484785686 139 108 79 255
-36.092060103828317 -2.577798632993222 -45.851956236382847 110 110 64 255
-48.874170166380097 -9.414797427676262 -29.415924728626976 28 29 8 255
-49.856515213186228 -9.920100046562652 -28.157056896841311 73 64 44 255
-49.005116115882259 -6.561572022625995 -29.863163667135154 41 33 15 255
-50.022169084302774 -7.147815697560787 -28.546564918825879 20 10 0 255
-52.089420022576192 -9.999824086938816 -25.520786328595506 16 7 0 255
-53.348372834888195 -11.154439592805545 -23.800744121600957 9 4 0 255
-52.506819351202964 -7.777782152194732 -25.499196774988235 5 4 0 255
-55.848850185374189 -13.495939539937098 -20.374372794077345 5 5 0 255
-56.946881895045848 -14.367791695961614 -18.902729140682652 1 3 0 255
-55.501512360558635 -9.641162768665765 -21.593923586468492 0 4 0 255
-58.130678588511586 -13.920772165554013 -17.608417481201883 1 3 0 255
-56.909179054098615 -9.650795532921450 -19.940870610667929 0 3 0 255
-55.167589838371768 -4.166190536196837 -23.139304214472588 0 5 0 255
-56.226999620397550 -4.964493871995728 -21.728605861967992 0 7 0 255
-56.227241470135439 -3.368604883344574 -22.064722596539866 0 8 0 255
-56.054958482407201 -1.366314750051231 -22.688865105118253 0 10 0 255
-33.754621870968236 -18.751838210295148 -46.625632651505725 212 167 151 255
-34.643697515182168 -18.844882061684814 -45.558006043858342 216 168 154 255
-35.015707043895247 -18.012593141963976 -45.297296119101787 209 160 145 255
-35.427299607288489 -17.251815508373994 -44.974645495544166 203 154 139 255
-35.720901711522913 -16.275022727475090 -44.837149005265644 189 141 125 255
-35.975966017001610 -15.224748967803350 -44.760738895253667 178 131 111 255
-36.036610541029376 -13.810341079084367 -44.991183852159281 183 132 111 255
-36.255112500209407 -12.682920835279390 -44.974298454445773 177 131 109 255
-36.435924481287316 -11.480456078842593 -45.017838121046736 164 119 96 255
-36.463312497933288 -9.982780560007029 -45.305206385818508 159 116 93 255
-36.570195787750379 -8.627547737661274 -45.468461713704670 148 114 87 255
-36.217444382840029 -6.385532093392015 -46.362728588350336 136 116 78 255
-35.754435758137504 -3.913215644616855 -47.436095118640765 118 117 70 255
-51.613366892050465 -7.733341980144559 -27.927958450577904 13 9 0 255
-52.619051607707632 -8.334286852341961 -26.614420805151184 3 4 0 255
-53.297267360150002 -8.238268913507568 -25.835634112166957 3 5 0 255
-54.868697923246074 -10.108687223087315 -23.584371166686140 2 5 0 255
-55.432937692645993 -9.789293547824457 -22.987646939474388 1 4 0 255
-55.600699562743003 -7.019543271463306 -23.381463205823877 1 4 0 255
-56.800371494019515 -8.130243058253257 -21.730633339150074 0 6 0 255
-56.339848863296226 -5.508906020891516 -22.833194123802883 0 6 0 255
-55.569323432282530 -2.158337075948737 -24.456827840760980 0 10 0 255
-34.121750121018181 -18.326757400098245 -47.727960908874763 212 167 148 255
-35.127795622269161 -18.632062056767751 -46.470751471589466 207 156 143 255
-35.421721326731813 -17.655746913170759 -46.333998498633832 201 149 135 255
-35.873230768990368 -16.965440438077593 -45.948753318168002 190 142 128 255
-35.933273290061891 -15.555434903374845 -46.182719518814253 189 142 125 255
-36.073397187801447 -14.286042200144578 -46.291421337331997 180 133 111 255
-35.826404948941246 -12.288909843235245 -47.015925118557220 174 129 105 255
-35.970960145306094 -11.011293171891339 -47.121122373281253 159 124 94 255
-35.692184234731428 -8.928551327589275 -47.901747597039247 147 121 88 255
-35.417677597912757 -6.837903853059487 -48.679012747333388 133 120 79 255
-34.648372819249914 -3.785577289518187 -50.250200207925133 114 121 71 255
-52.190467258125594 -6.140110476264738 -28.967718042812720 1 6 0 255
-53.370985773747435 -7.133210438189565 -27.355095264590148 0 5 0 255
-54.011901870326000 -6.958812959202703 -26.634005007106850 0 5 0 255
-55.041587150536103 -7.653446817811840 -25.264601230625317 0 5 0 255
-55.783893705223747 -7.724671779730670 -24.370372547519423 0 5 0 255
-57.123151471183533 -9.146095025632434 -22.477231781801095 0 6 0 255
-56.769305407047682 -6.769332930286055 -23.410596328742571 0 10 0 255
-34.215553735323397 -17.404222352989564 -49.270262144832117 203 161 139 255
-35.102554300475390 -17.492078736579003 -48.195898317773384 198 149 134 255
-35.281554768854335 -16.297358400753239 -48.244932988526045 187 139 124 255
-35.383829701268951 -14.956522666363526 -48.417250504625429 178 135 118 255
-35.410104597335874 -13.468231459141634 -48.712282995436112 172 133 112 255
-35.205884601658624 -11.542226126245680 -49.377454092729437 163 133 103 255
-51.344679587879014 -3.010908635581075 -32.046745980805355 0 10 0 255
-52.134908830860070 -3.133684682493254 -31.079825717404191 0 9 0 255
-52.922462012881951 -3.261430874293239 -30.115025281299381 0 9 0 255
-53.460172099219236 -2.843300177274443 -29.567137206386832 0 10 0 255
-33.726225206069955 -15.415950590409722 -51.757964630980922 190 169 133 255
-34.927224527154692 -16.067596858546892 -50.177903661930998 194 149 127 255
-35.109851478674926 -14.868320616044173 -50.226085853993482 175 132 111 255
-34.555541070346663 -12.303023734243283 -51.458440958227527 155 129 98 255
-34.137130348742346 -13.503351526173361 -53.172309089699951 178 153 118 255
-34.053783955718018 -11.795326413779151 -53.656827319932148 160 133 101 255
50.862319343323605 -0.628856193070135 -24.307074632694224 140 146 96 255
51.510445775794949 -2.048972933910647 -21.855576888539332 164 146 111 255
51.891820815154261 -2.240477688714122 -20.524513380766109 165 132 101 255
52.386859271455876 -2.981797136368186 -18.711535718363052 156 118 86 255
52.683369376241970 -2.795497880810217 -17.734745876849871 144 110 75 255
52.913851511112028 -2.299434263305216 -17.036316003521108 131 102 66 255
53.030180320387345 -1.255631075978386 -16.821211230067775 116 97 57 255
53.211780174916072 -0.524761466738596 -16.329895925645985 96 92 47 255
49.687843998514396 -0.610766215010983 -25.144553493299014 155 154 112 255
50.832723676053305 -4.257398488342005 -20.670232316946510 175 148 119 255
51.451414729997012 -5.532343315393746 -18.368166965245081 173 132 113 255
51.799772639396053 -5.578183843227748 -17.183902056666739 166 121 103 255
52.097044389930872 -5.395204606190191 -16.210330425158332 160 115 95 255
52.493199139270700 -5.683229346370780 -14.824375769050704 148 108 83 255
52.672735980759896 -4.960440402793665 -14.338458242089274 136 101 73 255
52.670788303809815 -3.375085113075215 -14.609230416623035 124 95 64 255
52.653605483257252 -1.706288087902351 -14.945422507837350 107 88 53 255
49.514975587325580 -3.536627415183773 -22.132588473098536 182 152 126 255
50.739606098081296 -7.498329885097348 -17.392825287188032 184 140 123 255
51.209118625030158 -8.086041691136757 -15.724736645335554 170 124 110 255
51.422436985650592 -7.518587050956029 -15.100490088132688 160 116 103 255
51.618631938027647 -6.874330778910178 -14.545978940661826 155 113 97 255
51.966327910840931 -6.932154598732382 -13.371209204323634 144 108 86 255
52.111436453367602 -6.056334693618197 -13.025122795912409 136 102 77 255
52.173083796074351 -4.787705184084189 -13.021777495346328 124 93 67 255
52.085365625536539 -2.808500850712107 -13.632995763614105 109 85 56 255
51.982777380896977 -0.743456836116138 -14.307878509540529 86 77 42 255
49.758836069662010 -8.227747568807928 -17.529965830077487 182 141 121 255
50.337173140020056 -9.273328114606869 -15.444815847063097 180 133 118 255
50.568036433314461 -8.783709826060090 -14.751951356719616 173 125 111 255
50.850142681255477 -8.527937033003496 -13.852645889416891 163 115 101 255
50.925930875484937 -7.342340821627545 -13.782862686160769 155 114 96 255
51.190289285755625 -7.011384922064337 -12.954242467936609 143 107 85 255
51.266784353503098 -5.823026026010950 -12.882614793842748 134 99 77 255
51.394858757867922 -4.867183706974402 -12.603656643630245 121 90 65 255
51.421748761964977 -3.438520654540866 -12.734148795270755 108 85 57 255
51.348441010894504 -1.533071628403036 -13.271426549163948 86 77 43 255
48.759801230137739 -8.881109015476596 -17.736748391676628 183 140 120 255
49.432935569437319 -10.304593349889558 -15.303582213327303 182 137 118 255
49.787281282281484 -10.354025918293587 -14.126009527056510 176 129 113 255
50.035613350249520 -9.944450851751100 -13.366304196505581 168 121 105 255
50.283499844278168 -9.536694004142475 -12.607824989257239 160 114 98 255
50.374562357017894 -8.431582087065181 -12.470201279791780 151 113 92 255
50.518130363198139 -7.558038130949257 -12.125038660734077 141 106 84 255
50.558317630810208 -6.214907046129525 -12.190634120523470 132 99 74 255
50.651014511490743 -5.103340533299502 -12.048690430219295 119 87 63 255
50.675632891136573 -3.675352783478615 -12.178328580371897 109 82 56 255
50.649933345316498 -2.007086507076679 -12.509664554805681 89 75 43 255
45.275449472614824 -0.519826485647457 -27.361746051149851 149 146 101 255
47.059843819117219 -6.558247870669220 -20.658368911774716 183 147 120 255
48.423093720221729 -10.875074177683587 -15.579001565624736 179 138 116 255
48.744859762499843 -10.767783586726210 -14.539356924567784 178 131 113 255
48.994629083395736 -10.356076064615706 -13.778782220216868 168 121 103 255
49.261672463064599 -10.023411080592894 -12.950418344858662 164 117 99 255
49.528159981344331 -9.693006354342799 -12.123577464247120 161 116 97 255
49.670801493008184 -8.821229657858680 -11.779299849158690 154 111 92 255
49.778539652476411 -7.792862648598174 -11.571615460016631 137 101 79 255
49.764185480102597 -6.216072765162636 -11.841755555571467 126 94 71 255
49.751033161933805 -4.634488836353455 -12.108679567089922 116 85 62 255
49.773873728306569 -3.205193882042465 -12.236131763197307 109 82 58 255
49.763022162790008 -1.614457451369958 -12.496919703998543 95 78 50 255
47.102407940322223 -10.149711672215005 -17.035735563266343 185 141 119 255
47.808215684586401 -11.643249380138002 -14.536922638565386 177 135 113 255
48.041030134081026 -11.153969700195262 -13.845551123011319 175 127 109 255
48.345561765624268 -10.973979946076156 -12.878964430816183 168 119 102 255
48.613395806852708 -10.642741377303395 -12.052271344883110 164 116 98 255
48.791146041393688 -9.926679488609295 -11.570804395545366 158 113 94 255
48.915336021703311 -8.977763162509916 -11.295157063269983 151 108 89 255
48.986459758599707 -7.794008614029849 -11.223996463187262 135 97 76 255
48.987269876042376 -6.295354614096084 -11.424286193556668 125 90 68 255
48.953797897125952 -4.635752918161074 -11.757953097605366 119 87 64 255
49.009798344532655 -3.363507104955431 -11.748107460539501 115 87 63 255
49.031411579900208 -1.930750691489095 -11.871934997406186 108 88 61 255
46.706351566865322 -11.831661725904212 -15.158640426512903 182 137 116 255
47.179188077876830 -12.334473472753984 -13.566304396216736 176 130 109 255
47.320731662673040 -11.463226027059534 -13.221781731023725 170 122 105 255
47.626750466756704 -11.283731031959803 -12.256528643629025 166 117 100 255
47.841002641819870 -10.721519592779202 -11.637197247864748 162 114 97 255
48.036882232123389 -10.082856879071130 -11.087114286123750 155 110 91 255
48.087936827768189 -8.823789455433428 -11.085088487780212 148 105 86 255
48.157783403434905 -7.639529118901720 -11.012715730201506 135 97 76 255
48.192322904074558 -6.296574756056259 -11.074946041994053 129 94 72 255
48.281507022912180 -5.184971641142283 -10.930788190317770 124 91 69 255
48.371236813101746 -4.071218366309836 -10.785192027641045 124 94 70 255
48.425884358240481 -2.797885195930633 -10.773606355754652 118 93 67 255
48.339217719995872 -0.890044845793113 -11.300601890549359 104 89 60 255
45.599742366276246 -12.024053692160663 -15.780698162229754 182 135 115 255
46.226935460987306 -13.131257777787255 -13.632993226667367 180 132 112 255
46.628292739027273 -13.331257661458096 -12.321375783261203 174 126 106 255
46.750150965855042 -12.385996136798411 -12.047300247027778 169 122 104 255
46.983261502009938 -11.901045640018197 -11.359691787022797 165 118 100 255
47.142289243836473 -11.108887144799553 -10.947548939551467 161 115 97 255
47.301414550115396 -10.316349922058407 -10.535153650751596 154 110 91 255
47.314031717959949 -8.902722323440685 -10.669202259649694 145 104 84 255
47.364167425071358 -7.640807171730614 -10.664250939665948 135 98 77 255
47.415062372388761 -6.375865976933994 -10.657269984578363 131 96 74 255
47.612014274275666 -5.733892076782155 -10.105116295087868 127 95 72 255
47.772640274433471 -4.935472568544071 -9.688791053937393 129 98 74 255
47.825059808489556 -3.664525685151716 -9.677792982295983 126 99 74 255
47.698266900527969 -1.601447554425192 -10.339252779627742 109 89 62 255
44.393371335781538 -11.841424208356187 -16.750068456963390 179 138 117 255
45.236715607768730 -13.776067438761942 -13.838186267849863 178 134 113 255
45.736160826435764 -14.353836090519138 -12.180486833841627 180 129 110 255
46.083031515545954 -14.327460158801102 -11.079469038981017 173 125 105 255
46.165948493056902 -13.231548920162084 -10.944387496917074 168 123 104 255
46.286851109184170 -12.287308293695048 -10.670561838861602 164 119 100 255
46.408067275789747 -11.341810676255676 -10.395891950340598 160 115 96 255
46.566835277333823 -10.549743265014570 -9.983662920993282 151 108 89 255
46.614320350359051 -9.291909822245799 -9.980438075839345 143 103 83 255
46.662561777015796 -8.031053226844392 -9.975184190549214 136 100 78 255
46.766924252628698 -7.001186866861588 -9.764161593893419 132 99 77 255
46.926917835412070 -6.204290849672446 -9.348702660172791 132 101 78 255
47.087017782123439 -5.407009034262842 -8.932990910389321 133 103 79 255
47.100903727693009 -3.980015963057383 -9.056778961435128 126 99 75 255
47.079303358043433 -2.391339732245854 -9.312587502342950 111 89 62 255
43.937422796857788 -13.209488774855885 -15.151740976048927 180 135 116 255
44.557943389417204 -14.235047584329891 -13.076264545352643 173 131 109 255
44.984633376192704 -14.508629169317089 -11.697353509245687 172 126 105 255
45.352657294889624 -14.558693232593015 -10.528806696635570 168 123 104 255
45.491330194810345 -13.693321658136909 -10.187356950624832 168 122 103 255
45.573309081400595 -12.596497692202178 -10.050937632268869 164 119 100 255
45.655819353013655 -11.497536963199508 -9.913082196332283 154 112 93 255
45.757718652033219 -10.473758289753050 -9.705560978575221 144 107 86 255
45.860043571938704 -9.448280753390407 -9.496899905356287 139 103 81 255
45.906556239682217 -8.187821368470964 -9.490899619458588 135 103 78 255
46.009901964432260 -7.158281003082038 -9.279514406404417 132 105 78 255
46.132316269000540 -6.205238007196670 -8.999351570185524 134 105 79 255
46.292219813783007 -5.407772149244352 -8.583365566591254 134 104 78 255
46.304007009305607 -3.980790581818951 -8.705858324237397 125 100 73 255
46.316778102728250 -2.549898624355421 -8.825730019574593 106 89 59 255
42.842349692802998 -13.482669745659592 -15.703886040617590 179 136 117 255
43.469999831960408 -14.500980376116331 -13.626849947036476 178 131 113 255
43.978579522173803 -15.073659411612141 -11.970621826670339 175 128 108 255
44.214140036761833 -14.587182827699621 -11.283274900074673 172 125 105 255
44.565224460801176 -14.560588126280436 -10.184695946867492 168 123 104 255
44.626441861514152 -13.388504252952515 -10.117024784996090 169 122 104 255
44.803514725975134 -12.674977462449874 -9.637232501019525 162 117 98 255
44.923126823187076 -11.730291408730864 -9.362236281774301 154 111 92 255
45.081239676067256 -10.938941432495284 -8.950193053489414 145 107 86 255
45.144254838448830 -9.759635101750149 -8.877668694948056 138 102 80 255
45.207915202564081 -8.577748950359819 -8.803412699340925 134 103 80 255
45.347941021551648 -7.705107393722528 -8.456793906554850 133 105 81 255
45.450428717750583 -6.675291187355981 -8.244647212379959 136 106 82 255
45.590989361225439 -5.800564727153017 -7.896637313090338 134 104 80 255
45.637937464576567 -4.531928496849218 -7.884147863791043 123 97 72 255
45.629516785735277 -3.023752738915107 -8.070827032673520 105 87 60 255
45.454283014561412 -0.799711614037165 -8.856848778480071 89 85 55 255
42.536010514562818 -15.374501018844882 -13.624458064687303 180 133 115 255
42.911532710877708 -15.413055528435393 -12.451057912137884 179 130 113 255
43.305594811670986 -15.532043161266358 -11.211805181347870 174 126 106 255
43.463174952140037 -14.741911491810868 -10.800437948838976 172 124 105 255
43.757691747611034 -14.486145329494747 -9.908853664377745 169 122 106 255
43.895570190464724 -13.620208363383199 -9.566442585661548 169 121 103 255
44.014208097258688 -12.676629340495452 -9.291755900161149 159 114 95 255
44.133157074644913 -11.731797489635113 -9.016226884028839 151 109 90 255
44.252418860869369 -10.785711489109190 -8.739855525285037 144 106 85 255
44.352718641554873 -9.760878108665281 -8.530467942444005 137 101 79 255
44.453444129521870 -8.734347256510148 -8.319941707976199 134 102 81 255
44.612099062694000 -7.939914078922072 -7.905686581870697 135 104 83 255
44.694404977382746 -6.832491738832971 -7.760708801711132 138 106 85 255
44.834425598198408 -5.958044365276464 -7.412593891149129 133 102 81 255
44.841637469727090 -4.532624575183206 -7.533533282562246 119 94 71 255
44.792984987827097 -2.866859081465293 -7.852666719601586 104 86 60 255
44.613385667544094 -0.642633563760910 -8.635821941797957 81 79 49 255
41.522249740333280 -15.946574185404415 -13.898757402797315 183 136 115 255
42.120959324272121 -16.812268303569766 -11.965306815377915 179 130 114 255
42.418068483205843 -16.551720335290838 -11.071381052065647 178 129 114 255
42.734392255401602 -16.369819100841141 -10.110545355289247 172 123 106 255
42.851503058976164 -15.429619294396275 -9.837702892290480 170 123 104 255
43.028282070442017 -14.717270178380488 -9.358701513111924 169 122 106 255
43.086642341149741 -13.545474601178199 -9.289492395993648 165 118 100 255
43.224352334193071 -12.678334365304153 -8.945981836592495 156 111 92 255
43.323016049697912 -11.656329032457847 -8.737915077508404 148 107 87 255
43.402532118980858 -10.555383098235950 -8.596556942541838 144 106 85 255
43.502094855615525 -9.529769725796541 -8.386066308817391 139 103 81 255
43.602082433106432 -8.502460387784595 -8.174437729944231 134 101 80 255
43.780116730959563 -7.785085518656217 -7.692061930796910 136 105 84 255
43.861390587308804 -6.677132159854239 -7.546003516439185 137 105 84 255
43.981795655497649 -5.723734274409026 -7.264298137063832 130 100 78 255
44.006318428157158 -4.376231857670973 -7.316541078152426 114 90 66 255
43.897407584528764 -2.473744131263970 -7.834132341220908 96 82 55 255
40.242016643926490 -15.544967264322963 -15.072797822163267 182 137 115 255
41.010166992466353 -17.003827540056420 -12.584075451299469 182 134 116 255
41.410719918506913 -17.117264595281597 -11.344269384534925 178 129 114 255
41.668715182519691 -16.705863337094030 -10.589061982573611 177 128 113 255
41.926246203924734 -16.296302965604127 -9.835087837164139 173 124 107 255
42.163234626269968 -15.812460445000283 -9.150806253379443 170 123 105 255
42.299744791373669 -14.948305321882685 -8.809017575931307 167 121 105 255
42.376539846820123 -13.853656049689732 -8.671173283155099 162 117 98 255
42.453861454970166 -12.756876630099924 -8.531895337758726 150 107 88 255
42.472127193692842 -11.426957367914497 -8.594784410040518 147 106 86 255
42.491250706761633 -10.093584244150435 -8.655351424777535 141 105 83 255
42.609993864779497 -9.143972966760543 -8.375743252255603 137 102 80 255
42.788143891744014 -8.426098369447061 -7.893026272441233 135 104 81 255
42.946639819050631 -7.630405596747607 -7.477630972297419 134 105 81 255
43.026883133584022 -6.521920589159663 -7.330492345684689 130 102 78 255
43.107665295669946 -5.411295970550896 -7.181919886554653 123 95 71 255
43.091594072143351 -3.905809072576858 -7.366065578647550 107 88 60 255
42.960066781116439 -1.923392101084346 -7.947391573153965 94 82 53 255
39.750429819443113 -16.674444142277991 -13.686692404968625 181 134 114 255
40.278275448905688 -17.233087492904360 -12.030838583634363 182 135 117 255
40.660857114542580 -17.271253489182840 -10.861506151767543 178 129 114 255
40.940179905658368 -16.935624644570623 -10.038326197801041 177 128 113 255
41.198555939303006 -16.526401655692382 -9.285156318259510 174 125 108 255
41.395515387005261 -15.890727153068383 -8.738215091972847 169 123 106 255
41.551815157953655 -15.102934409692551 -8.327985459622454 164 121 104 255
41.586951206614089 -13.855547927298659 -8.325719764229831 160 117 98 255
41.683293059458990 -12.835426524362418 -8.117766954003201 151 110 90 255
41.739854809611430 -11.659658523885327 -8.044155647263125 142 105 84 255
41.756966050471107 -10.326921234805127 -8.103997272620717 139 104 82 255
41.794925752364776 -9.068149481612807 -8.094074745144383 135 103 80 255
41.933312274129577 -8.194560036823248 -7.745653164691674 133 103 77 255
42.091785696358556 -7.398016368162359 -7.329540429230263 134 104 78 255
42.171054608616629 -6.288778933115879 -7.181173972771944 129 102 75 255
42.250861481908160 -5.177403417899086 -7.031374398211426 121 96 68 255
42.232625243473166 -3.671288414379319 -7.213654828578655 102 85 54 255
42.038519503000444 -1.452170294530220 -7.992013669281874 83 75 43 255
38.690620004854850 -17.100026246925836 -14.099004784320073 180 136 114 255
39.369555075311212 -18.178110355645742 -11.959394338599765 184 134 115 255
39.609568753461971 -17.687837552223016 -11.271677595840117 180 131 114 255
39.952821428833474 -17.576029836954007 -10.241656955252154 179 130 113 255
40.191844520180453 -17.089668015931721 -9.556557605987081 177 130 112 255
40.430511497572923 -16.604708747562370 -8.872396362483443 176 129 111 255
40.586601698526550 -15.816858031334363 -8.461988512681785 170 125 106 255
40.763277380768130 -15.104938029444071 -7.983277645928212 167 122 103 255
40.858145035618577 -14.087039365391661 -7.776245878640935 158 116 96 255
40.953428494950487 -13.067453748775620 -7.568077999384684 149 111 90 255
41.008455585447152 -11.892271282881950 -7.493996653870710 141 105 83 255
41.023555879147835 -10.560169298071514 -7.553113275140987 137 102 80 255
41.019286506699032 -9.147220175714835 -7.677224337989202 137 102 80 255
41.157196528582972 -8.273682836131456 -7.328549590983243 135 101 76 255
41.335548716678716 -7.555003682362070 -6.845293161297860 133 99 73 255
41.473762466906877 -6.680280320664906 -6.495826747986342 125 97 68 255
41.472122408093881 -5.256812168752617 -6.612876286710417 117 95 64 255
41.351732137032542 -3.358470470641350 -7.126758291859545 97 81 51 255
41.073777444544760 -0.823860187276750 -8.167662476531973 66 62 33 255
32.459026531606341 -0.793647102628029 -31.273854840119810 136 139 85 255
37.310093913480557 -16.410592996878904 -15.548238810599884 175 146 112 255
38.292891780559145 -18.524463551106578 -12.439603290077315 184 138 117 255
38.660554018292629 -18.481719289144479 -11.337979853285248 183 135 115 255
38.922137109800531 -18.067191433674822 -10.582418234355487 179 130 113 255
39.288038278982967 -18.031449435458001 -9.485488770327322 178 129 112 255
39.569313559884222 -17.697324749755836 -8.664766191785816 176 129 111 255
39.724924933660702 -16.910513893963980 -8.254920315194880 175 128 110 255
39.797445238760204 -15.819146722521140 -8.117131732119901 169 123 104 255
39.974180461925002 -15.107001570547993 -7.638271748546288 164 119 100 255
40.088839779358821 -14.165465617778523 -7.362800579129896 155 113 94 255
40.141916828081719 -12.992554939705855 -7.289384991257066 147 109 88 255
40.195629231668761 -11.817076429043084 -7.214241555108430 140 104 82 255
40.249978570831217 -10.639029060062910 -7.137370405441914 136 101 79 255
40.345897235633004 -9.613152979928827 -6.924397050588226 135 100 78 255
40.401416078086285 -8.430404856947575 -6.844366829021965 134 100 75 255
40.518645161822619 -7.478517255025167 -6.561935489571539 129 96 69 255
40.575285775574642 -6.291283151126095 -6.478894075834432 120 95 65 255
40.592078296684264 -4.944970917022374 -6.527315015147764 111 93 61 255
40.387622701165000 -2.732015254038174 -7.304333859588638 92 79 50 255
36.955597930947178 -17.980102275128104 -13.747899883524695 186 143 117 255
37.668675981788184 -19.126320078524060 -11.541969317264801 185 138 118 255
37.974191183990982 -18.860120582024564 -10.648597462024782 182 135 115 255
38.279016068443156 -18.596652313348471 -9.757054364747177 182 133 116 255
38.583152226698829 -18.335913993233703 -8.867339957331353 181 132 115 255
38.886601271808573 -18.077904274033074 -7.979454128506234 179 132 114 255
38.999591663160061 -17.140382895628591 -7.706264266034538 176 129 111 255
39.133913919132681 -16.277645269919816 -7.364287212849717 170 124 105 255
39.268428913109673 -15.414106518523283 -7.021767687636270 164 119 100 255
39.340372604649829 -14.320369563972235 -6.881661498684281 154 111 92 255
39.308504215120905 -12.841079350568691 -7.077643060164121 146 108 87 255
39.340145387198064 -11.588178129828037 -7.068645495334920 139 104 82 255
39.455563549481994 -10.640773569216236 -6.788794469663827 136 101 79 255
39.591994836501499 -9.769468182165497 -6.441045562013045 136 101 79 255
39.646034189417165 -8.587088239416232 -6.360399912306320 132 100 74 255
39.700714749120436 -7.402137103627012 -6.278027274378815 125 94 66 255
39.756038255511498 -6.214613397095036 -6.193927590975335 117 94 62 255
39.709583264320159 -4.633380299916951 -6.440437195469968 105 90 57 255
39.439591016627460 -2.184451326099008 -7.413251466489385 88 79 49 255
36.480605630194205 -19.101914267235259 -12.365774732838958 189 141 120 255
36.982901902130010 -19.503820325446725 -10.852208054515671 187 140 120 255
37.246551170713531 -19.088547681950331 -10.097315265131471 185 138 120 255
37.595680195158039 -18.975600637719765 -9.070006086842113 185 136 119 255
37.922467853747051 -18.790927254166832 -8.113384079917722 183 134 117 255
38.184322984565370 -18.382745441137104 -7.363237922949281 181 134 116 255
38.275120698227681 -17.370169849318899 -7.158076486833352 178 131 113 255
38.366327904782253 -16.355913703922027 -6.951780304902769 172 126 108 255
38.500374800530111 -15.492417768878511 -6.609005157302761 166 121 102 255
38.549976486869753 -14.322356520704261 -6.535784569620290 157 115 95 255
38.558000646344027 -12.996408090706069 -6.595589124265615 150 112 91 255
38.587927886683218 -11.743894944787172 -6.585846824422646 143 107 85 255
38.702582875531903 -10.796782720646320 -6.305763007251670 139 104 82 255
38.838488149863053 -9.925746700123398 -5.957909762684693 137 102 80 255
38.870162954681589 -8.666192081128429 -5.943432679799827 132 100 75 255
38.902587523365128 -7.403627229255790 -5.926933140771524 124 95 65 255
38.852655033540174 -5.826120143432917 -6.174361095577666 115 94 61 255
38.741745361816768 -4.009230600671231 -6.617600749497711 96 83 50 255
38.446344790629411 -1.480438716997583 -7.652468868212196 83 79 48 255
35.044542684198007 -18.266694235618473 -13.947705412765600 190 144 119 255
36.077845658076143 -20.446363988813829 -10.780992239902446 191 144 124 255
36.451780746023942 -20.403719283795255 -9.683350970981934 190 143 123 255
36.694011179488285 -19.915887841359734 -8.999030692766610 189 142 124 255
36.827249670388397 -19.053994134201389 -8.657077532772632 188 139 122 255
37.112371693783643 -18.718510058965364 -7.837622673523583 186 137 120 255
37.353682157576245 -18.234245256698415 -7.155679020833929 182 135 117 255
37.508387543491864 -17.448364416273819 -6.746038739497948 179 132 114 255
37.641666688481635 -16.586150340705899 -6.403846002744984 173 127 108 255
37.753685132306700 -15.646940987411313 -6.128656410585904 167 122 103 255
37.780415605975051 -14.400823865979561 -6.122214318842907 159 117 97 255
37.829230315996412 -13.228340087885243 -6.046501735384112 151 113 92 255
37.857390194752654 -11.976434850941132 -6.036163221906321 145 109 87 255
37.907527928681233 -10.798601762296101 -5.956850843227073 140 105 83 255
37.937123212568125 -9.540904745536039 -5.942616608957138 138 103 81 255
37.967465889063334 -8.280200131604943 -5.926360623285035 130 100 72 255
38.019627237616092 -7.094225009525928 -5.841575239627275 123 96 66 255
38.051415009289101 -5.827721734955333 -5.821423869072788 113 93 60 255
37.832430805302849 -3.620064338578629 -6.593790330469886 92 82 47 255
37.469171880847000 -0.855320578178350 -7.823028182047324 56 56 25 255
34.508312592907686 -19.162422552295425 -12.772224168795219 192 144 122 255
35.240515474969413 -20.301833291404620 -10.572556143462009 192 145 125 255
35.638843584543508 -20.332923026991352 -9.407163344563230 190 145 124 255
35.859892345958727 -19.769714471384191 -8.791233095797708 190 143 123 255
36.036759707875589 -19.057336011458915 -8.312262385658897 188 140 123 255
36.388865697544944 -18.947371004054673 -7.289269280186005 185 137 119 255
36.565229573714944 -18.236930811961798 -6.811587934849342 182 135 117 255
36.719763183945901 -17.450844962793497 -6.401671377007034 178 131 113 255
36.809142300183424 -16.436547529579258 -6.194204528904720 172 127 108 255
36.964001791424081 -15.649087917374317 -5.783354869973834 165 120 101 255
37.054037835937535 -14.632092727128679 -5.574066176123608 158 116 96 255
37.079744050827415 -13.383578127488846 -5.565005279368876 151 113 91 255
37.063140121664958 -11.978393805384201 -5.687867119273079 146 110 86 255
37.047498499795353 -10.569324197395275 -5.808115227720037 140 108 83 255
37.075654349866312 -9.310915734946690 -5.792397931126658 134 104 78 255
37.104556909468073 -8.049501056147307 -5.774659599995630 125 97 67 255
37.198130424228211 -7.018221020707188 -5.555760751996701 116 91 60 255
37.228367361465558 -5.751450811767199 -5.534424542522260 104 86 55 255
36.898985505345536 -3.153047538173723 -6.634491683937853 85 75 46 255
33.236870627003867 -18.927545585799805 -13.801819798318917 187 151 121 255
33.954794166807744 -19.983473732393350 -11.668132139349979 193 147 123 255
34.424022647256947 -20.231853578694825 -10.294832985862797 193 146 124 255
34.735610375904187 -19.963824527061206 -9.403723940850256 192 147 126 255
35.180042965558982 -20.147485294759576 -8.105378937139733 193 147 124 255
35.334503890694521 -19.360930139270636 -7.695029210595322 189 142 123 255
35.666216148834195 -19.176154304498908 -6.741384155108079 185 138 120 255
35.820391563949102 -18.390657735553248 -6.331732069094556 182 135 117 255
35.996682780080548 -17.680514586538635 -5.854251118980557 177 132 113 255
36.106995730438172 -16.742674550963613 -5.579133240772762 172 127 108 255
36.239536707228126 -15.879745366320265 -5.235890393575062 166 121 102 255
36.350396156625465 -14.939650487742028 -4.959248176441463 160 118 98 255
36.352464511878097 -13.615373510301140 -5.016731782758740 152 114 91 255
36.333619754521635 -12.210844805713748 -5.138742493510478 146 111 87 255
36.315736740178920 -10.802431988935780 -5.258140092293615 139 109 83 255
36.320471694097790 -9.467383627428717 -5.308376730904399 132 105 76 255
36.347662157975932 -8.206359432113004 -5.289896797482811 124 97 67 255
36.375600288132787 -6.942329131730730 -5.269396516338418 114 90 58 255
36.361306070979694 -5.519471700865552 -5.379083788731521 100 84 54 255
35.940693889258284 -2.608254511469568 -6.739321369135865 83 74 45 255
32.978103346897711 -20.707474123208897 -11.803330219491613 192 154 126 255
33.360614655091112 -20.655782065497903 -10.703541298111162 196 151 127 255
33.764703903623897 -20.682513865645376 -9.538127482162025 195 148 126 255
34.054913000602951 -20.340845874587700 -8.716722980584052 192 147 126 255
34.501998501703099 -20.525083093246906 -7.420503863045070 193 147 124 255
34.656017896914818 -19.739421227855019 -7.010618126510025 191 144 125 255
34.966807157072992 -19.480103254855010 -6.126214201207205 186 139 121 255
35.075934406789457 -18.544356419689620 -5.852089635534782 182 136 117 255
35.274460425197375 -17.910107081121254 -5.307300551000452 178 133 114 255
35.361742694768012 -16.896868845446306 -5.099405731248567 173 128 109 255
35.493765985225437 -16.034201286567310 -4.756057324310007 165 121 102 255
35.625980670913918 -15.170737487347395 -4.412169649296487 162 121 101 255
35.648104527566375 -13.923654697516440 -4.402065272830527 154 116 93 255
35.648967436392041 -12.596786133476542 -4.456656957588820 147 112 87 255
35.628734828205566 -11.189470217893785 -4.575500620475765 139 109 83 255
35.631357593149914 -9.855495617019642 -4.625311788493747 132 105 76 255
35.612997098740152 -8.440631476018837 -4.739079164289194 123 96 67 255
35.595602262437453 -7.021881695467414 -4.850234599466575 110 88 57 255
35.470530806603406 -5.209817069507380 -5.288658604136714 93 80 50 255
35.000188570774128 -2.141971103706510 -6.776239775504280 71 67 37 255
31.356463628564882 -19.369246490636243 -13.861162020282080 188 154 120 255
32.385905736733534 -21.377888470305550 -10.838405760356807 193 152 127 255
32.884623625902762 -21.698300949703849 -9.399116626449285 197 152 129 255
33.336083109979612 -21.876312259950680 -8.100469818813480 197 151 130 255
33.558316520659332 -21.314146477715212 -7.486138143258330 196 151 130 255
33.893955869206167 -21.126839586341390 -6.532842131449740 195 149 126 255
33.956659659511033 -20.042742731814428 -6.394961010941927 191 144 126 255
34.223483029467801 -19.633492576007200 -5.647020424615732 187 142 123 255
34.286720701436252 -18.547151465598972 -5.507615873369105 182 137 118 255
34.530581769927736 -18.063964916693294 -4.828149347044729 178 133 114 255
34.594413230488740 -16.975156348647516 -4.687074086487030 172 129 110 255
34.725974766282462 -16.112529716024113 -4.343472438427568 167 124 105 255
34.857727178907979 -15.249107993175016 -3.999332150812847 162 122 102 255
34.967377176602255 -14.308350090602119 -3.721389883092058 157 120 97 255
