ply
format ascii 1.0
element vertex 638
property float x
property float y
property float z
property uchar red
property uchar green
property uchar blue
property uchar alpha
end_header
-17.526014574646126 -26.563799724212771 -14.083954246415317 217 183 173 255
-17.718709348851448 -26.072076736528416 -14.659973210633751 219 185 175 255
-17.779533756603186 -25.457082070219798 -14.858058012953109 219 182 170 255
-18.005275672780115 -25.002760160042584 -15.528458510259213 215 177 164 255
-18.264041653085386 -24.584437383075894 -16.293265000230576 208 172 156 255
-18.588821401741228 -24.235369080676534 -17.246926528027956 204 168 152 255
-18.946642328200980 -23.924450798382722 -18.294964678138001 203 167 150 255
-19.271536535338512 -23.586508449277702 -19.248462718188591 205 170 151 255
-19.464530856204377 -23.120948770489164 -19.824083681648233 210 172 157 255
-19.459619358118388 -22.457468945569715 -19.832979633223061 212 175 157 255
-19.619691551821717 -21.962999956447945 -20.314077494284817 213 177 158 255
-19.911782649279829 -21.607516624555956 -21.172884461728842 214 179 159 255
-20.533899629577050 -21.600289053816979 -22.975965724729093 213 178 158 255
-20.760121806465776 -21.188007230205841 -23.645727174037319 214 178 157 255
-21.085394623053233 -20.884136398929243 -24.598712030367693 207 171 149 255
-20.948684964663030 -20.093567091876253 -24.229680214892397 207 171 149 255
-21.109025432281129 -19.619594164852074 -24.710451300094093 188 152 130 255
-21.137379482793463 -19.005544762941511 -24.813509819957630 172 134 113 255
-21.264786148424605 -18.499886582915636 -25.199791065918305 164 126 105 255
-21.359220371407474 -17.960128715857735 -25.491624104752361 157 121 95 255
-21.420676944058613 -17.385456044451942 -25.689019497144329 152 116 92 255
-21.416136199232270 -16.738284483306046 -25.697585309915496 144 109 87 255
-21.345587397347970 -16.016988514725497 -25.517342761311482 135 100 76 255
-21.341093029134896 -15.369177642765464 -25.525894358580956 131 95 71 255
-21.402664966388727 -14.796466299530977 -25.723218490719830 127 89 62 255
-21.365205003575937 -14.111224184836075 -25.637352501327968 126 84 59 255
-21.360792468021302 -13.463490856854250 -25.645866829155466 123 81 56 255
-21.356407860978734 -12.815681320354798 -25.654369475137543 123 81 56 255
-21.484161723973585 -12.322427073029715 -26.040370547902086 125 84 56 255
-21.644988516786285 -11.870175480113829 -26.520705253105376 129 88 58 255
-21.739800900452565 -11.342131666971667 -26.812251286482848 130 96 65 255
-21.933752909898530 -10.934018942554459 -27.386864612381288 133 101 70 255
-22.028653276688985 -10.409820933967652 -27.678332546375799 126 95 66 255
-22.321813962824166 -10.127196664140584 -28.535926206858704 134 104 75 255
-22.482885723231703 -9.688193962412470 -29.016017778304615 153 122 94 255
-22.610967637887782 -9.211217015137677 -29.401708064039241 165 130 104 255
-23.102553565683664 -9.185317146636351 -30.825200783839449 156 120 96 255
-23.759440540267406 -9.372859947113398 -32.720304823194908 135 97 73 255
-24.482519024205772 -9.653810010622664 -34.803940528870783 124 88 62 255
-24.577820344515246 -9.155464769118154 -35.094968387949052 114 80 52 255
-24.805359605725698 -8.826206461641320 -35.763303445353415 104 74 45 255
-24.603308980445149 -7.952284296035856 -35.205259118279400 100 74 44 255
-24.963150648284653 -7.796538413264386 -36.250827900842978 95 71 39 255
-24.860321083240706 -7.048519985226051 -35.975754189587036 93 70 38 255
-24.988902301735536 -6.599611688055148 -36.360938153175454 88 68 36 255
-24.753915313494545 -5.676811627778179 -35.708578903399797 84 68 35 255
-24.849523541467732 -5.185327456524647 -35.999400577237651 80 64 31 255
-24.846002470127033 -4.563849694406230 -36.007252061217770 78 63 30 255
-24.710278059314490 -3.765853002189289 -35.637856038518748 76 63 31 255
-24.343145817541654 -2.655031366970164 -34.608339647079504 67 56 28 255
-23.447000687535990 -0.824108414211508 -32.070063954723537 52 42 15 255
-14.932076536034231 -32.336762095062497 -8.503003729607400 187 186 143 255
-15.026332545383241 -31.724774432883024 -8.795646289256752 199 174 148 255
-15.120607700827179 -31.114494851166157 -9.088263048053335 207 171 154 255
-15.314517766061627 -30.592730115707909 -9.664043813341323 211 175 159 255
-15.442046191347615 -30.015874694780010 -10.050990398371567 216 180 164 255
-15.503181127689317 -29.382303786872541 -10.249124508791482 217 181 165 255
-15.663967043501742 -28.839129101286588 -10.730396444905040 220 184 168 255
-15.924422985875509 -28.388778537936162 -11.494773174422505 216 181 164 255
-16.052060410980317 -27.821666870841540 -11.881572676077099 212 180 165 255
-16.345811905999639 -27.409567385843232 -12.740211591649825 210 178 164 255
-16.539953046427570 -26.909905956949345 -13.315665921157688 209 176 163 255
-16.966680808880525 -26.631225164564526 -14.551643363911296 214 181 167 255
-17.227356165625267 -26.202778543407334 -15.315700871784657 217 184 169 255
-17.521302364516686 -25.810337986313158 -16.174054274555971 218 182 168 255
-17.649160537835414 -25.263262704788090 -16.560552836201055 214 178 164 255
-17.777048790802226 -24.718387313245330 -16.947015751224683 209 173 159 255
-18.004662418425724 -24.273050655756705 -17.616490914342620 206 170 156 255
-18.464954360568427 -24.060548499095404 -18.946328495970704 208 172 156 255
-18.792375500717441 -23.723681844664327 -19.898689012590893 210 174 158 255
-19.086615017013315 -23.358979352230577 -20.756631275109299 212 176 160 255
-19.015271646517007 -22.630352552987546 -20.576817086912200 214 177 159 255
-19.209869932536662 -22.171038849850092 -21.151659780006185 214 177 159 255
-19.404509656955057 -21.714973683237915 -21.726451162899764 217 180 162 255
-19.865155124429862 -21.536849500298118 -23.055783647233369 219 181 162 255
-20.126389614958484 -21.158640660889986 -23.819084082750436 213 177 155 255
-20.520672169749417 -20.924253630608277 -24.959585884775748 202 164 143 255
-20.482753986403011 -20.239425754850728 -24.873920009306829 145 107 86 255
-20.577865354795577 -19.695710850581975 -25.165491133874610 131 91 71 255
-20.573243741268485 -19.046535937338305 -25.174113251415633 133 95 74 255
-20.734929140178508 -18.577119742974133 -25.654238632351365 145 107 86 255
-20.830137774881820 -18.037920020675557 -25.945720752826702 152 117 94 255
-20.892119625667902 -17.463808406969918 -26.142876275377375 150 115 92 255
-20.887606787816651 -16.817203101600484 -26.151423922194510 146 111 89 255
-20.849853203535332 -16.133515211847310 -26.065673136661445 138 103 81 255
-20.845386901001973 -15.486542161424154 -26.074203752365008 133 98 75 255
-20.840945722299864 -14.839511635909531 -26.082723747361655 129 92 66 255
-20.803260077272640 -14.154571073024456 -25.996955332034588 127 88 62 255
-20.765597120445534 -13.469020983788866 -25.911182961804769 121 81 55 255
-20.761231358826862 -12.821242114328911 -25.919676895454927 116 77 50 255
-20.823444539382166 -12.250695759832837 -26.116693242127070 117 79 50 255
-20.985525531324626 -11.797924130422302 -26.596474010105965 122 85 54 255
-21.047815474602231 -11.230167990126134 -26.793427929474973 121 90 61 255
-21.176703956328907 -10.742328004480342 -27.178868399827508 123 93 63 255
-21.405484874022335 -10.375757954566893 -27.847026984585966 125 96 66 255
-21.834028018004489 -10.252910680297674 -29.080619938666047 139 110 81 255
-22.062929820184308 -9.895300584155038 -29.748634063449344 161 131 103 255
-22.025583447973816 -9.216955267764419 -29.662647719465923 163 131 105 255
-21.954976107020684 -8.497115865639003 -29.482416548664389 173 137 113 255
-22.483639700338614 -8.515684304004182 -30.998422332246946 152 116 92 255
-23.278735001469016 -8.873656247561598 -33.268158065147020 134 98 72 255
-23.374754781053966 -8.370197956534767 -33.558917274281868 119 85 57 255
-23.337633101167597 -7.700593826314659 -33.472742398063986 114 84 55 255
-23.233946871130925 -6.945933911000722 -33.198117765780978 107 80 50 255
-23.729679746683317 -6.953476111152796 -34.619423523905766 104 77 47 255
-24.025689419300932 -6.712673046649513 -35.475324235702971 102 77 46 255
-24.321764195588813 -6.476560890182242 -36.331148507194939 95 73 42 255
-24.151642688073551 -5.639523802932601 -35.867989407621934 93 72 41 255
-24.148072913358575 -5.017216505108735 -35.875870990880003 88 70 37 255
-24.044618898461067 -4.263295913741388 -35.601135351124839 81 66 33 255
-23.907885632471022 -3.463454617358096 -35.232207777942193 73 60 28 255
-23.271522086059065 -1.996059024630839 -33.450383207537158 63 52 24 255
-13.259133213303713 -32.175868376392870 -5.856213680992568 181 185 138 255
-14.056502506239610 -32.145196332171480 -8.128863759709560 203 178 148 255
-14.051185283494178 -31.446134042691597 -8.138300256412919 210 175 156 255
-14.514198157059070 -31.148459423120983 -9.467785572738563 212 176 162 255
-14.743099332469569 -30.655894320457605 -10.137164035372479 214 178 164 255
-14.905125166627968 -30.108783694451432 -10.617922927715398 217 181 167 255
-14.732601239882939 -29.269702630535846 -10.155855623143225 219 183 169 255
-14.894664257051986 -28.725445973823241 -10.636569090670662 219 183 169 255
-15.257528330701021 -28.364053878060730 -11.682868882487128 213 179 164 255
-15.520055087366273 -27.917815809480942 -12.446280757838792 207 175 160 255
-15.782624612220829 -27.475963266226913 -13.209629237973587 205 173 160 255
-15.877897371861920 -26.884364251840026 -13.501612394000773 208 175 163 255
-16.240953778812809 -26.543207138603677 -14.547621907476241 213 179 167 255
-16.537122381881801 -26.145312099588097 -15.405039566930270 214 181 166 255
-16.799865567496298 -25.720690354494891 -16.168136458816576 215 179 165 255
-16.962225635575294 -25.204716335428017 -16.648431617207336 214 178 164 255
-17.091141130458027 -24.659307202323461 -17.034441923999339 210 174 160 255
-17.521407073628552 -24.408104436500068 -18.268564109725133 208 172 156 255
-17.884775227288515 -24.098521664353868 -19.314115490929595 208 172 156 255
-18.248202077107337 -23.794905512563687 -20.359580394394072 212 176 160 255
-18.444257974422115 -23.330974626665324 -20.933819869446580 217 181 165 255
-18.539889661540656 -22.769726219493620 -21.225336226221941 217 180 162 255
-18.669039662176999 -22.243907246849403 -21.611043969331206 215 178 160 255
-18.999173828425128 -21.924648181081551 -22.562016895409158 216 179 161 255
-19.362858522853244 -21.645127707205006 -23.607123289857981 219 181 162 255
-19.659612564975220 -21.302336180491537 -24.463722968170856 212 174 153 255
-19.889424668738400 -20.894649439885882 -25.131837378529582 150 112 91 255
-20.018783987820427 -20.385298595559036 -25.517285343849807 140 100 80 255
-20.047673659942404 -19.771849604448889 -25.620098984399448 105 64 44 255
-20.009580445856386 -19.087552740484938 -25.534505780411422 120 80 60 255
-20.139031129250071 -18.582464308890891 -25.919869927953300 128 90 69 255
-20.268518354576457 -18.079506277828770 -26.305196249983680 146 111 89 255
-20.331024288152776 -17.505684816178416 -26.502115173825956 150 115 93 255
-20.360049184021008 -16.896139136812209 -26.604829071175146 147 112 90 255
-20.255049302895387 -16.138950987818305 -26.330815693596378 141 106 84 255
-20.217091422012572 -15.454700410498575 -26.245161682506108 134 99 77 255
-20.145637517480822 -14.732278662717675 -26.065334059096926 127 93 68 255
-20.141237981653248 -14.084402782681437 -26.073844031750355 124 89 61 255
-20.036303177667534 -13.322114768101258 -25.799853185988212 117 82 54 255
-20.132515925896286 -12.788438832369820 -26.090831783691641 114 79 49 255
-20.195242325065180 -12.217647980285932 -26.287621779498863 109 76 45 255
-20.358580109015449 -11.764625426652671 -26.766844734146872 111 80 51 255
-20.421381244473878 -11.196626013620602 -26.963573193770060 115 85 59 255
-20.618334630472461 -10.787469516498192 -27.536858884778241 129 99 71 255
-20.882399955416091 -10.460921851265567 -28.298375007302269 136 106 78 255
-21.280653442217869 -10.298611572514119 -29.436377825259541 149 117 91 255
-21.444237521322762 -9.860736098353684 -29.915337868300725 155 123 99 255
-21.306044022776902 -9.060516608626941 -29.547065172655977 160 127 104 255
-20.966640896420529 -8.013095413891378 -28.614038605125387 180 144 120 255
-21.130328637680122 -7.576444559804344 -29.092940051812974 168 130 106 255
-21.730101288122640 -7.680016440934395 -30.795369920140075 148 108 82 255
-21.960995240845364 -7.335255183274228 -31.462365960905004 134 94 68 255
-22.191945653759490 -6.994124004148475 -32.129300137459921 123 88 60 255
-22.154583646291471 -6.319248132260611 -32.043285697138288 115 82 54 255
-22.385634985728132 -5.983191590470483 -32.710123582971704 107 79 45 255
-22.683842598279156 -5.736172361704902 -33.565107157714948 104 80 42 255
-23.250522090743544 -5.837715434672106 -35.172818484125486 102 77 42 255
-23.246898075216436 -5.212941380101270 -35.180749183786958 95 72 40 255
-23.209756423027500 -4.544437016635811 -35.094572096462514 88 68 38 255
-23.105537510668711 -3.787582305381505 -34.820207148247192 80 63 33 255
-22.867118561137133 -2.852601402896369 -34.169501180454290 67 52 21 255
-22.158895620299276 -1.292817816740893 -32.201661707846114 59 48 20 255
-13.047917186271548 -32.543343321473131 -7.370091823082277 203 188 152 255
-12.975223905501309 -31.784978897080023 -7.191180075061709 212 180 156 255
-13.239511684952376 -31.309543662157864 -7.954101896533132 214 180 162 255
-13.638639852547783 -30.953170271694020 -9.093676225780797 218 182 170 255
-14.071526031958413 -30.632300638279844 -10.327334318976767 220 184 172 255
-14.100018889886712 -29.968105920344200 -10.430837794610113 219 183 171 255
-14.027404155833210 -29.216111130145435 -10.251826644874512 221 185 173 255
-14.157040675042055 -28.641569303838580 -10.637809936745498 219 183 171 255
-14.590096970926311 -28.339379508017743 -11.871203375764622 215 180 168 255
-14.955790049795525 -27.983714434491347 -12.916183949817110 210 178 164 255
-15.152964556207507 -27.481288910237097 -13.490313769891685 208 175 162 255
-15.282740456978274 -26.920518152251418 -13.876095726372142 211 177 165 255
-15.547417619428160 -26.486339027095170 -14.638426942362031 210 176 164 255
-15.947020547121440 -26.181987811032300 -15.777263782096611 211 176 163 255
-16.211793081967556 -25.757631991480324 -16.539453186523048 213 177 163 255
-16.544059059276933 -25.401448363412896 -17.489848844855601 215 179 165 255
-16.707745003454264 -24.889838060857628 -17.969508745783941 211 175 159 255
-17.006378327225917 -24.510738178147363 -18.825637520055949 207 171 155 255
-17.170139190821644 -24.005676782638915 -19.305197824524498 205 169 153 255
-17.401399177222260 -23.569309957042066 -19.972956570336379 211 176 157 255
-17.598967227627142 -23.103493175705395 -20.546540903004569 217 181 165 255
-17.796574282028487 -22.640935276831968 -21.120074906296139 218 181 163 255
-18.095435793838050 -22.283010672350088 -21.975887912097562 217 180 162 255
-18.529309968433992 -22.066206670003709 -23.208053656812268 218 181 163 255
-18.895767096723333 -21.787760573783700 -24.251913082863382 218 180 161 255
-19.194795878368765 -21.446048289357876 -25.107487644127218 192 152 132 255
-19.392639022897555 -21.004573142961263 -25.680703290950532 150 109 89 255
-19.590523602240566 -20.566328666599787 -26.253867809757338 127 85 66 255
-19.552200799920115 -19.883423465631409 -26.168362903056419 76 35 15 255
-19.480141893182989 -19.164278164474482 -25.988771907431499 109 70 49 255
-19.576863859532679 -18.623790970736337 -26.279592311481451 123 85 64 255
-19.673617732075911 -18.084894928018571 -26.570382407363923 146 115 92 255
-19.669131699477575 -17.438108622519536 -26.578919932330393 149 118 95 255
-19.597148767896243 -16.717759130874086 -26.399307234009711 142 111 88 255
-19.423897229486357 -15.885189028977592 -25.937498530630535 140 109 86 255
-19.419465049169020 -15.236378559699119 -25.946032504424551 131 100 77 255
-19.381291498651123 -14.549939805886666 -25.860496768161568 125 94 67 255
-19.478204936655303 -14.014267117715733 -26.151183140589751 122 90 61 255
-19.372543077712351 -13.251473819420568 -25.877521564547351 117 85 55 255
-19.469517178802079 -12.717279281818378 -26.168165949498302 112 80 48 255
-19.532755748557236 -12.145972731136297 -26.364732802876546 100 70 38 255
-19.798670845412261 -11.809195719514946 -27.125527584764285 101 72 40 255
-19.895763078901496 -11.280685168008020 -27.416061848636986 114 84 56 255
-20.128002755644872 -10.911549193852082 -28.082704256458698 135 105 77 255
-20.326515709816860 -10.506358407194341 -28.655254519598657 149 119 91 255
-20.660201373924934 -10.264314582204932 -29.603863531966567 154 122 96 255
-20.689907208218628 -9.665093161149741 -29.706169475641218 156 124 99 255
-20.685861589019837 -9.025743106145896 -29.714435477259514 166 131 109 255
-20.310200030779242 -7.937295345275288 -28.688495797460462 190 152 129 255
-20.339984138153170 -7.335783753867744 -28.790789990440402 179 138 116 255
-20.369802923739712 -6.734666496402340 -28.893064736163240 156 116 90 255
-20.872731111452097 -6.716713867585341 -30.311420102907590 142 105 78 255
-21.037814603868156 -6.287745204960416 -30.789621596344887 131 96 68 255
-21.270535898429671 -5.945653804353356 -31.455775918315908 121 86 58 255
-21.199150130628368 -5.225224427136240 -31.275897777771235 114 83 50 255
-21.431969480875338 -4.887922445756359 -31.941959971847041 109 80 46 255
-21.766242945634303 -4.683169191413896 -32.889929994535379 102 75 41 255
-21.830177618459629 -4.137619413747117 -33.085926148756272 95 71 39 255
-21.725142952082990 -3.375329620441676 -32.811979845321417 85 68 36 255
-21.552527643739523 -2.523607916355118 -32.350081049210615 76 63 31 255
-21.346128591407918 -1.624883235497421 -31.794226190442345 62 54 23 255
-12.333979166605289 -32.493076788315406 -7.469926445261990 209 182 153 255
-12.328720201986371 -31.790419702700888 -7.479373301590101 213 181 160 255
-12.595043392309876 -31.314973099395303 -8.241387735726249 218 182 167 255
-13.099048611658390 -31.044560943711758 -9.661814636273078 221 185 173 255
-13.399414122724764 -30.608759725238556 -10.517744211700688 223 187 175 255
-13.394244679551875 -29.915099176633916 -10.527060221720291 222 186 174 255
-13.287217293370276 -29.133105118613557 -10.254201547368098 221 185 173 255
-13.485800233787202 -28.617234643311804 -10.827839302153592 221 185 173 255
-13.888170708295476 -28.284745062188705 -11.965726620356946 219 183 171 255
-14.358520570769940 -28.019369622066634 -13.291614224499511 217 184 168 255
-14.557230659456962 -27.517211511197061 -13.865056691543430 212 179 164 255
-14.823904971555820 -27.079998362955777 -14.626528130730890 211 176 164 255
-14.988720213689760 -26.553889456156668 -15.105831070943850 207 171 157 255
-15.459288399332408 -26.312787276204389 -16.431375992069462 209 173 158 255
-15.692125835668662 -25.857875304431090 -17.098618865899454 212 176 161 255
-16.230760593482614 -25.693901310194732 -18.612023984266926 215 179 163 255
-16.395745360781845 -25.184723399578388 -19.091080210365305 212 176 160 255
-16.628716723890449 -24.743165184097307 -19.758128398844377 205 170 152 255
-16.589897171489781 -24.043730001204366 -19.673012048532314 206 171 152 255
-16.822935030858631 -23.607633196942231 -20.339975387945373 210 175 156 255
-16.988048867203560 -23.108838117546824 -20.818869123184356 215 179 163 255
-17.289136331175598 -22.746846326848640 -21.673730781676312 219 182 164 255
-17.420340322718289 -22.220774699809468 -22.058525292211158 217 180 162 255
-17.823485121859335 -21.969359292864524 -23.195247914715821 217 180 162 255
-18.158711283544164 -21.655766869646556 -24.143893263226687 217 179 160 255
-18.595970200369038 -21.451375687332742 -25.374424434192065 176 135 115 255
-18.795335082340785 -21.009906465380965 -25.946961543801137 143 102 82 255
-18.926747901168994 -20.501387976700954 -26.331485528789784 122 81 61 255
-18.820206573927592 -19.747145363986633 -26.058129643771537 115 75 55 255
-18.781672925446486 -19.062626013340108 -25.972735059338930 123 85 64 255
-18.879162805817174 -18.521344027969818 -26.263221116886513 140 104 82 255
-18.942679928793822 -17.945433887395097 -26.459710306161242 155 125 101 255
-18.972219176230126 -17.334080556546624 -26.562213147095576 151 121 97 255
-18.831745200865257 -16.539429857022299 -26.194900931491816 141 111 87 255
-18.657268524185071 -15.705545601845884 -25.733651747430912 137 107 83 255
-18.584829291206390 -14.980810723303208 -25.554286819614816 132 102 78 255
-18.580431543066240 -14.330079505947509 -25.562824855551440 123 95 67 255
-18.712116556871834 -13.830645643899672 -25.947135657587580 123 94 64 255
-18.639739621631946 -13.104645739034552 -25.767755740146754 118 89 56 255
-18.771490719142278 -12.607771299318955 -26.152011208924733 112 82 48 255
-18.869260686743672 -12.074327933394642 -26.442293158727068 96 67 34 255
-19.171198968850916 -11.775940741678156 -27.296132590173073 96 67 35 255
-19.269052043902008 -11.247182313546830 -27.586330132902816 127 97 69 255
-19.503044268919695 -10.877789447613765 -28.252193751295380 146 115 86 255
-19.635005870077777 -10.392882725883538 -28.636234401773550 152 121 92 255
-19.971182915332164 -10.150034997240425 -29.583740739809542 161 129 101 255
-20.035176222096666 -9.590303521693770 -29.779854093258621 164 130 105 255
-20.201302099093098 -9.153155702258687 -30.257673503073676 173 139 115 255
-19.822927395249877 -8.065579727520088 -29.232934686725457 185 147 124 255
-19.478580962155164 -7.012996600228263 -28.302164301502188 187 146 123 255
-19.440568815708005 -6.327039143511172 -28.216551737387249 167 127 101 255
-19.981249888889494 -6.348002047893786 -29.727175241042943 148 111 84 255
-20.419892566048532 -6.251781620597029 -30.955996116293448 135 101 73 255
-20.484142693702083 -5.698608101847697 -31.151928679763358 126 89 60 255
-20.480343419960604 -5.061469467133577 -31.160062494586754 117 86 54 255
-20.340394346861601 -4.253316814336088 -30.792652718679051 107 80 46 255
-20.472843815538482 -3.786636853902309 -31.176291622914789 99 75 41 255
-20.469144665283395 -3.148926960653512 -31.184386570976642 91 72 39 255
-20.295228254721266 -2.293404063028106 -30.723106301016117 81 68 35 255
-19.917020127899633 -1.172197570938280 -29.698633135753994 68 63 30 255
-11.345468459224861 -32.220093127034062 -6.818481423086041 207 177 149 255
-11.340235801068232 -31.514737038833928 -6.827943830675167 210 175 155 255
-11.745358417097648 -31.150126410409285 -7.964928750886457 215 178 164 255
-12.184732682753662 -30.820750418970661 -9.195780063291210 215 179 165 255
-12.350566514151396 -30.267061226198336 -9.674907626200763 217 181 167 255
-12.482225209155345 -29.686958820492080 -10.060045520366714 217 181 167 255
-12.579703249829578 -29.079629116759975 -10.351204434368753 215 179 165 255
-12.916641644351756 -28.682168900029538 -11.299934065977425 216 180 166 255
-13.185212396387030 -28.230166630608167 -12.060709445208062 218 182 167 255
-13.795921430397300 -28.085346491014036 -13.760773873654102 218 185 167 255
-14.167228568087580 -27.736471103527819 -14.803182753343037 213 180 163 255
-14.572802542593223 -27.424418206231394 -15.939435204676414 210 175 160 255
-14.670492501315707 -26.839101158854376 -16.230277140493513 208 172 156 255
-15.178816999812724 -26.631769494559123 -17.648140673697242 210 174 157 255
-15.413454268219752 -26.179554156138039 -18.314553823515183 214 178 162 255
-15.785016861686159 -25.858761661544108 -19.356564958471267 216 180 164 255
-15.985516592121087 -25.383104760217591 -19.928941640057587 213 177 161 255
-16.014924558673172 -24.748529893363539 -20.031737725287684 208 173 154 255
-16.010121830923111 -24.081819956542731 -20.040617829215989 207 172 153 255
-16.176479450703624 -23.580034580537330 -20.518987239307478 209 174 155 255
-16.411332946775332 -23.147471525706777 -21.185105346947211 214 178 162 255
-16.646227799542572 -22.718708211054150 -21.851166609520845 217 180 162 255
-16.709988512305074 -22.124797013179474 -22.047729138354157 214 177 159 255
-16.944957659623327 -21.702269937415792 -22.713694243364387 213 176 158 255
-17.248447347329531 -21.352185404589207 -23.567364500854666 216 178 159 255
-17.757432976699619 -21.214550872839112 -24.984228800097867 199 161 140 255
-18.129521011106249 -20.945538180462393 -26.025482298909139 160 120 100 255
-18.227710244646971 -20.401352023392604 -26.315685898861119 142 103 82 255
-18.188942080446182 -19.717141882972172 -26.230392749566278 142 105 83 255
-18.218685129923017 -19.103730699824240 -26.332825523681066 166 131 109 255
-18.351201432925194 -18.598680377183740 -26.716822457990503 174 140 118 255
-18.346743056170396 -17.950891825664243 -26.725357782611411 157 129 105 255
-18.273796255291913 -17.230095769506335 -26.546179345843456 150 123 98 255
-18.132350505556488 -16.434667116417913 -26.179308265841456 142 115 91 255
-18.025168448488202 -15.674062679568053 -25.906302356888375 135 108 83 255
-17.849477655403192 -14.837194326901425 -25.445624656938975 129 102 77 255
-17.845097126400276 -14.185407803174655 -25.454165682116667 124 97 68 255
-17.909265221131150 -13.609235001327136 -25.650367285910221 121 95 62 255
-18.041993250317617 -13.110290247600403 -26.034208108544220 115 86 53 255
-18.106225559392158 -12.536677877158169 -26.230355202348136 109 79 45 255
-18.239025866979375 -12.041362071918158 -26.614127119534345 93 64 30 255
-18.508945759504130 -11.703793322607311 -27.373144337621767 108 79 47 255
-18.641830637081284 -11.213703749855753 -27.756825724512709 144 113 85 255
-18.809028627214005 -10.765136313683698 -28.234282548984794 155 124 95 255
-18.873443386452678 -10.199981596002118 -28.430262810333517 163 132 103 255
-19.177831919374654 -9.915789294992820 -29.282866305306072 168 134 107 255
-19.310883552262638 -9.434999888052531 -29.666379341697507 170 136 109 255
-19.512537396779948 -9.037329113913643 -30.237453208240481 173 137 114 255
-19.234286964771655 -8.071431213528143 -29.495325015383884 177 139 116 255
-18.990322036267827 -7.142147712555570 -28.847034174775814 185 144 121 255
-18.780648450054599 -6.250281726541417 -28.292569965657975 167 127 101 255
-19.325305433488779 -6.270697439863667 -29.801426312523319 152 116 89 255
-19.355710945032186 -5.671225317181353 -29.903422834147136 135 102 74 255
-19.626184347858526 -5.367271605120649 -30.661853501620271 125 90 62 255
-19.416624135539024 -4.473395680541330 -30.107359059419252 111 82 53 255
-19.344251508162571 -3.746907150271539 -29.927982160070940 103 80 48 255
-19.237609452706167 -2.976167317838176 -29.654837931165758 93 76 44 255
-19.096693907955398 -2.160354259635596 -29.287936491021668 81 70 35 255
-18.715709888564703 -1.037533326178760 -28.264717294943040 71 67 33 255
-9.732008738420618 -31.445994858015382 -4.479849756035264 185 165 130 255
-10.071193661890632 -31.014226086923316 -5.427924530809321 200 164 142 255
-10.651535592201029 -30.786657034747819 -7.032870865739369 207 170 154 255
-11.404183445053178 -30.711648006408510 -9.106920718782419 210 174 158 255
-11.605747492914645 -30.185799200840023 -9.679330181887053 210 174 158 255
-11.703990120193993 -29.575687710975956 -9.970176316495269 208 172 156 255
-11.871156567914014 -29.026210958259867 -10.448667145793763 208 172 156 255
-12.279531589233244 -28.687669954311843 -11.583938459391049 208 172 156 255
-12.515679471047534 -28.205651792907773 -12.249979323787414 214 178 162 255
-13.303198060753942 -28.211916091697319 -14.417154208342794 215 179 163 255
-13.642830683475410 -27.833559453062065 -15.364489509864313 213 177 161 255
-14.154823459490814 -27.614751624038163 -16.780833511149950 209 173 157 255
-14.356705809524684 -27.124319689197904 -17.352743080796728 209 173 157 255
-14.696486698889160 -26.762610918211010 -18.299844008188273 212 176 159 255
-14.795039643943966 -26.184963346260517 -18.590223656223429 214 179 161 255
-14.962555535910440 -25.672776565054505 -19.068181774775979 217 181 164 255
-15.233518541212007 -25.259833176141839 -19.827495763246930 214 179 160 255
-15.366628328502372 -24.721500003706367 -20.211564494985993 211 176 157 255
-15.499765924557067 -24.185360904434006 -20.595598651386638 206 171 152 255
-15.667409631801931 -23.684388287877141 -21.073386435373948 205 170 151 255
-15.904045424398490 -23.252634070332221 -21.738701718256209 207 171 155 255
-16.106240070943272 -22.791163555283973 -22.310179320614026 214 177 159 255
-16.205020998138153 -22.231589739549321 -22.600274640628783 213 176 158 255
-16.303828023271109 -21.673647914582702 -22.890341829339690 212 175 157 255
-16.644073439094228 -21.357616339411294 -23.836773961860871 212 175 156 255
-17.087840153301443 -21.150773532302992 -25.064428365439824 211 174 152 255
-17.359215978566510 -20.776616574347159 -25.823166261184724 200 163 141 255
-17.389186918590113 -20.160821111042750 -25.925521527821246 194 157 135 255
-17.350188678229046 -19.474742959359872 -25.840349840532497 195 159 137 255
-17.449191253862381 -18.930810785719345 -26.130188239057901 189 154 132 255
-17.582721501634609 -18.424421936459993 -26.513746628130605 167 136 112 255
-17.681784430315744 -17.883950367995141 -26.803523139741543 158 132 107 255
-17.608365664931355 -17.162640281732379 -26.624560327227158 149 123 98 255
-17.500454778582906 -16.403457960916626 -26.351864997885571 142 116 91 255
-17.358046860484592 -15.605587897435697 -25.985447583977475 133 107 82 255
-17.146629273138117 -14.730919272944945 -25.431587127603507 127 101 76 255
-17.038739731249294 -13.965651373915904 -25.158943791696800 124 97 69 255
-17.137929206580026 -13.425713247130517 -25.448658489830166 122 95 62 255
-17.375204113880073 -13.039749207675769 -26.113225994477204 117 88 54 255
-17.508981602738402 -12.542367926631925 -26.496583105333542 105 75 41 255
-17.608279508110797 -12.008423494650032 -26.786188877870842 100 70 36 255
-17.776648366075278 -11.553845926812016 -27.263184410127678 138 108 75 255
-17.841498011739233 -10.984322081028822 -27.459014935291549 154 123 94 255
-17.940900993053958 -10.455237449809999 -27.748524738521070 164 133 104 255
-17.971291909805473 -9.848218113247114 -27.850604050837319 167 133 105 255
-18.346965659897393 -9.641593036620804 -28.889628249974606 171 137 109 255
-18.446486054655793 -9.118664133868023 -29.179023484538988 170 136 109 255
-18.615100562820700 -8.678308294414720 -29.655765745737114 170 134 111 255
-18.403923465368422 -7.791642067202915 -29.101919331083138 172 131 109 255
-18.330882236654546 -7.065904783584713 -28.922832939110407 173 131 109 255
-18.257862291147021 -6.338940014449676 -28.743749464686545 164 124 98 255
-18.323006076700821 -5.777217738624984 -28.939369991106190 145 109 82 255
-18.595408026526712 -5.467758976765595 -29.696996444665018 129 97 68 255
-18.729710636892136 -4.993821308957862 -30.079882469969533 116 86 57 255
-18.553193170145548 -4.139989398205032 -29.619744807529486 102 78 48 255
-18.273064441485445 -3.155157428618537 -28.878645442633626 92 76 45 255
-17.958397956733876 -2.122824598092720 -28.043931229042045 80 71 39 255
-17.574644788719340 -0.998922634241509 -27.021957603857601 62 61 25 255
-8.173953540965215 -30.727755037968080 -2.334938733646112 169 161 122 255
-8.689080470525525 -30.429505393714194 -3.750688309092027 192 154 133 255
-9.689978651697047 -30.536829153056289 -6.478668135177969 196 158 140 255
-10.448128796781589 -30.459345304136647 -8.550289766823425 200 165 147 255
-10.547122277052949 -29.844285024294393 -8.840851148267973 205 170 152 255
-10.680832993627973 -29.260124843028819 -9.225115148182624 202 166 149 255
-10.918669718812822 -28.766600721638667 -9.890519326441847 203 167 150 255
-11.538275941058288 -28.604016773842261 -11.586796428768423 203 167 151 255
-11.984434360321089 -28.301208741713438 -12.814354442830989 206 170 154 255
-12.847136458058060 -28.368791140158450 -15.166376189284904 213 177 161 255
-13.224017867466614 -28.022316661076687 -16.206275473561533 213 177 161 255
-13.809216651669956 -27.866735400843055 -17.808328729086071 211 175 159 255
-13.977935656016029 -27.347375395744606 -18.285822934925562 209 173 157 255
-14.146683643539632 -26.830770566717661 -18.763276370455884 212 176 160 255
-14.280744242305317 -26.285292022676060 -19.146993398095987 214 179 160 255
-14.380112075375806 -25.710125793971301 -19.436984642393497 217 182 163 255
-14.687826178418348 -25.329611349455334 -20.289078985103174 215 180 161 255
-14.648360784891139 -24.629648070068399 -20.204255925333882 211 176 157 255
-14.886699083811109 -24.190817108691505 -20.868883662031095 206 171 152 255
-14.986170964046778 -23.623897811336732 -21.158745160269092 203 168 149 255
-15.189851835661642 -23.158357812943052 -21.729601251058170 205 170 151 255
-15.428298868309369 -22.729593040313560 -22.394078764005769 209 174 154 255
-15.701518111760578 -22.338408533472176 -23.152166864833049 213 178 158 255
-15.870579800531658 -21.849393168106900 -23.629201573816118 212 177 157 255
-16.074410643363862 -21.397408992807968 -24.199853783334532 211 176 154 255
-16.243541247945473 -20.914073370918189 -24.676800357683646 209 174 152 255
-16.551664206127143 -20.572889954889263 -25.528314870889801 206 171 151 255
-16.616646524350472 -19.990624079617049 -25.724215033187306 201 166 146 255
-16.612165965354222 -19.338620333915259 -25.732802853012657 193 158 139 255
-16.746682659717450 -18.829293734707534 -26.115951121262810 183 151 130 255
-16.881231289699912 -18.322105327261895 -26.499063539008773 173 141 118 255
-16.946314640452357 -17.744623983347822 -26.694870295568563 159 131 109 255
-16.837670261242536 -16.985776337959905 -26.422498616440265 151 125 100 255
-16.763786003206221 -16.262025136781617 -26.243768020677180 143 117 92 255
-16.759422108862196 -15.611197255288999 -26.252291939694118 134 108 81 255
-16.546541451376115 -14.736564837044071 -25.699083437468744 129 102 75 255
-16.403175057226420 -13.933764100728965 -25.333143203644113 125 96 66 255
-16.398853555993583 -13.280074203124997 -25.341677149236631 123 92 63 255
-16.603121689407686 -12.854934745479540 -25.911863056558587 113 79 51 255
-16.703143134237180 -12.317845380598229 -26.201178021369202 100 66 38 255
-16.837962158572196 -11.820941251276466 -26.584065933500511 127 93 65 255
-16.938051047350797 -11.287200633771349 -26.873316980471628 150 115 87 255
-17.072941823835535 -10.794173478479081 -27.256133714868412 160 129 100 255
-17.173099776353894 -10.263757377956978 -27.545320366713895 166 132 105 255
-17.273292006554996 -9.734859135086879 -27.834476393859859 170 134 108 255
-17.582160442831707 -9.447436347968107 -28.685115144593794 170 135 109 255
-17.682432660459455 -8.923176848699597 -28.974188622659398 168 134 109 255
-17.782740329896058 -8.400416293280500 -29.263231143704445 167 131 107 255
-17.778747909909029 -7.756732553790883 -29.271517228817885 166 128 105 255
-17.844342398243626 -7.195062911964001 -29.466936274237042 161 125 99 255
-17.736060431554961 -6.427599597394448 -29.194490093858519 150 113 87 255
-17.523445030941261 -5.533509889144355 -28.641359989648294 138 102 76 255
-17.380408369179463 -4.719787465611660 -28.275383133329285 123 92 64 255
-17.272174032053130 -3.945889700480080 -28.002980753216832 104 82 50 255
-16.920439702416147 -2.873186542920536 -27.075707676891454 87 75 42 255
-16.290382436783787 -1.453279816901556 -25.400085278077512 68 68 34 255
-16.077798245838778 -0.539078471990621 -24.847144537285004 37 46 11 255
-7.471179185614091 -29.985483895005203 -2.546284262832756 189 151 128 255
-8.479309918800638 -30.088423977799465 -5.271083712808831 198 161 143 255
-9.347782269492356 -30.092527337321798 -7.621174366134994 197 162 143 255
-9.657220386507475 -29.647483511697814 -8.473152276140723 201 166 147 255
-9.791959390880180 -29.061428999809905 -8.856976953670738 202 167 148 255
-10.066520099210223 -28.595466919659884 -9.615222767649669 203 168 149 255
-10.585781841660662 -28.342032586769932 -11.028675836728212 204 169 150 255
-11.419693277381811 -28.366799527657832 -13.284472994467137 204 169 150 255
-12.113882101099065 -28.283512377999443 -15.165683157319819 214 178 162 255
-12.703283075564386 -28.119467629252000 -16.765948381537640 213 177 161 255
-13.152919516327813 -27.841417237039821 -17.991705457303567 212 176 160 255
-13.392845573680333 -27.383950838465609 -18.655813638520044 210 174 158 255
-13.597844258230381 -26.898967423746925 -19.226278697578493 213 177 161 255
-13.697979470672735 -26.322407602067400 -19.515941886138307 213 178 159 255
-13.798136207355725 -25.747515468249205 -19.805578621800748 213 178 159 255
-13.933284055704931 -25.206449527070845 -20.188766291168008 213 178 159 255
-14.068458051174304 -24.667582943675825 -20.571920072638221 210 175 156 255
-14.273604541162285 -24.196316232032785 -21.142180589958770 206 171 152 255
-14.408835800168077 -23.662375334647606 -21.525259053682959 203 168 149 255
-14.579071134286480 -23.163862969655796 -22.001866475611223 201 166 147 255
-14.889252494598168 -22.802120400204601 -22.852671037508088 205 170 150 255
-15.234461233408339 -22.479035770781962 -23.796961526376805 212 177 157 255
-15.474773726729495 -22.059206931981564 -24.460516990577986 212 177 157 255
-15.505220712597747 -21.437235580867252 -24.562722431646080 211 176 154 255
-15.605657937180098 -20.884991376537442 -24.852005195747296 210 175 153 255
-15.706121029011712 -20.334366006627462 -25.141260064376638 205 170 150 255
-15.841600200548527 -19.820485792340619 -25.524025231102286 200 165 146 255
-15.907126413404754 -19.237952226802875 -25.719685599836168 189 156 137 255
-15.972676016017175 -18.656482934239421 -25.915324782938484 182 150 129 255
-16.108240057818193 -18.147954381964311 -26.297998017709943 173 141 118 255
-16.068849928151693 -17.460505914901418 -26.213014907491555 159 131 109 255
-15.959475650554666 -16.699525561165828 -25.940990215048771 151 125 100 255
-15.885109140508717 -15.973639809288343 -25.762496209715010 143 117 91 255
-15.915761433732641 -15.357693585551942 -25.864549214050811 134 108 81 255
-15.841423093296456 -14.630368367895684 -25.686057198506120 129 102 73 255
-15.697084647989186 -13.826789012456800 -25.320558230417788 126 95 67 255
-15.692783379530596 -13.172311604281518 -25.329091114852758 120 89 60 255
-15.863550721955548 -12.708270496662919 -25.805112918733101 114 80 52 255
-15.999344963736448 -12.208487772872019 -26.187595118720822 122 88 60 255
-16.135174378636378 -11.710787933063102 -26.570040583765945 145 111 83 255
-16.236024424120075 -11.176254407762329 -26.858960277990661 158 123 95 255
-16.406940210870644 -10.721613145120600 -27.334820887945284 161 130 101 255
-16.507859001043627 -10.190675139272784 -27.623673590136377 166 132 105 255
-16.608811017709485 -9.661255429323361 -27.912496131878697 169 133 107 255
-16.814861994349513 -9.253322297972431 -28.481713232990700 169 134 108 255
-16.845839783293712 -8.647207360789650 -28.583521742994350 165 131 106 255
-16.911870379204274 -8.082042344889260 -28.778781676296916 159 124 99 255
-16.907878778195055 -7.436223565082670 -28.787088976193985 153 118 93 255
-16.903912411642324 -6.790267613054709 -28.795386411600219 145 111 85 255
-16.829911498436687 -6.061479670484431 -28.616758736252820 136 101 75 255
-16.510707820605475 -5.040156615851629 -27.783956180716103 121 90 63 255
-16.296601783915747 -4.139456880902088 -27.231557497953531 101 79 49 255
-15.662083446771362 -2.729470062368748 -25.557823833708994 80 73 38 255
-14.466949240428733 -0.630730268625882 -22.389104426173759 46 49 14 255
-6.767968437154394 -29.242835130347231 -2.757828177766783 200 162 144 255
-7.994580527922878 -29.525273490219831 -6.040365090268750 202 167 148 255
-8.869384472262269 -29.537523761904836 -8.387550413116628 201 166 147 255
-9.040355127460657 -28.979574996611291 -8.864430740686259 201 166 147 255
-9.598536635624981 -28.748470767758647 -10.369799322226783 201 166 147 255
-10.227187305139154 -28.585551069565909 -12.062047287777830 204 169 150 255
-11.102331546141443 -28.642433242830677 -14.408629769799433 208 173 154 255
-11.942374356164066 -28.682621543395115 -16.661537339748236 213 177 161 255
-12.324834059521748 -28.338815406119181 -17.698922532188220 214 178 162 255
-12.531302478552163 -27.846961644729475 -18.268801741863371 211 175 159 255
-12.702591994450430 -27.327327577399458 -18.745152637148493 211 175 159 255
-12.909121385910765 -26.841800119270047 -19.314940718695539 212 176 160 255
-13.045254847853045 -26.296323870479625 -19.697733522522100 213 178 159 255
-13.146197228235238 -25.721165352284345 -19.987022665901605 214 179 160 255
-13.247160978510465 -25.147670974964527 -20.276285461051913 211 176 157 255
-13.418585739316057 -24.640697075328646 -20.752448093736604 208 173 154 255
-13.554818671371777 -24.103758458786047 -21.135110253953599 204 169 150 255
-13.761524653724550 -23.634951166163418 -21.704650602054016 201 166 147 255
-13.897814279650888 -23.102930462204043 -22.087237777084454 200 165 146 255
-14.175039411721954 -22.707131240025845 -22.843586467577580 203 168 148 255
-14.346619894044565 -22.214329870235858 -23.319536421813524 208 173 153 255
-14.588693515275693 -21.792340420048021 -23.982328513150094 208 173 153 255
-14.619410229232997 -21.168222602611095 -24.084435389473242 208 173 151 255
-14.720613406267347 -20.613827885073732 -24.373398384614006 208 173 151 255
-14.821841756109364 -20.061052487174948 -24.662333789000257 204 170 150 255
-14.993572074555360 -19.580149304500907 -25.138096676762018 197 164 145 255
-15.024375508249548 -18.960340044980697 -25.240121339710441 188 155 136 255
-15.090439821833186 -18.376724399084495 -25.435552729586135 181 149 128 255
-15.227014547854111 -17.866045289150534 -25.817797080467841 172 142 118 255
-15.152147122879185 -17.140249939297817 -25.639525497836416 159 129 107 255
-15.006794601098619 -16.340388038971042 -25.274441088674024 149 121 97 255
-15.037690202943566 -15.722071647355079 -25.376409568634955 142 116 89 255
-15.174359543882446 -15.215307676742739 -25.758572162500343 135 108 79 255
-15.099545332221282 -14.486927782551476 -25.580302977633806 129 102 73 255
-15.024742488094134 -13.757414955789727 -25.402040175593925 125 94 65 255
-15.020463852313483 -13.102419095698195 -25.410568209345712 120 89 60 255
-15.157236314233018 -12.599750108650170 -25.792643435930415 123 89 61 255
-15.329302273884238 -12.137538293793909 -26.268067752608744 140 106 78 255
-15.536667304748434 -11.716588023626016 -26.836830544205895 152 118 90 255
-15.603021205010634 -11.143162654245586 -27.032029821555199 160 125 97 255
-15.810462544767162 -10.727441660768918 -27.600705735356229 161 130 101 255
-15.912146229398374 -10.196521026660463 -27.889217228392909 165 131 104 255
-16.049130353433554 -9.706837995494666 -28.271066828322091 168 132 106 255
-16.080340467941014 -9.099240742855557 -28.372786736851566 166 131 104 255
-16.111576744254876 -8.492068288121047 -28.474490687308844 159 125 100 255
-16.072292942030771 -7.804254263686488 -28.389463865126032 152 119 93 255
-16.033029511153543 -7.115769613968396 -28.304434738583410 144 110 83 255
-15.887956975163235 -6.303394871750328 -27.939351969400633 133 99 74 255
-15.813452545552465 -5.571393897533042 -27.760981266114300 121 90 64 255
-15.456727252320292 -4.505263502280982 -26.835867011753919 99 77 48 255
-14.958868909535084 -3.266029630433465 -25.537452102993996 80 71 38 255
-13.543629137392045 -0.923060997746035 -21.812373662057894 39 46 9 255
-5.679578082441964 -28.908216943791501 -1.932550439224713 198 160 140 255
-7.304784044463716 -29.502457380653766 -6.238652448734200 202 167 147 255
-8.150410971139522 -29.485469387262484 -8.489648210707117 204 169 149 255
-8.570788495236002 -29.131287521541978 -9.619726214182293 203 168 148 255
-8.991217531460165 -28.783673269724972 -10.749714868423041 200 165 145 255
-9.659843746484313 -28.650717762370448 -12.533330458024125 198 163 143 255
-10.931219665464113 -29.038069431938567 -15.904342556491741 207 172 154 255
-11.387317088428816 -28.748773072821052 -17.127332626605408 213 177 161 255
-11.666195885648278 -28.313875403543037 -17.883339206620008 214 178 162 255
-11.803284906660508 -27.760129658484374 -18.265789551694837 211 175 159 255
-11.940397035706695 -27.208604494203371 -18.648207149359052 212 176 160 255
-12.183914688784753 -26.753340662375436 -19.310691729927129 212 176 160 255
-12.321079775193709 -26.207054812238809 -19.693032759785154 212 177 158 255
-12.387340178760866 -25.599201327941969 -19.888621705636126 211 176 157 255
-12.489083963520372 -25.024630701282163 -20.177547595125560 207 172 153 255
-12.732721662932832 -24.581432505461279 -20.839856698715693 202 167 148 255
-13.011865889054647 -24.174747695418191 -21.595459773773513 199 164 145 255
-13.078219209919041 -23.574607190752673 -21.790929332814500 196 161 142 255
-13.251012374005342 -23.075287390335532 -22.266404489434109 196 161 142 255
-13.388359979437936 -22.545182694438026 -22.648500590805696 197 162 142 255
-13.596689201143803 -22.084811018597378 -23.217231943194548 203 168 148 255
-13.769573545640867 -21.593645261034979 -23.692584029358414 204 169 149 255
-13.907007828133345 -21.070871182389610 -24.074567390903297 204 169 147 255
-13.973503929229196 -20.481087615076277 -24.269868607578843 202 170 147 255
-14.040020828294928 -19.892384148155315 -24.465149634213162 199 167 146 255
-14.142045517003538 -19.339882463609186 -24.753727218760417 191 158 139 255
-14.173118554445523 -18.718197859742062 -24.855650632035577 183 152 132 255
-14.275190377572827 -18.168371272493928 -25.144180162811722 174 143 122 255
-14.270812046080422 -17.512336005376241 -25.152763152408909 166 136 112 255
-14.266449246125063 -16.856276035251256 -25.161339466846897 159 129 105 255
-14.120119950917882 -16.054282378575252 -24.796712105718967 146 119 92 255
-14.257771935363820 -15.544060296313077 -25.178471533951978 140 113 86 255
-14.359955780551303 -14.998940557893079 -25.466903544407359 133 106 77 255
-14.355664656635867 -14.343536568119134 -25.475441271254596 129 100 70 255
-14.315888478381638 -13.650524297094137 -25.390686519688217 125 95 66 255
-14.382640211861627 -13.070390229735750 -25.585776228499924 127 96 67 255
-14.449417437043181 -12.491271543876110 -25.780844308683726 140 106 78 255
-14.622744332884480 -12.028259173160293 -26.255714519722915 144 110 82 255
-14.796107870334566 -11.567870577874118 -26.730541874020048 154 120 92 255
-14.969508363544691 -11.110099922608896 -27.205326290490035 160 125 97 255
-15.142946124756946 -10.654941313980771 -27.680067689484929 158 126 98 255
-15.245391868522773 -10.123496548968760 -27.968244710756807 163 129 102 255
-15.276835730196169 -9.514138283797863 -28.069878200912626 164 128 102 255
-15.237267949891830 -8.825238574392586 -27.984988965918774 163 129 102 255
-15.126678876171994 -8.055168819638595 -27.713597770030390 154 120 95 255
-15.122666599310975 -7.404936200066075 -27.721958901308739 147 114 88 255
-14.870014731152196 -6.468989735577281 -27.077608539730051 135 102 75 255
-14.617362923096266 -5.529119572415652 -26.433297810157882 120 92 65 255
-14.400238303945713 -4.626655863927681 -25.882262812969799 102 81 53 255
-13.863365395831167 -3.346308252501132 -24.492164514512609 80 73 42 255
-12.757993063815377 -1.387599891649884 -21.610490371556523 43 49 15 255
-4.733017257970317 -29.412987921874873 -1.473528338359728 198 157 135 255
-5.370330731754365 -29.197949572399708 -3.162440721276994 194 156 137 255
-6.721527421806030 -29.565634723959249 -6.717050677754770 198 162 141 255
-7.930102873042699 -29.838289458140153 -9.898234375638452 203 168 148 255
-8.210759821912504 -29.370586729046124 -10.653779731549463 204 169 149 255
-8.491452445249664 -28.907290247355732 -11.409264645580890 200 165 145 255
-9.521840692873567 -29.072635172041274 -14.123509669080534 198 163 143 255
-10.480944352759224 -29.193731709347176 -16.650996937467823 211 175 157 255
-10.833224799925944 -28.814965536448966 -17.592697256947872 214 178 162 255
-10.935623673221613 -28.227917372052048 -17.881457187384655 213 177 161 255
-11.180863363975234 -27.765777860034390 -18.543243481325277 209 173 157 255
-11.283307049256592 -27.183175619897455 -18.831938494821742 210 174 158 255
