ply
format ascii 1.0
element vertex 649
property float x
property float y
property float z
property uchar red
property uchar green
property uchar blue
property uchar alpha
end_header
-27.700380506261979 -7.444598182256811 -28.867055354000826 147 100 79 255
-28.361410031099268 -7.134624320073272 -28.204005303913362 111 68 46 255
-29.020915870976239 -6.827458138852421 -27.542141653952626 79 42 21 255
-31.290313640883738 -9.461855250475708 -24.667551612819523 51 16 0 255
-34.372718545603561 -13.627949988786952 -20.668047711336698 211 170 150 255
-36.453511968014254 -16.003973565161857 -18.038734260213232 201 155 139 255
-37.582350018435079 -16.649898447379712 -16.716337032658004 197 148 133 255
-38.339260803715945 -16.617764524276936 -15.904892141403280 184 134 119 255
-39.134651289904042 -16.666221386167791 -15.038897326651579 203 153 138 255
-39.278066908997346 -15.492215900810493 -15.074059373917748 191 142 126 255
-39.544291686989936 -14.546385422431030 -14.939817642910185 156 107 91 255
-39.770831133172351 -13.522193638262536 -14.861071884843795 130 82 66 255
-40.682220831863560 -13.811398709747465 -13.830998558696109 155 108 93 255
-41.269531150810678 -13.485856991756179 -13.250018292474948 147 99 85 255
-41.855583580470977 -13.162641847395037 -12.670025506140121 99 51 39 255
-42.241030513632808 -12.451627248078864 -12.369201834476769 122 75 64 255
-42.546930876281309 -11.584214645237097 -12.179507508536801 150 108 96 255
-42.575866179511848 -10.166719570776309 -12.377618674898287 176 133 121 255
-42.764960349581798 -9.060079565597647 -12.352662530005858 87 50 34 255
-42.915830184883632 -7.872389745724917 -12.382068159571986 58 27 10 255
-43.303709073339206 -7.156936154926655 -12.079390130971149 106 80 63 255
-43.769843120632856 -6.600282281035589 -11.666608730184691 97 80 65 255
-43.806172240336110 -5.169204212240231 -11.859001277929593 12 4 1 255
-42.560752228511205 -1.100690152954257 -13.860911695209325 4 1 0 255
-20.341976152965628 -2.470299333358241 -39.034302794525672 183 169 127 255
-24.390209912698083 -8.005904343824170 -33.736566314534514 200 161 136 255
-25.437290026667426 -8.342322441338865 -32.546337166804875 200 156 133 255
-26.145825047959647 -8.093624262519398 -31.819222022786107 195 149 126 255
-26.810854977380700 -7.773970887311350 -31.150917693084409 188 137 116 255
-27.765646505934058 -7.978210368893031 -30.082425066140672 177 126 105 255
-28.343791836800449 -7.516417381555272 -29.531646614591580 150 102 82 255
-28.920895732043135 -7.056541804773616 -28.981677550730950 116 73 51 255
-29.414459153997228 -6.448364149442625 -28.546630243713054 87 50 29 255
-31.182480192360856 -8.176490615421756 -26.346190344884860 52 17 0 255
-35.608021397286848 -14.830498514950250 -20.455624211724228 210 173 152 255
-37.065895477751724 -16.072334640308299 -18.671281214593364 203 159 142 255
-37.702082623217848 -15.805873068627534 -18.025475276750967 200 151 136 255
-38.702575500938593 -16.228207719514558 -16.871586254306635 199 150 135 255
-39.658859718441022 -16.580893401707442 -15.777064926638104 199 150 135 255
-40.288464591782855 -16.326580896744531 -15.136402713359416 190 141 126 255
-40.554004237337551 -15.383032580454483 -15.003639643310777 187 138 123 255
-40.539065636967734 -13.898462396015361 -15.263815489671686 160 111 97 255
-41.087087761396049 -13.492251231599568 -14.736560777641472 135 86 72 255
-41.674014155491989 -13.165482756766465 -14.154086526856304 136 87 73 255
-42.578097746745215 -13.463289183522761 -13.125195595456489 144 96 84 255
-43.002821736622920 -12.830935878396986 -12.768774554961794 177 130 120 255
-43.506378523844930 -12.355574974614626 -12.301111731540544 173 129 119 255
-43.575325415216525 -11.018708862656354 -12.446132174752222 70 26 19 255
-43.685477199399571 -9.757045245594099 -12.534140930963957 81 42 29 255
-43.679677920981220 -8.255676338422660 -12.787239688748770 142 109 94 255
-43.871642088901709 -7.145522557842639 -12.761693957054092 110 83 67 255
-44.259563857953893 -6.429916151140219 -12.458914130644303 94 73 59 255
-44.336750448642775 -5.077907540635806 -12.597556573485718 12 0 0 255
-44.183529868797933 -3.243723834892876 -13.065205928793688 4 1 0 255
-45.384530175117675 -4.203549239917663 -11.605794710815871 1 2 0 255
-47.736453794221234 -3.040538828391050 -9.248339516721131 0 2 0 255
-21.262542867410275 -2.984765506351039 -39.376696530697672 188 164 131 255
-24.162243361008734 -6.534682136094432 -35.626322353259411 197 158 137 255
-25.292551213795946 -7.013595372060081 -34.315498017641971 199 156 137 255
-26.293670273888893 -7.278317362291290 -33.181110202409229 197 150 132 255
-27.083601286480615 -7.178445709818305 -32.337566252584907 188 139 122 255
-28.161246418127007 -7.603657452632774 -31.093034549652430 177 126 109 255
-28.532796123870327 -6.767230142458629 -30.828061149539508 155 104 85 255
-29.069241830471356 -6.229949395439348 -30.333570130130795 126 80 60 255
-29.481705124418056 -5.468875154400848 -30.011453865373426 93 51 34 255
-30.671967961257906 -6.138832384888843 -28.603405999941856 53 19 7 255
-33.612823571793115 -10.065324447500359 -24.745294959065461 120 86 71 255
-36.701433257960275 -14.322596804617604 -20.671056727910241 215 171 157 255
-38.029171104568690 -15.342299869088407 -19.054907963689885 203 156 145 255
-39.189462169693371 -16.067559952295767 -17.670265996432590 204 155 144 255
-40.062746787910697 -16.266426780522295 -16.686055349407212 203 153 143 255
-40.852643061299034 -16.317455996514184 -15.817338393338133 190 140 130 255
-41.199016757119352 -15.527480413987462 -15.572023732673046 184 135 125 255
-41.385675911871687 -14.428797650088995 -15.552180352573657 186 137 124 255
-42.011884693739773 -14.178459049550099 -14.912045266671413 161 111 99 255
-42.477658603584558 -13.620744082920737 -14.497945553334318 133 83 72 255
-43.457870150767704 -14.074899680724457 -13.354702581700906 158 110 100 255
-43.999997331168487 -13.678020224594746 -12.830618872206458 159 112 101 255
-44.737973221583260 -13.674039797070037 -12.027671920722440 65 20 11 255
-45.120471403730932 -12.968308811096705 -11.729005195267177 135 90 81 255
-45.150748661966318 -11.554819183271832 -11.932076501368897 171 128 118 255
-44.910081910717864 -9.585308419154615 -12.523044698040479 141 103 91 255
-44.673232815986438 -7.608766182391491 -13.111043368839347 109 77 65 255
-44.944205025136384 -6.656308220233228 -12.975070769061830 62 39 29 255
-45.447758944801535 -6.179828472499793 -12.506368164702224 19 4 0 255
-45.912029227056507 -5.624995523908353 -12.093542400772236 6 5 0 255
-45.991708112241611 -4.271287219484293 -12.232925768836793 5 7 0 255
-45.958424309840581 -2.673473565602194 -12.536098033740586 2 4 0 255
-48.187826796983074 -2.784283706575309 -10.090406308228296 0 3 0 255
-49.443104694023958 -3.937915279137997 -8.531055115293839 0 4 0 255
-19.656274354000516 -0.633036384546358 -42.964632830540779 171 173 127 255
-21.804205848927097 -2.839493480391297 -40.240540669651921 195 161 133 255
-23.983853007307061 -5.137904825816463 -37.466145151957448 185 147 124 255
-25.238109767960140 -5.833180262180633 -35.976026461217657 201 159 137 255
-26.321542400398414 -6.241715312426635 -34.721415437931512 197 151 131 255
-27.070180391534450 -6.064130931084549 -33.932474395235516 188 140 121 255
-28.517802570379303 -7.155012897573670 -32.163694095030166 177 128 109 255
-28.725880638902339 -6.018560154937632 -32.128747517581530 158 108 89 255
-29.427012897742202 -5.778134734221396 -31.402420338259276 132 84 66 255
-29.758527540605513 -4.865363025418048 -31.194487431792766 97 53 37 255
-30.864737421091121 -5.382329806776454 -29.896539097260359 63 28 12 255
-33.429487978058091 -8.625445780270439 -26.540568478100624 30 4 1 255
-37.277700685125183 -14.315830888201987 -21.365415148694410 218 179 166 255
-38.681950694530485 -15.486735846053762 -19.630500160898777 204 158 148 255
-39.798220521699278 -16.135630856593650 -18.299174575595998 205 156 148 255
-40.468454647697087 -15.952220991442857 -17.596979883639051 207 157 152 255
-41.136940276814101 -15.772040623040454 -16.896153643898089 198 150 145 255
-41.564238103804854 -15.133994854564236 -16.536848208997355 172 125 117 255
-42.110597720352132 -14.727715496495136 -16.007985067791026 161 112 102 255
-42.695604098903814 -14.400615621596444 -15.423419067542056 199 149 138 255
-43.358442455835686 -14.230876513761558 -14.727022531518742 190 142 130 255
-44.216664769598793 -14.453047050591380 -13.750413676610350 187 139 127 255
-44.718210089672368 -13.979001765724945 -13.282100813178033 154 106 94 255
-45.375719306064809 -13.819120754521492 -12.589889102598590 192 146 133 255
-45.992433974925817 -13.584038785589371 -11.955071899054502 176 129 119 255
-46.257179560466284 -12.644056044205229 -11.824875910582676 163 116 106 255
-46.173212102868575 -10.993165260608862 -12.196759005249305 152 106 96 255
-45.821189619843381 -8.783507219653245 -12.956678629842088 122 85 74 255
-45.975260206433617 -7.596324655648175 -12.989529397929090 89 65 53 255
-46.130742650071866 -6.406551511639520 -13.021291069881357 27 12 1 255
-47.514514759004186 -7.765872444362174 -11.276976931060858 8 5 0 255
-46.713487546733262 -4.578959134617321 -12.693924416334653 5 7 0 255
-45.996099389305812 -1.538703649470563 -13.994517625294094 3 5 0 255
-49.825496308495815 -1.997646880419097 -9.728230801298452 0 3 0 255
-21.125401308314167 -2.096308533829131 -42.551140633775930 198 173 138 255
-23.388187768021623 -4.525924078267224 -39.645601560521982 200 160 134 255
-24.975771839538368 -5.799580561311416 -37.681275961231478 184 147 124 255
-25.438464903033946 -5.095779603526921 -37.293916639850124 189 148 126 255
-26.065987642319215 -4.688286497259526 -36.674346701284350 197 152 131 255
-27.392062131166512 -5.543772538771236 -35.069449199635926 188 141 121 255
-28.630648975633193 -6.260456935566083 -33.584611214295336 177 130 110 255
-29.127670179112073 -5.643404959694010 -33.144551662553482 158 109 90 255
-29.705742759816218 -5.177023039523135 -32.589451868633859 133 82 64 255
-30.120040867889230 -4.412374376304570 -32.265727649525275 105 57 43 255
-31.142712097444502 -4.776880745260655 -31.078848185836108 65 32 15 255
-33.819822681893982 -8.243340029883370 -27.539283095332934 24 3 0 255
-37.491381456158535 -13.627731180762680 -22.576371771121700 190 161 144 255
-39.736291416778727 -16.390547220961480 -19.633041133389327 204 160 150 255
-40.727551323038881 -16.813027462638132 -18.470705487436788 207 160 154 255
-41.075779294968186 -16.020186810596442 -18.224458497885735 204 155 151 255
-41.583545125787282 -15.533431777972737 -17.750145946073644 200 152 148 255
-42.050811900717065 -14.971294250234024 -17.333334269197593 138 91 86 255
-42.636333553325244 -14.641304624278547 -16.746568526848307 131 83 77 255
-43.417980465854441 -14.700009118569483 -15.877298829476445 177 129 120 255
-44.275876774909875 -14.918257170562384 -14.896751010854189 199 151 141 255
-45.209301380570665 -15.297380473899750 -13.805489262465755 202 154 144 255
-45.591689076882886 -14.591665659602484 -13.506734836405286 198 150 140 255
-46.091015394047801 -14.120532464509154 -13.039058892338431 186 139 129 255
-46.667323386937440 -13.807594835275381 -12.459535918445027 179 131 119 255
-47.126123637743717 -13.261146279647420 -12.049397975047668 167 119 107 255
-47.352603277665736 -12.242692366468702 -11.975915366472890 152 105 95 255
-47.233395093742729 -10.511070921807971 -12.405229188920003 116 76 64 255
-47.386029840156652 -9.328670108686964 -12.441177874327764 93 65 54 255
-47.540077154685989 -8.143677626196620 -12.476037114711175 29 12 1 255
-47.695539171517225 -6.956090591833970 -12.509806221743617 8 8 0 255
-47.624232822557858 -5.286257496595908 -12.875898544138551 1 3 0 255
-48.958477272899330 -6.577211897072942 -11.187197118751982 2 4 0 255
-47.615857374527508 -0.648181953773928 -13.684416598232502 0 4 0 255
-49.733272374249012 -3.646524918320154 -10.840908226914593 0 4 0 255
-50.379871876021326 -3.504315235586773 -10.154936979050774 0 4 0 255
-49.942830510294570 -1.008301193452667 -11.065453485942015 0 3 0 255
-20.282708031045843 -1.072900693601639 -45.109735769316046 175 170 124 255
-23.377336914190494 -4.946143474160806 -41.015152175039816 208 170 140 255
-24.797928209659659 -5.918517213282399 -39.276415209666226 201 163 137 255
-25.220452145557033 -5.138636156371263 -38.946216768767130 196 156 134 255
-25.519235063644743 -4.137837479117366 -38.791283246359257 193 151 129 255
-26.476247826962890 -4.318388065964086 -37.702896654010800 194 148 128 255
-27.757864577470258 -5.097936491424150 -36.151306061485457 188 141 121 255
-29.402044594636664 -6.556188536967653 -34.080657483302019 173 126 106 255
-29.816803627630549 -5.790603907745208 -33.756494074122656 162 114 94 255
-30.272104258440862 -5.099953119969712 -33.374453449737160 140 90 72 255
-30.281645854129408 -3.584611869719765 -33.628859068491948 108 64 48 255
-30.616524741029451 -2.666919762555324 -33.419492078731963 59 32 13 255
-32.521702192386385 -4.691796435016386 -30.961530708847732 29 15 0 255
-40.066192049989269 -15.927460722017742 -20.665538721592668 212 173 163 255
-40.935747690586936 -16.119643309443290 -19.671666202084225 205 160 154 255
-41.364869047813613 -15.477312233915086 -19.310083368205937 201 154 149 255
-42.071241497914755 -15.371624128795361 -18.548503110481477 137 92 89 255
-42.973274749190608 -15.653639453776691 -17.503068883712359 66 21 18 255
-43.478028394519114 -15.171258699577663 -17.030011408299970 153 104 100 255
-44.099870458339979 -14.922072097492503 -16.386885527502159 176 127 120 255
-45.111891981442085 -15.450399128566460 -15.176943023868830 191 142 135 255
-45.963817786211621 -15.675158640912628 -14.196881741237462 212 163 156 255
-46.228903742528672 -14.736565913508116 -14.068290587707224 199 150 143 255
-46.572280106936574 -13.953014435937803 -13.826144902284369 192 143 136 255
-47.147968158228167 -13.639292560749226 -13.245318764982613 182 132 122 255
-47.760975333593990 -13.406468485224025 -12.609148594951904 168 117 106 255
-48.218719279648667 -12.861161868568985 -12.199087393478180 150 102 90 255
-48.522648043671694 -12.000701077598251 -12.014004568928044 117 77 65 255
-48.865227946319365 -11.218682522898973 -11.772539560001746 69 41 29 255
-48.865267361388320 -9.721012021991498 -12.034493336209295 19 3 0 255
-48.298243728714155 -7.023496387281568 -13.132471580655391 6 4 0 255
-48.796800556535757 -6.552705909791285 -12.664398118308526 1 3 0 255
-47.785731813729342 -2.877611435186850 -14.423714003007575 0 2 0 255
-47.535581745391724 -0.793430606354377 -15.064592904736031 0 3 0 255
-50.409967765279873 -3.875403261736153 -11.351984328148717 0 3 0 255
-21.665130234962874 -2.385833234320216 -44.806335599656990 204 179 146 255
-24.414410867033610 -5.677556123950865 -41.171876497968498 211 169 145 255
-25.416600752000534 -5.919246082396484 -40.017134350648121 208 165 142 255
-25.756891150200715 -4.992258599056754 -39.804180710275261 206 165 140 255
-26.261708360505139 -4.359178611785637 -39.356509939723310 198 153 130 255
-27.052333524278907 -4.244347158456321 -38.499744136883066 190 144 121 255
-28.330176966934971 -5.023003640022068 -36.943819655814650 193 147 124 255
-29.480862710563258 -5.588161991018580 -35.566861978958087 178 132 109 255
-29.978359948130560 -4.968567262676572 -35.124887864913291 171 123 103 255
-29.828468540312457 -3.153513457299141 -35.613364034375479 138 91 72 255
-29.802804183722913 -1.557357881481835 -35.925155148569189 88 49 31 255
-30.101208064577293 -0.558236792001821 -35.771424375169772 21 3 0 255
-39.642019378172648 -14.022722959939898 -22.796176199773214 108 72 59 255
-40.909431415500848 -14.970026526671859 -21.221865445632375 202 159 150 255
-41.063176914624137 -13.789724391015170 -21.260791894668387 200 155 150 255
-42.520539329352616 -15.133428382772848 -19.405381326831588 78 34 31 255
-43.695946381568987 -15.951767412669199 -17.956049985662474 183 139 136 255
-44.356611998428036 -15.778014310084785 -17.253913213558803 191 145 141 255
-45.171935837491233 -15.916402430169853 -16.324788763285909 107 58 53 255
-46.023535988027618 -16.137240250513287 -15.340789577608916 207 158 153 255
-46.716760262540689 -16.052814103224136 -14.586697590950280 209 160 155 255
-46.788200698386106 -14.725674000440478 -14.743051210246961 202 153 148 255
-47.247700397083790 -14.176271611902109 -14.330825304137733 197 146 142 255
-47.745172642557208 -13.706191457724231 -13.862402213715455 182 130 120 255
-48.395387804346427 -13.551793798943663 -13.168493858476950 163 111 100 255
-48.852597625895243 -13.006654582384954 -12.758091387339988 139 91 81 255
-49.423696462800947 -12.699515548322609 -12.179101791645593 101 64 52 255
-50.107602534295538 -12.632374419932489 -11.432371406332948 55 29 18 255
-50.296918574511992 -11.535953174531045 -11.417093787919043 16 3 0 255
-49.920795407279456 -9.242225035334116 -12.241702744085046 6 5 0 255
-48.871692745022429 -5.501487501985878 -14.069838722354774 2 4 0 255
-50.121258305124613 -6.631334678939623 -12.483131186140071 1 3 0 255
-50.130632224840497 -5.120123249694302 -12.741209108291599 0 3 0 255
-50.701784468224346 -4.813013785859255 -12.162296561422579 0 3 0 255
-51.432858841618099 -3.314504629930809 -11.617764416587733 0 3 0 255
-52.444858805976281 -3.986554847702337 -10.376007784064768 0 3 0 255
-20.663836128729031 -1.081664757941667 -47.617342286998195 192 180 139 255
-23.412976178157578 -4.352854648027176 -43.963719396575755 211 176 147 255
-25.035950366317138 -5.678895977783895 -41.915826684297429 212 168 145 255
-26.117734768295747 -6.066462233020843 -40.640246628107576 212 167 144 255
-26.704010622168340 -5.580264689166995 -40.074403210474316 210 167 143 255
-27.411765387313295 -5.316923482249933 -39.332989459946134 198 152 129 255
-27.995584354585930 -4.835243724727547 -38.769050265981406 183 136 114 255
-28.781361140702273 -4.725935773478454 -37.912898168171466 185 137 115 255
-29.281527982381306 -4.100587006558669 -37.468071592957187 178 131 110 255
-29.216110455141944 -2.432759452717221 -37.841496319362761 150 103 84 255
-29.394946223272086 -1.208267444822809 -37.862780970633395 119 78 58 255
-41.085239687772429 -12.713707660608520 -22.759162076493141 198 156 148 255
-42.657093922968187 -14.283117037443617 -20.724327962306432 116 75 70 255
-43.830133963119380 -15.098353127264630 -19.269920323888471 186 142 139 255
-45.115391540575985 -16.153559976544102 -17.647198638833146 119 73 70 255
-46.161584746134650 -16.755852666565886 -16.372560946691948 186 138 134 255
-47.009676810671024 -16.978652602537068 -15.387119961613109 209 161 157 255
-47.313448318903582 -16.119728306869774 -15.203315234609192 205 156 152 255
-47.424908669420461 -14.870623572738282 -15.304181730400444 203 153 149 255
-47.883873033514590 -14.321390063054650 -14.891614800642969 189 138 135 255
-48.418930524112071 -13.929778847643149 -14.365843583779849 182 129 122 255
-49.029360452208806 -13.697121408184614 -13.727432456743145 160 108 99 255
-49.333766718122021 -12.837082951836749 -13.543184930334434 132 86 76 255
-49.828354962152133 -12.371179738071362 -13.075953133840585 76 43 31 255
-49.906094060343577 -11.035363394071311 -13.230118573457162 24 6 0 255
-49.834904284341064 -9.378329424710955 -13.608183431868525 12 4 0 255
-50.631049830988630 -9.548116207207045 -12.690338812607678 6 5 0 255
-52.511016663022076 -12.039326286242670 -10.146158406470363 1 3 0 255
-52.626112577872050 -10.783661692570433 -10.244323294081141 0 2 0 255
-51.588910782674844 -7.034944385883932 -12.076123651145082 0 3 0 255
-51.377132976970955 -5.041381111605006 -12.671647114461962 0 3 0 255
-53.092349894600261 -7.240645044930432 -10.363794555696842 0 3 0 255
-53.324348729550195 -6.216387302709506 -10.290061882958781 0 3 0 255
-22.539319862715161 -3.260530740959098 -46.594672727212895 199 175 142 255
-24.492720701814278 -5.155148717369684 -44.060788872478042 216 173 148 255
-26.149974500731162 -6.555763347809233 -41.948864540873387 214 169 148 255
-27.145567165096566 -6.799095159576041 -40.789512531918405 213 168 145 255
-27.729950164817808 -6.314822478626553 -40.223694059552997 212 166 143 255
-28.150672077153615 -5.537983361826491 -39.894640464354950 198 150 128 255
-28.652380000369021 -4.908973183995840 -39.447852290765240 181 130 109 255
-29.193938392473569 -4.355060544998366 -38.942696272410842 172 121 102 255
-29.251203257977579 -2.911118926127870 -39.142623629916329 161 110 91 255
-29.190055901751123 -1.239752208168852 -39.516736625409607 131 87 68 255
-33.397721641501278 -1.350751906447044 -34.784448065587071 112 93 69 255
-41.387322861501843 -12.172456333030539 -23.858368348930867 197 162 150 255
-42.407262908273182 -12.668157131192032 -22.625542729462893 181 144 135 255
-44.475305119565746 -15.243151281013184 -19.838776588349106 192 152 144 255
-45.678378063688115 -16.144154019411076 -18.326765938479809 64 22 14 255
-46.992503779381906 -17.286172205999890 -16.646327028510768 201 158 148 255
-47.605959366349779 -17.045579470618179 -16.003372452260635 195 149 140 255
-48.025514323999175 -16.419586948676283 -15.648043204794305 201 153 142 255
-48.214617449213250 -15.326998408899726 -15.636120430415843 198 149 136 255
-48.710805757433789 -14.856901617063329 -15.166488563022483 182 133 120 255
-49.053750078444622 -14.075025097116850 -14.925493922038470 171 116 106 255
-49.434895698450561 -13.371312139329348 -14.627440675739479 147 96 86 255
-49.702367171531307 -12.431445311183893 -14.499885707786433 131 89 80 255
-50.008285116233495 -11.569291587591067 -14.315082457053961 61 35 24 255
-50.164099506750773 -10.389564398695086 -14.356464784440533 20 8 0 255
-49.270831403852128 -6.983693985793593 -15.979772268095132 6 6 0 255
-50.554769608544646 -8.181593245187457 -14.323074720369391 2 4 0 255
-53.100318793110901 -12.105367612379638 -10.755102089385247 0 2 0 255
-53.513955672157508 -11.490468189384046 -10.404555068289085 0 2 0 255
-53.742150862607389 -10.474564494581102 -10.335030909456748 0 3 0 255
-52.679239526588063 -6.638608135180618 -12.227087775695651 0 3 0 255
-52.987132442586741 -5.772970606078616 -12.040890836992276 0 3 0 255
-52.818719241849251 -3.853907289309973 -12.580758737271907 0 2 0 255
-53.678714606836564 -1.077457139344403 -12.126592013831356 0 3 0 255
-22.410677889837586 -3.482312384895636 -48.165856169840907 186 176 138 255
-24.116275803157919 -4.930819859435871 -45.978240935015265 216 181 156 255
-25.650496236519501 -6.102484344918736 -44.034793476525465 219 170 152 255
-26.973966069589750 -6.921690219282141 -42.393845071669404 216 171 152 255
-27.844263267183095 -6.946154648589015 -41.410213673661104 214 167 147 255
-28.346550177924001 -6.315264855820175 -40.962221325057953 212 164 143 255
-28.362697523760971 -4.802188951035760 -41.224866522630123 197 146 125 255
-28.824964700670364 -4.096857157039494 -40.835692348111621 179 126 105 255
-29.407581372728487 -3.614250533238874 -40.269776520220375 158 105 87 255
-29.788643728253874 -2.762209930992128 -39.999171859275322 131 84 64 255
-29.530168211345995 -0.717958090358479 -40.669324971234204 91 55 33 255
-33.850563677306013 -1.045721849041456 -35.747686900510530 77 66 38 255
-35.012536454128195 -1.718107688084615 -34.315596063035827 27 2 0 255
-36.013314538971827 -2.094863781984941 -33.119722948781572 26 2 0 255
-39.156300797771991 -6.673622565954247 -28.733952889978156 118 92 78 255
-44.693503215811660 -14.544012841786184 -21.043699450876147 131 94 85 255
-46.628216525083303 -16.904279077405192 -18.429024341812493 143 103 94 255
-47.358684390692076 -16.890278208560915 -17.609810584017822 184 141 132 255
-48.086934055268813 -16.880381793243373 -16.792339755979185 185 138 128 255
-48.353453160887668 -15.943241791670090 -16.666427250615158 190 140 130 255
-48.735167684120725 -15.238363373875416 -16.367822444470903 189 139 126 255
-49.230995216155620 -14.767746420374863 -15.897373088502718 176 124 111 255
-49.422607619939726 -13.672315938499310 -15.885148214875954 154 100 91 255
-49.728819024648004 -12.810251736024838 -15.700700702219223 130 82 74 255
-49.960094645858646 -11.789931385616626 -15.629945615857082 85 49 40 255
-50.380150166233150 -11.162644406748825 -15.273881715437255 59 38 27 255
-50.612684317027785 -10.140033176022314 -15.202172830332927 38 29 19 255
-51.415436076389753 -8.806212949142207 -14.546882629103351 2 4 0 255
-51.872225739393102 -8.259491082711747 -14.134622599928548 0 2 0 255
-52.439415972256938 -7.953895353992181 -13.553430726173985 0 2 0 255
-54.405596830789577 -10.701235503032535 -10.831746247607725 0 3 0 255
-54.157766582839855 -8.637585839330029 -11.493812728758826 0 3 0 255
-51.388132364889003 -0.996420484353166 -16.028187370222952 0 3 0 255
-51.959472756901519 -0.683262245150388 -15.443842767866016 0 2 0 255
-54.439616984869161 -3.075219244023458 -12.210362866819196 0 2 0 255
-23.782793307934156 -4.786252868342899 -47.844541150883629 207 180 151 255
-25.766593138557766 -6.745151267559748 -45.233477824395180 215 173 155 255
-26.396056792371070 -6.322485666456373 -44.601647678884689 217 170 154 255
-27.715081904454792 -7.141673744252159 -42.956551634417934 214 171 154 255
-28.339906205198076 -6.727550212313474 -42.328327541337075 212 165 147 255
-28.882647262069923 -6.169083324655475 -41.820049175797578 210 160 140 255
-28.780168679044380 -4.434810106934549 -42.262454246083990 198 146 125 255
-29.242923909812532 -3.728118186940947 -41.872472920115428 172 116 98 255
-29.665325387672169 -2.947981794799830 -41.541923976930804 132 81 62 255
-30.007823186604924 -2.019481019776549 -41.329619253558548 91 49 30 255
-34.579537456375192 -1.270060480379641 -36.303145016047722 38 33 4 255
-36.050191060032432 -2.548960678111939 -34.400017867742122 59 38 23 255
-36.267927604523607 -1.406969548535869 -34.368914530444840 23 5 0 255
-37.768117992800626 -2.779290045557673 -32.414817826906727 27 10 0 255
-46.074420819050061 -14.664062180792769 -20.788285291344408 177 142 131 255
-47.918785213706869 -16.880410971156977 -18.286268186482886 171 129 120 255
-48.033823598800922 -15.632197728608901 -18.391286654928507 177 130 122 255
-48.379128824852785 -14.846509354659588 -18.148952946325863 179 130 120 255
-48.724630631058403 -14.060468716235960 -17.906475416429174 176 124 116 255
-49.562555479707044 -14.288539355140415 -16.916470212734680 159 107 99 255
-49.982376536865615 -13.661194866087612 -16.560135081396311 137 86 79 255
-50.213806102643076 -12.641975911376505 -16.490544020690805 99 58 49 255
-50.446163336804062 -11.621059160129562 -16.420241403271177 33 7 0 255
-51.202793827447209 -11.703398714094646 -15.549628796892932 24 11 0 255
-51.994246098678772 -11.869408484036398 -14.623920902958872 28 22 10 255
-51.965921682124119 -10.294237948734803 -14.952691771143350 11 9 0 255
-52.088301469140546 -9.032615089122544 -15.052103616873268 2 4 0 255
-52.175442617934152 -7.688130883022836 -15.206973086052699 0 2 0 255
-52.154149232123828 -6.100041459825093 -15.530303740076704 0 2 0 255
-53.895133385104756 -8.359565032478542 -13.137239649730731 0 3 0 255
-53.179082982257441 -5.243329707386181 -14.533665219358511 0 3 0 255
-21.568194871784044 -1.336903371050880 -52.489922710604901 185 181 139 255
-25.107583794300353 -6.017299173190708 -47.576689253310491 212 176 154 255
-26.471851530376910 -6.892327831519026 -45.860386805027190 220 176 160 255
-27.221912993310070 -6.687780875307311 -45.047775769230697 217 171 155 255
-28.010406356074753 -6.559836372497927 -44.176873385565557 213 170 153 255
-28.715984025239351 -6.289824624876843 -43.427252857279683 209 163 144 255
-29.218748715647337 -5.656397162310384 -42.977352280198460 207 156 137 255
-29.320078384759853 -4.288410039221333 -43.123623162365504 188 137 118 255
-29.583127737700067 -3.212117159760680 -43.030516249946970 164 111 93 255
-29.687683231697122 -1.838154138921311 -43.174245996967983 106 60 42 255
-29.833819227758596 -0.534984652451612 -43.257226267844146 58 30 7 255
-37.433915084452337 -4.061532611148209 -33.952846552811508 113 83 63 255
-37.805298868842556 -3.227918319070227 -33.690326472598258 43 20 2 255
-38.292780207108621 -2.622675896571820 -33.252346999555300 25 10 0 255
-39.049349496981563 -2.553634301248906 -32.406373030354985 25 13 0 255
-42.491543772161492 -7.856265851893482 -27.484529162945165 36 23 11 255
-46.373968196532417 -14.117004535518049 -21.879752486352032 173 150 137 255
-47.944997358020558 -15.790884914606920 -19.775972489056784 135 103 92 255
-47.987053586440567 -14.384777164327915 -19.996834404426778 150 114 104 255
-48.258727777903047 -13.440176657198464 -19.868797752690256 166 125 116 255
-48.682262348199387 -12.805502393122254 -19.509119787217315 162 117 109 255
-49.783662958508188 -13.575626915744522 -18.111329349037703 151 105 97 255
-50.467347419679271 -13.493683634419881 -17.350672088977973 118 80 71 255
-51.223935677619622 -13.572302112275281 -16.476570967003084 64 36 25 255
-51.119866512964535 -11.845764901005083 -16.924668586149181 23 9 0 255
-51.874339715862149 -11.928322532456491 -16.052253037646096 18 12 0 255
-53.404903968629810 -13.677061764339896 -13.980253590918409 12 9 0 255
-52.895591297519587 -11.075462345001711 -15.055762347317085 4 4 0 255
-52.392031611798473 -8.463259505623768 -16.126789340867361 2 4 0 255
-52.628460633219390 -7.436323013206788 -16.054691226694416 1 3 0 255
-51.841274943014298 -4.167226018033830 -17.573342018386001 0 2 0 255
-52.775909355231107 -4.655153676347993 -16.419042519071695 0 3 0 255
-53.778997477482591 -0.589515303916698 -16.057987503955388 0 2 0 255
-54.883901837002952 -1.501088043105710 -14.629550741822158 0 4 0 255
-23.310630241326578 -3.285097920695478 -51.624826036374401 203 182 148 255
-25.491895017801824 -5.587154993584988 -48.690294709019582 215 178 157 255
-26.812115515532128 -6.387714301633508 -47.029041722084912 217 172 157 255
-27.723112850440259 -6.471793578708855 -45.973480477081182 217 174 157 255
-28.470081713978971 -6.269899536056158 -45.160454152811241 212 167 148 255
-29.014334087216241 -5.706259741685756 -44.648785438200861 208 160 140 255
-29.397703343408807 -4.850838870736652 -44.377191574569935 202 151 133 255
-29.701437474012096 -3.848033039885422 -44.224999416486867 178 127 108 255
-29.966040003737305 -2.770263395216944 -44.131967211370210 138 87 68 255
-29.914275694891842 -1.098972535401288 -44.514871591077736 83 42 22 255
-35.957353145256462 -1.567534466706206 -37.529461854935107 184 143 119 255
-37.417495784145245 -2.845721410370459 -35.615904144307024 196 154 137 255
-38.369641367974310 -3.148185141132103 -34.470982780747420 156 125 108 255
-38.049486444256672 -0.941979267327156 -35.263721684099664 72 53 36 255
-39.458698976538898 -2.167019152287821 -33.418580918249546 10 3 0 255
-47.492448076858864 -12.210208933664603 -22.306944145901440 43 28 13 255
-48.258601953381572 -12.267337219092042 -21.421813384850907 51 30 16 255
-49.059909819859342 -12.406779394480793 -20.480638857637160 72 46 34 255
-49.933499319221539 -12.707192844326698 -19.425821800080115 73 46 35 255
-50.579722014273912 -12.544181422454159 -18.720218096210203 68 47 34 255
-51.745660728177896 -13.482504183160017 -17.208286964604468 38 23 11 255
-51.829876265840682 -12.149086963204127 -17.370695801760519 12 6 0 255
-51.323909002015796 -9.550058680316624 -18.451697267275875 15 16 2 255
-51.930223577153001 -9.313595434688494 -17.805933324890901 2 4 0 255
-54.115920062874395 -12.490967197895799 -14.696784242916493 0 3 0 255
-53.981243331938558 -10.678535909065374 -15.201832633333368 0 2 0 255
-52.133319192597781 -5.110640453513270 -18.389245697428862 2 4 0 255
-53.539921647309029 -6.635214939783509 -16.489296032820761 0 3 0 255
-51.964594182370689 -1.594504236087573 -19.263618303357532 0 4 0 255
-55.736311772921496 -2.137981136045653 -14.857061476326749 0 5 0 255
-25.205376124739900 -5.520046654776252 -50.507027018271401 206 176 150 255
-26.647018093561655 -6.528713591211925 -48.656478951956558 212 175 154 255
-27.356876348828735 -6.245486806610245 -47.898587294262484 217 173 160 255
-27.984571443627999 -5.820280038622229 -47.262757820612677 217 171 158 255
-28.570902301301288 -5.324598908442056 -46.688174688002363 213 164 149 255
-29.076281415554661 -4.684702262501446 -46.234707456917846 205 154 135 255
-29.381943252586495 -3.679369742968220 -46.081964882819562 186 136 119 255
-29.767669668334406 -2.819867736054505 -45.808778858624606 166 115 98 255
-30.153558965068612 -1.960055182114047 -45.535456361577047 112 66 47 255
-30.500144053135159 -1.025968411438782 -45.321772611341089 50 16 0 255
-35.610292877586431 -1.278902028686218 -39.414619051037732 178 136 116 255
-36.993184284458891 -2.395985131016062 -37.609961996815656 201 157 138 255
-38.138963966062562 -3.069851846696622 -36.164193200474784 195 150 133 255
-37.898331421698117 -1.017424354914851 -36.843352007793158 151 118 99 255
-39.298111703279687 -0.634490041853951 -35.314133969802299 39 33 10 255
-41.221040985933115 -1.341389935750612 -32.971119350959412 7 14 0 255
-49.776515747852642 -12.708099563041003 -20.930941222727483 46 34 18 255
-49.565617541252166 -10.747697260943170 -21.558020889504519 43 31 17 255
-49.767488143820486 -9.640403703205749 -21.544333979021900 39 32 16 255
-50.785785027380783 -10.256145912983357 -20.256235140418767 16 10 0 255
-51.061217769119494 -9.306740103013453 -20.127237581197875 9 8 0 255
-50.490563360443076 -6.542253166308967 -21.324780679530079 7 9 0 255
-51.247196884790696 -6.613311405935804 -20.443713645337255 0 3 0 255
-55.183479055590354 -13.588563278765548 -14.561202788076059 0 4 0 255
-55.268578890720093 -12.256474890372829 -14.725665299261436 0 2 0 255
-54.955898738284958 -10.043628642411562 -15.519196309575648 0 2 0 255
-52.106361194686343 -0.620633276266744 -20.637894391662485 1 4 0 255
-23.139060901358107 -2.304290153787065 -55.011703863650467 170 166 127 255
-26.483193572472146 -6.674780887220805 -50.289797082183100 207 173 150 255
-27.274315749269164 -6.531783158881183 -49.407384416353693 212 173 155 255
-27.982925750340598 -6.248188881996242 -48.647991921557008 219 173 158 255
-28.449732747292757 -5.532247385227436 -48.253202584650410 220 172 158 255
-29.155516346367563 -5.253844725992565 -47.495995477598711 209 160 143 255
-29.382373464809945 -4.102120074147365 -47.464346734747323 200 149 132 255
-29.808567568092911 -3.314660388750610 -47.130534496584175 188 135 119 255
-30.195160834559317 -2.453841791353398 -46.856933748806654 143 92 75 255
-30.857719959198960 -2.108740149833864 -46.162743585941087 61 16 5 255
-31.518753057518097 -1.766449658332760 -45.469740862677781 31 0 0 255
-32.256579752548703 -1.575297252571488 -44.658174347727652 34 3 0 255
-32.680095126343019 -0.792744629940444 -44.326420982439487 80 52 35 255
-33.414878560890770 -0.607204684090959 -43.517228397227029 155 115 95 255
-34.729614372172932 -1.547859931508356 -41.815721293337333 173 129 110 255
-35.961379114196575 -2.348782186993617 -40.237608318525758 187 139 121 255
-36.956676704121350 -2.707513586571167 -39.019933318444771 200 151 134 255
-37.717680704515374 -2.620039140654285 -38.160994803009231 200 154 135 255
-38.054991494856722 -1.703721258087285 -37.955161985851419 192 148 129 255
-49.912547690677258 -10.270414275401720 -22.593187075492267 17 15 2 255
-50.042192793911724 -9.005308905849120 -22.696123541828769 17 15 2 255
-51.500765056511696 -10.559424505621251 -20.706841681824812 13 12 0 255
-50.514291052222788 -5.349476985799015 -22.881486524923446 7 9 0 255
-53.923898818362304 -6.522684491457312 -18.722097593274555 0 2 0 255
-52.796137912731581 -2.452927635195920 -20.832214175967891 0 2 0 255
-24.708665616570187 -3.958415379542998 -54.373456312069607 191 178 143 255
-27.433825073911123 -7.253632568231467 -50.554798129464132 208 171 151 255
-28.182297109904823 -7.039878521128514 -49.732175261865137 215 171 155 255
-28.808940178477769 -6.612765069527796 -49.093600577143775 220 172 158 255
-29.155580604443514 -5.679956843483183 -48.881153411386038 214 166 152 255
-29.542316553173748 -4.819197834997453 -48.607740515662670 204 153 136 255
-29.731341987379722 -3.592992166597014 -48.636907462796074 195 142 126 255
-30.316269328996611 -3.096751722874160 -48.060501375767473 170 116 100 255
-30.978816077356072 -2.749380146353303 -47.364195586853924 82 31 14 255
-31.600623916186123 -2.331123674611263 -46.729336804509558 132 84 67 255
-32.416603092498860 -2.284831750378203 -45.794650468574957 164 118 99 255
-33.502885472105220 -2.762134610067221 -44.441413942521422 165 120 101 255
-34.157644567410074 -2.429122335036027 -43.751180321269032 181 136 117 255
-35.081987030505957 -2.621037738349060 -42.642962989660930 192 141 124 255
-36.041731021506791 -2.893687986035786 -41.477468264926756 199 143 128 255
-37.151980285422212 -3.472843721337199 -40.075901844831208 202 149 133 255
-37.682314098196258 -2.931277145169133 -39.571757367752014 202 150 133 255
-37.982380528335398 -1.938283150436746 -39.425251378191973 194 148 130 255
-38.168729650392123 -0.716959590670456 -39.456456313689358 180 144 122 255
-49.375936099059444 -7.923153815431647 -25.034214164800630 6 9 0 255
-52.123460455115776 -12.200093711318829 -20.991222721378676 8 6 0 255
-50.223604343135875 -5.041620612907479 -24.636201683905767 6 8 0 255
-50.174741477829983 -1.770604924326051 -25.354139112644077 5 11 0 255
-25.828650221272170 -4.823318477092585 -54.400943806335391 199 181 148 255
-27.861850996288354 -6.897663126331054 -51.612771953238138 210 170 152 255
-28.569622847804766 -6.610291305482178 -50.849098835400639 217 170 156 255
-29.156373797032359 -6.109176712131045 -50.269869591953324 217 165 151 255
-29.742074221809929 -5.609987137982898 -49.691448341448393 211 160 145 255
-30.326725452175026 -5.112721420262517 -49.113835242250417 198 146 130 255
-30.595245142029000 -4.033328609542195 -49.022939240524352 148 95 79 255
-31.453621212498632 -4.050727054023412 -48.021677923258920 110 59 42 255
-32.113541964505373 -3.705907050435087 -47.325296591773963 180 129 112 255
-32.928029194565170 -3.658600734138759 -46.388283273659937 183 134 117 255
-33.545513673206614 -3.246394215276609 -45.755014168607261 188 139 122 255
-34.433189359448022 -3.355401480003366 -44.700883703852782 189 139 122 255
-35.472540551987834 -3.767269371217310 -43.408390601657601 196 144 130 255
-36.276716866107108 -3.738992549378906 -42.479433255257334 200 144 131 255
-36.578953139359299 -2.743019399498735 -42.332182488345495 202 149 133 255
-37.418034890492635 -2.796023314375589 -41.345992673974195 197 148 131 255
-37.910789758606882 -2.176922798309874 -40.900068879248067 192 145 125 255
-38.212707813435344 -1.181535894075807 -40.753065766554244 177 139 116 255
-54.833933585129884 -1.228741134126722 -21.426460040830307 0 8 0 255
-26.425398053835266 -4.756410897761953 -55.223607956897297 202 175 147 255
-28.132838205154485 -6.254517076947280 -52.918661932518972 213 169 154 255
-28.959491945622375 -6.181043534788728 -51.968700982654269 214 166 152 255
-29.546287881307563 -5.678285660662141 -51.387990307895222 209 156 142 255
-30.171471998339342 -5.249990684508589 -50.746964383955287 201 150 133 255
-30.677412594756163 -4.605780614623882 -50.290020681097332 144 91 75 255
-31.574757513516857 -4.692448678113976 -49.224169889962639 132 79 63 255
-32.312819680116604 -4.491776326639297 -48.403997692244786 199 150 133 255
-32.932005399443767 -4.074514531726663 -47.767623801245065 192 143 126 255
-33.744080097477621 -4.027888345420990 -46.828998605302843 192 143 126 255
-34.360095529322564 -3.616467563249842 -46.195092436596212 195 146 129 255
-35.360762862009665 -3.948412052401409 -44.957578135068928 200 151 134 255
-36.280792849207415 -4.138527802148928 -43.843684381379319 204 148 135 255
-36.775743982717302 -3.514555162300042 -43.395285674633357 204 148 135 255
-36.926061651420810 -2.218673056895568 -43.488907657727765 198 149 132 255
-37.192332790907130 -1.144769675426630 -43.401010184906653 192 145 127 255
-37.953375244098311 -1.047002377083857 -42.532566419584668 179 143 119 255
-54.665542612536029 -1.137121621581798 -23.000228121303479 0 8 0 255
-55.197930493991208 -0.735179062595591 -22.462398968662114 0 10 0 255
-26.903599375171893 -4.474758242079190 -56.232086714512747 209 173 148 255
-28.169824169358975 -5.180755452659355 -54.598011563347598 210 167 151 255
-29.035970727846291 -5.175571327428599 -53.583039541736241 207 159 144 255
-29.899373766456733 -5.175439804054520 -52.570201081503910 201 148 134 255
-30.367536403672773 -4.455188297280358 -52.172676567114280 151 96 82 255
-31.070149581313103 -4.171962051887363 -51.408051476553453 140 87 72 255
-31.888015680552741 -4.110887693579855 -50.461416319185105 208 156 141 255
-32.897824702373953 -4.420345904817680 -49.211555033263068 207 157 140 255
-33.632565824121144 -4.222762654669339 -48.391159544122502 203 154 137 255
-34.326652854493290 -3.955247990684711 -47.633173728102321 203 152 135 255
-35.057500571087303 -3.764842920127421 -46.815813350747874 203 153 136 255
-35.901558344763032 -3.800372999336787 -45.818051073952716 201 154 136 255
-36.666321775234053 -3.692332021609843 -44.943542551236789 201 149 135 255
-37.238026337570460 -3.215803882238561 -44.373118939072782 199 147 133 255
-37.161968635695473 -1.470464170947309 -44.829822761412714 189 145 126 255
-25.322286695839580 -2.070867681711036 -60.124904442367750 171 173 128 255
-27.383584799848222 -4.193358300592990 -57.242457959984279 211 166 145 255
-28.764678088970470 -5.113275145805176 -55.418384526286900 208 160 145 255
-29.589642904844311 -5.035367279338857 -54.462743396604253 209 158 144 255
-30.686381185367964 -5.467971523269000 -53.077791587580521 190 133 120 255
-30.997702575873120 -4.458390724436185 -52.926371326791553 138 81 68 255
-31.660131455268782 -4.102077113500968 -52.221667139559173 207 154 140 255
-32.476309434686129 -4.040346378338370 -51.272854529864674 208 156 142 255
-33.289993202541154 -3.983213532189666 -50.325985703593574 206 155 138 255
-34.024028100905753 -3.783899236855859 -49.503329218166016 203 154 137 255
-34.640682682526261 -3.367450813275354 -48.865356719818521 205 155 138 255
-35.217718767697988 -2.879528072750702 -48.289326229050516 203 151 137 255
-35.870148889513956 -2.541633692084076 -47.592402462733133 200 151 136 255
-36.673442267084170 -2.503665769910981 -46.653641277587838 199 152 134 255
-36.942602949276079 -1.427228263436689 -46.566080473731802 185 149 125 255
-26.087568451384925 -2.291205121915823 -60.710400067141620 170 174 126 255
-28.180201815597798 -4.484857644388285 -57.758023136162336 205 161 141 255
-29.595595855028222 -5.476744865660407 -55.867524942649453 205 155 141 255
-30.535489400497966 -5.615607313666032 -54.724583961558352 203 152 138 255
-31.472157413478385 -5.760413983635885 -53.584155025416948 143 91 77 255
-31.900255976443276 -4.968995566970250 -53.248443328479425 203 151 137 255
-32.522033055234260 -4.541200279964926 -52.604713923387578 203 152 137 255
-33.219784868861495 -4.261613131554554 -51.838943712852540 204 152 138 255
-33.800236064480288 -3.765851311226243 -51.258820936199953 203 151 137 255
-34.418033975826148 -3.345373671316793 -50.618176211001355 200 151 136 255
-34.766665172194251 -2.412124907771897 -50.407171007968344 201 149 134 255
-35.230149898715467 -1.699553275151402 -50.012417494449124 193 146 128 255
-35.769375893343579 -1.135628659602730 -49.495812999681249 181 141 121 255
-28.662243446333719 -4.203789999198307 -58.770613544047166 196 154 132 255
-30.424902720522937 -5.840081475850326 -56.315044722135951 202 155 137 255
-31.283965615254090 -5.835554295672750 -55.294097751002084 167 120 102 255
-32.334312139879358 -6.197225588374351 -53.965294368509490 173 126 108 255
-32.761763158689519 -5.406929120268728 -53.630020805594370 200 151 134 255
-33.420514190545759 -5.052824304660476 -52.923945694680157 201 152 135 255
-33.885522883149946 -4.337033449375326 -52.527624562533134 198 149 132 255
-34.196923662704307 -3.329329762441489 -52.378018084237112 199 151 134 255
-34.585374291808762 -2.467109696421289 -52.104844565495569 198 153 134 255
-34.897829228299543 -1.457435085221277 -51.954390918636108 189 147 125 255
-35.400733883912039 -0.815511221235852 -51.496744667851175 172 139 112 255
-28.990150052580191 -3.636819677214362 -60.034999813108811 190 158 125 255
-30.630868029205260 -5.055097547821447 -57.759060543090612 193 146 126 255
-31.489263187585465 -5.047662125051261 -56.734797140819154 193 146 126 255
-32.383533707304878 -5.117484425306884 -55.650473621743970 198 150 130 255
-33.120840326807411 -4.903074052010709 -54.816864681555359 199 152 132 255
-33.510758925307300 -4.038474871067933 -54.542850238442298 199 154 133 255
-33.709568034228198 -2.809170607051897 -54.578238363361294 193 151 129 255
-33.795346602193376 -1.358015279501501 -54.797980994606462 184 142 120 255
-34.301362415949001 -0.709543796702746 -54.337157073227246 166 139 109 255
-29.592878004497919 -3.570887650244913 -60.864126472844163 168 165 118 255
-30.686575038839351 -3.983700895275547 -59.458002654925565 186 148 122 255
-31.197846725274246 -3.324790872543133 -58.992387765712238 189 148 123 255
-31.785407734828311 -2.811283684692285 -58.402424080406831 187 144 120 255
-32.601764045577823 -2.734159552836104 -57.439508266336446 177 143 116 255
-32.995572099573934 -1.862665206364795 -57.162717381148298 167 142 112 255
-33.275344277694870 -0.772286545624070 -57.072096631351798 157 145 111 255
-29.555291460444209 -0.689736979827330 -63.109062246457995 160 167 119 255
-30.378703858748082 -0.595831338439609 -62.137149038783093 164 154 113 255
82.156269742405271 -214.111290044202235 45.196443645141585 0 1 0 255
58.054611172699623 -0.580058532182647 -24.853626364638870 147 139 96 255
58.601695802283956 -1.789933113446921 -22.597122500302390 143 127 92 255
58.957927577475999 -1.994291119722618 -21.261053201456434 142 118 86 255
59.240775352452189 -1.811879307936465 -20.278983206115129 133 111 78 255
59.393617812209541 -0.924839667127117 -19.928429551414922 121 106 68 255
57.400874494204970 -3.106498394401797 -23.370604065204930 179 147 119 255
58.161464299843047 -5.403340595459326 -20.131211293475218 177 138 116 255
58.563469854288456 -5.846538611068780 -18.589429815398233 163 125 104 255
58.831464309055818 -5.592823251637071 -17.683051873767994 153 113 94 255
59.113465697097254 -5.420177017943843 -16.708528971738758 145 107 85 255
59.219526506938564 -4.307282739921675 -16.573796028706596 137 101 77 255
59.209797932945037 -2.561543823042200 -16.994887629737804 126 95 66 255
56.653901566879540 -5.081279052000355 -22.380670720290851 182 146 121 255
57.636568275532966 -8.456691938485562 -18.156776302235244 181 136 118 255
58.146713518555600 -9.446546678012510 -16.127035816238362 175 129 113 255
58.354440260107708 -8.887564765991812 -15.506317405803969 161 118 99 255
58.517117287734493 -8.095053998572837 -15.096152111275956 156 114 98 255
58.650130916358009 -7.145398787702533 -14.825379643401931 147 109 90 255
58.768648446391794 -6.115864677559642 -14.623431990892897 140 103 82 255
58.754583963762158 -4.375313337095349 -15.046116554082886 130 97 72 255
58.727233427419549 -2.550033474330689 -15.534368994208108 115 89 60 255
58.745451807353618 -0.956361938968712 -15.810803390410712 95 78 44 255
55.544768583768658 -5.200160473222070 -23.084261300867439 182 148 122 255
56.543380089382779 -8.560597193793399 -18.857898905987668 183 139 119 255
57.213886340909667 -10.317697508490994 -16.123407295784887 172 126 110 255
57.498567541822837 -10.146843702912918 -15.152032264576434 167 120 104 255
57.736771446492085 -9.745401263071983 -14.392753522829395 160 113 95 255
57.868259546968531 -8.798888130176010 -14.123630212057151 157 114 97 255
58.015212891224508 -7.929433599600088 -13.783953042111222 148 110 91 255
58.102100238463663 -6.744872081918430 -13.721925630422561 140 104 83 255
58.114562049769802 -5.163773450484939 -14.005175277762902 130 97 73 255
58.128243832397928 -3.577858822124711 -14.285201957013555 114 88 60 255
58.113329081730981 -1.828674986179976 -14.700221337967889 94 74 42 255
54.493405260011954 -5.630557112534348 -23.505805128614242 175 151 115 255
