ply
format ascii 1.0
element vertex 653
property float x
property float y
property float z
property uchar red
property uchar green
property uchar blue
property uchar alpha
end_header
-20.063481952827004 -8.828326980146528 28.777259403632058 142 97 65 255
-20.846177402905624 -8.533468264371635 28.285581173361777 143 96 66 255
-21.797968025804551 -8.470148808483145 27.668730046038149 142 94 64 255
-22.236317401729849 -7.722723642154534 27.430764472411767 139 94 64 255
-22.957852813782154 -7.358876369301299 26.983437638205203 137 93 64 255
-23.112871842069268 -6.228137177893359 26.954939622119923 137 92 63 255
-24.114907920483319 -6.252454978317161 26.299722488527266 137 88 61 255
-24.439251671805579 -5.352875838904993 26.145946109166999 136 89 63 255
-25.044675719505193 -4.840468786177439 25.783957443228701 143 96 70 255
-25.145390503815662 -3.629073262180782 25.796123533262971 144 97 71 255
-25.917906433017293 -3.351639080319956 25.310077469610007 175 129 105 255
-26.633081131184241 -2.998703096784084 24.866306815546864 182 136 112 255
-27.402493817304418 -2.726585467292523 24.381985036657454 179 131 108 255
-27.726626402276707 -1.827437675844465 24.228435227400723 175 127 104 255
-28.493870064697148 -1.559047633885143 23.745336799013472 171 124 98 255
-28.928339547806019 -0.818368747023840 23.509682728118975 158 115 85 255
-29.968471492115128 -0.951141263939519 22.822854282319099 149 113 80 255
-4.491189756917521 -31.771419700266961 36.378799518545179 189 187 139 255
-4.383571115351657 -30.393912640604213 36.535120547749614 198 185 141 255
-4.400802116509396 -29.150473082971104 36.601999153651320 179 161 119 255
-5.397998151629196 -29.011824440407679 35.963782248110533 152 130 89 255
-6.636738189403189 -29.155233796411750 35.151135214552198 152 118 81 255
-7.263234878118112 -28.607715450671463 34.778993551434553 162 127 94 255
-7.038518825500319 -27.082802883808171 35.020360544646650 189 150 119 255
-7.240882161218934 -26.044048413741677 34.954130557041879 170 134 102 255
-7.928010371564966 -25.566575676300431 34.538169168376839 164 129 97 255
-8.432977157060179 -24.879236999669331 34.253522711466303 182 149 114 255
7.254255218435475 -0.970919182803016 45.929425424668011 122 131 77 255
-16.174992249130099 -13.588070751595183 29.933760714233955 137 99 64 255
-17.255752109942847 -13.653608089308761 29.228078306969167 135 96 61 255
-18.043758987743928 -13.350898331735920 28.735409338495515 139 97 61 255
-18.830116050966296 -13.050999749032258 28.243633005385732 140 97 62 255
-18.749457645138506 -11.627196358275626 28.384805240603981 140 97 63 255
-19.189150377369259 -10.877493303859552 28.146130273249554 141 96 63 255
-19.973345223011819 -10.581281173187904 27.655527229290016 141 96 63 255
-20.927780597351244 -10.515243869722667 27.040053534617357 141 97 65 255
-21.365321041573083 -9.769215698447539 26.802554884865685 141 96 67 255
-21.802808537204356 -9.023281321007005 26.565090493017266 137 93 64 255
-22.069550883009214 -8.048038678605849 26.452780331301682 136 95 67 255
-22.564100028806735 -7.378301704593525 26.173535991944561 137 92 66 255
-22.945069905545751 -6.555268224285385 25.977596912966931 137 90 64 255
-23.778271156968913 -6.349009317133323 25.449619671049931 141 91 66 255
-24.384101323513363 -5.836515342077860 25.088361321337544 145 98 72 255
-25.157809651191229 -5.558231335419237 24.603525908085174 135 87 63 255
-25.368840271007144 -4.504545695804893 24.532351024338027 182 134 111 255
-26.252569496718905 -4.385652389410382 23.966184233501650 191 143 120 255
-26.799103517257493 -3.800822572219090 23.647999797750629 196 146 125 255
-27.679331761986873 -3.687922908628991 23.083771501510938 193 142 121 255
-28.112799997284043 -2.948941524815041 22.848645722159972 189 138 117 255
-29.156136676081871 -3.078402945381470 22.163458427274236 185 137 115 255
-29.754038761484821 -2.579524910335863 21.806657607214817 177 131 107 255
-30.516669238352478 -2.320234123998262 21.328000055395535 174 130 105 255
-30.782253680059426 -1.347126725663259 21.216571136175702 171 126 97 255
-5.350478693301937 -30.688759234495762 34.813649738200439 176 168 122 255
-5.978320028392062 -30.139607325680259 34.441813106249754 197 170 132 255
-7.094267408808491 -30.147615906897329 33.720905393584104 196 160 128 255
-7.780281859834020 -29.672912353716697 33.306914833305513 170 130 97 255
-8.100009806713302 -28.780656966663202 33.154785977091592 178 133 104 255
-8.298739712029658 -27.747335084347867 33.089330865017558 178 138 108 255
-8.862003503874263 -27.134515842765865 32.762906507539782 173 131 106 255
-9.364198036437159 -26.452127604876381 32.480115936007337 170 126 101 255
-9.685068683763149 -25.557855585248916 32.327259622540964 167 126 96 255
-9.284064393565984 -23.810266710221924 32.692363026037128 168 129 96 255
-14.099548455966300 -15.427003764698213 30.090667107966169 141 98 69 255
-15.186998898686682 -15.483341998543438 29.384820917573052 139 96 67 255
-16.505355311543013 -15.840678508987878 28.511578055802772 141 96 67 255
-17.294621198557678 -15.537038309981995 28.020135329340349 139 94 65 255
-18.198647533016953 -15.385077065952913 27.445368618058723 139 93 65 255
-18.403597262136856 -14.340943391497063 27.376212841768336 136 94 63 255
-19.015138978154738 -13.819290635049242 27.012764433326169 139 95 64 255
-18.932104584591883 -12.397793845741575 27.152487160479666 139 96 65 255
-19.485846977908466 -11.801013008835895 26.830923228178619 138 94 63 255
-20.269184361047934 -11.507471755773537 26.342683683034011 137 93 62 255
-21.223118475417408 -11.444088387735860 25.730307142724854 133 90 59 255
-21.315399485294506 -10.244706989170879 25.743336390864329 130 89 57 255
-21.352064065868916 -8.966480335503036 25.797072716824630 127 86 56 255
-21.618594575880849 -7.991034891116897 25.683992001076462 127 86 56 255
-22.227176230981883 -7.474444908239263 25.322175011967033 127 84 56 255
-22.607906270336656 -6.651649617393787 25.126098026206591 130 84 58 255
-23.271956596452583 -6.214173058583469 24.723679652081984 134 86 63 255
-23.991394016340081 -5.855943859579241 24.280696075446372 124 78 54 255
-24.822180745875613 -5.655221846278494 23.756259046588582 174 128 104 255
-25.313732767927377 -4.990857361582925 23.479053314671944 193 147 124 255
-25.973259107983637 -4.561130807225709 23.079147704730019 196 149 127 255
-26.575733076271518 -4.055015492485836 22.720741391014116 200 152 129 255
-27.735661861509612 -4.335196633438386 21.954633373117844 198 150 127 255
-28.725038469252439 -4.385158656491683 21.312661299825834 194 146 123 255
-29.934001851721121 -4.755436461143404 20.509464473233720 194 146 123 255
-30.474058774488753 -4.182121865024783 20.195536063923043 191 143 120 255
-30.902964127138063 -3.450988174341603 19.962993413787046 187 139 116 255
-31.111176588733485 -2.401456105451530 19.892325254791217 182 136 112 255
-31.870786248059488 -2.148552358568509 19.417248711364977 181 137 111 255
-32.079756479482199 -1.097766049021516 19.346228574102497 172 130 104 255
-32.673173443871434 -0.607237184747703 18.992964236014188 165 126 98 255
-5.212132939539458 -29.744210458985663 33.884937542159548 149 121 84 255
-7.065122620576375 -30.584227748912525 32.644985930028582 188 152 120 255
-7.873064845546452 -30.250197748414621 32.145689020204543 198 155 125 255
-8.191521493029057 -29.359742858672604 31.993673787913451 190 145 116 255
-8.875491858141345 -28.889302473124928 31.582014165946674 181 137 110 255
-9.376187672512714 -28.209710906756641 31.300415948585055 179 134 109 255
-10.058273854069370 -27.742448156907813 30.889724128840953 175 132 107 255
-10.497437133042041 -26.993864507319671 30.651676735439480 173 131 102 255
-11.057148067259959 -26.387475763430103 30.327766067434993 175 130 101 255
-10.713544998520518 -24.713144105349670 30.647197820409019 175 134 102 255
-10.253216844818382 -22.890072338917548 31.050374715475101 173 136 102 255
-11.454409333836594 -17.886773949313977 30.572859939757251 155 111 77 255
-12.905878685702845 -18.367916961372885 29.611700265600632 156 110 77 255
-14.175410976112346 -18.637638338119359 28.779891751791382 150 105 72 255
-14.969261459032964 -18.327415805600879 28.287899013590533 145 99 69 255
-15.584886364810274 -17.799445846757777 27.923246712045369 136 90 62 255
-16.434539119442491 -17.567938528748073 27.390739366581727 134 89 60 255
-17.165089201949712 -17.191752543355619 26.943279560567902 134 89 60 255
-17.718874022276765 -16.595331949288351 26.622371808527902 132 87 58 255
-18.272063700737789 -15.999922313294064 26.301781153623693 133 88 59 255
-18.359110829028140 -14.808310380078893 26.315838564395619 133 89 62 255
-18.679927419673760 -13.913605745519419 26.162187615706557 136 90 64 255
-18.537778758430733 -12.417283414780258 26.341463305223044 137 91 65 255
-19.091776043783568 -11.820490360035137 26.020424215352762 134 87 61 255
-19.702849694557386 -11.300254075895992 25.658200837060349 130 83 57 255
-20.658266478616213 -11.236143093259159 25.047846369690916 124 82 51 255
-20.807645489356304 -10.112127606554736 25.017867708503701 119 80 47 255
-20.729220140784520 -8.681035818709944 25.152362342890484 115 76 45 255
-20.995935994193616 -7.704711331834204 25.038297005296272 112 71 41 255
-21.320397410676350 -6.803807095382354 24.882691193956362 116 72 44 255
-21.815952750109119 -6.132807914736134 24.603612589332187 116 70 44 255
-22.084238870810225 -5.153823720045636 24.488722657867982 108 65 40 255
-22.862738006181274 -4.869776743866339 24.005063863408708 133 89 64 255
-23.696083852297619 -4.666095796419484 23.481442957103923 194 150 125 255
-24.696568735318749 -4.699065983329660 22.836500383821146 194 148 125 255
-25.357106848773242 -4.268427234257160 22.437321980528111 198 152 129 255
-26.072630796104903 -3.917919965733915 21.998110131097604 199 153 129 255
-27.122481607063833 -4.040624834903781 21.316217564655886 201 155 131 255
-28.560099988034523 -4.719296839860874 20.352432262502873 200 154 130 255
-29.825887068434838 -5.169340135935045 19.512549965402940 199 153 129 255
-30.587728646321494 -4.913783782944847 19.038072166696793 197 151 127 255
-31.126286170895042 -4.343457581188716 18.725635689217313 193 147 123 255
-31.387859491749197 -3.376050830658187 18.614596414179886 192 146 123 255
-32.091444356359801 -3.046000117820199 18.182021886338703 190 144 121 255
-32.683646862651273 -2.558132515588397 17.830343999842597 186 142 117 255
-33.769061316978451 -2.794195007282099 17.119133680450858 184 140 115 255
-34.796538013513810 -2.955189245305064 16.449606305400266 186 143 118 255
-35.220206801293756 -2.233118428263026 16.220116904839202 183 141 115 255
-35.861849823321876 -1.834906109709209 15.831523555044939 181 140 112 255
-36.230619789068584 -1.032612684137291 15.642110230970047 176 132 105 255
-2.056030553717761 -30.460866576655803 34.787778448330982 179 162 112 255
-2.643319820844880 -28.589951261763758 34.519721830692561 159 127 86 255
-5.059383313131860 -30.041143462570744 32.892306831493840 170 136 99 255
-7.344141136552850 -31.368046228078782 31.355907704849244 164 126 94 255
-8.090138639154333 -30.966772746752753 30.902027398383069 185 139 111 255
-8.651441112137462 -30.358176673888607 30.578047828815812 187 142 113 255
-9.090206830580485 -29.610348961022879 30.340338822423007 181 137 110 255
-9.528892903359349 -28.862639923576467 30.102646160554741 184 138 112 255
-9.967499624757124 -28.115049732537415 29.864970739783445 183 138 113 255
-10.829980664009469 -27.863221977222793 29.327937653904854 179 140 109 255
-11.811390011928751 -27.756743655020614 28.706538064579206 184 145 114 255
-12.307938177877020 -27.084386174958809 28.427445786950614 184 145 114 255
-12.503309586999961 -26.055176558227430 28.361279281020472 182 146 114 255
-12.939802002763059 -25.311118764439868 28.124637524310714 178 144 109 255
-13.256414810540974 -24.423305785031658 27.972835045370687 174 140 105 255
-13.573482205146121 -23.534706441304166 27.820768117704262 174 134 99 255
-13.354275208124164 -21.993825305119771 28.048820636607132 161 118 84 255
-13.435429552359238 -20.811162610315876 28.064352281217054 155 110 77 255
-13.933701404223456 -20.135786689221305 27.784199600699623 153 108 75 255
-14.727831283958864 -19.826307664590786 27.293970591037947 143 103 68 255
-15.402086430284243 -19.373069655336565 26.888585298227838 131 90 58 255
-15.839314006675096 -18.627681956665697 26.651424505189738 120 79 49 255
-16.511839517228452 -18.177379533870749 26.246956824139943 120 76 47 255
-16.948399019111804 -17.433119254609437 26.010140324238307 120 76 47 255
-17.267736530152490 -16.540580761514519 25.856733633487778 120 75 46 255
-17.529092102249848 -15.572829232642675 25.744688263381732 121 76 47 255
-17.616238626875514 -14.379895700370326 25.756882742583997 122 78 48 255
-17.995810143989814 -13.558718157367025 25.560873145721445 124 80 50 255
-17.911199379597235 -12.136422201737219 25.695976571541252 124 81 51 255
-18.350149722689110 -11.388070624431180 25.457839083536896 119 77 47 255
-18.673473004491512 -10.488726630207481 25.302253883997594 112 74 42 255
-19.400825830462338 -10.118992583681234 24.858100406026864 106 72 37 255
-19.494089543749624 -8.915629766659464 24.866975747637639 99 68 33 255
-19.301949655821261 -7.328541263721945 25.080247261734030 93 64 30 255
-18.998154363030181 -5.583692731347412 25.373921920623360 92 64 30 255
-19.326091650868278 -4.676497310978959 25.215856845200022 95 66 33 255
-19.654507118033422 -3.768492294310477 25.057541198302573 96 67 35 255
-20.324552620562571 -3.322424500734996 24.654429241158653 88 59 27 255
-20.880042213054395 -2.723545174033347 24.333299530580149 155 119 90 255
-22.000900283918611 -2.901403242362449 23.606349621312859 164 121 96 255
-23.513780334661561 -3.629349752072130 22.597357037750925 181 137 112 255
-24.683621679833095 -3.897776939354344 21.833950593552430 190 143 120 255
-25.625200080506261 -3.859129855713036 21.234041856440143 192 145 122 255
-26.900761515869533 -4.295461341623934 20.393492075430544 197 151 127 255
-28.396064180515310 -5.053417561829178 19.394102420133322 198 152 128 255
-29.384103029249587 -5.109658323313738 18.759133526212935 198 152 128 255
-30.369473572281493 -5.170461916808563 18.125633784879312 197 151 127 255
-31.241102953757405 -5.077072600324129 17.573686303753732 195 149 125 255
-32.110597454040999 -4.987338473773150 17.022921371459176 195 149 125 255
-32.812138491234265 -4.661777809654836 16.593034565539000 192 146 121 255
-33.622625606670823 -4.498616717483003 16.084246660023837 192 146 120 255
-35.036357609921339 -5.221684343052061 15.139186451542813 191 145 118 255
-35.896548118477426 -5.147881986231937 14.593578533908072 191 145 118 255
-36.645126050149628 -4.916263497485375 14.128377082508948 189 144 119 255
-37.119044691945135 -4.282623036821803 13.861776330597678 187 144 121 255
-37.647177743596956 -3.730636548111022 13.555886155609301 187 141 119 255
-37.903033009111084 -2.772571387008384 13.447310085225908 183 137 115 255
-38.159682641617707 -1.813177061619683 13.338342507789974 177 136 112 255
-38.903902866203708 -1.589102504857237 12.875685156508325 166 128 103 255
-39.484686221314263 -1.121512597105436 12.531473467064842 148 122 91 255
-4.278774379746125 -30.886889011951610 32.270941551981849 170 158 109 255
-5.770099477441732 -31.307092469716395 31.299164766788323 181 154 113 255
-6.949424441331104 -31.387898808961495 30.544619576899322 181 148 113 255
-7.818742838294071 -31.125911432818924 30.006227844548647 190 148 118 255
-8.624906786698119 -30.797316188093106 29.511668741244762 186 144 113 255
-9.429397324077485 -30.471555452875407 29.017988548816305 178 139 107 255
-9.866519322747621 -29.726541546042853 28.781189317427163 185 142 114 255
-10.242745336650643 -28.911072729987779 28.587002703618623 183 138 110 255
-10.922577094509762 -28.449272136658919 28.180075453695451 181 140 110 255
-12.146229702184087 -28.628637455157474 27.391682123065635 186 145 115 255
-12.762169608007042 -28.101475590615735 27.028970948225407 192 148 118 255
-13.136092580958319 -27.289874465754963 26.835941627091557 188 146 115 255
-13.450050591760572 -26.406234971791207 26.685025809775823 186 145 113 255
-13.824483413027195 -25.593740089871858 26.491681366525626 181 142 109 255
-14.318882087578459 -24.925224045709570 26.214032884232608 177 133 99 255
-14.095872463917431 -23.388688005591462 26.440791657602603 160 117 83 255
-13.816080566037130 -21.774691028770292 26.707942754984458 146 107 71 255
-13.896338727956817 -20.592395234891057 26.722137723531517 130 94 58 255
-14.334262649220847 -19.845865794468182 26.484670488014899 119 88 51 255
-14.831339955076345 -19.172737815699463 26.205497794205939 103 73 35 255
-14.855334043072901 -17.912084321801018 26.259783070402733 99 68 31 255
-15.293838057246177 -17.164545143571701 26.021968534149522 96 68 29 255
-15.555786788794279 -16.195230476934000 25.908734844073763 94 67 28 255
-15.877157497403715 -15.298862455194211 25.753654843441069 90 66 26 255
-16.140426369362785 -14.327288781114987 25.639691854044571 90 65 25 255
-16.112265145083626 -12.981272940558540 25.731838749787556 85 65 23 255
-15.911257955843411 -11.407161185492271 25.946559567238495 83 65 22 255
-15.538596187298964 -9.602923251118966 26.283209355573149 82 70 26 255
-15.575818409607649 -8.319691309597715 26.330276945400215 80 72 27 255
-15.383220714159137 -6.731241279416736 26.540433573802090 79 76 28 255
-15.886715428591543 -6.047139952828729 26.257728265866120 72 76 28 255
-21.422312869693002 -1.315120468603425 22.996076259103972 155 122 93 255
-23.557303724298265 -2.903061476131370 21.549886599739551 170 128 103 255
-24.895896019515618 -3.409160050629794 20.670200782951042 176 130 106 255
-26.117856772921158 -3.765595441654114 19.873010416794074 181 135 111 255
-27.504244817720775 -4.364487818159773 18.957826517594498 183 137 113 255
-28.438746588384447 -4.339738967883704 18.364635831508167 192 146 122 255
-29.426631832358055 -4.398249034453215 17.732902187876022 194 148 124 255
-30.690133932583819 -4.858169460192812 16.903651306811071 190 144 120 255
-31.783078019099662 -5.086111131431267 16.195761062724955 187 142 113 255
-32.983618362934550 -5.479145118076730 15.410316690289164 185 140 111 255
-33.848880293962026 -5.398257307937456 14.864407852287115 185 140 111 255
-35.208172970345373 -6.043443400194292 13.964080221729759 188 143 113 255
-36.067994752289138 -5.971865003501648 13.421177214159371 190 145 114 255
-36.761100479816776 -5.661763500098459 12.997559429080880 190 144 118 255
-37.617077334744721 -5.596778871742572 12.456803091419204 190 143 123 255
-38.034131931923582 -4.886065226139635 12.231028956905817 188 143 122 255
-38.560122601457465 -4.338166065557687 11.926983832643998 182 140 118 255
-39.194260448960762 -3.954426623556401 11.545096136868068 180 138 116 255
-40.206780777539592 -4.145413569402763 10.890739134614620 179 137 115 255
-40.675676620794292 -3.520668604727859 10.627385078057387 166 125 100 255
-40.604910630807694 -2.073440728466608 10.752891687279856 152 119 91 255
-6.246637481678931 -31.060604170766737 29.946782082849097 138 138 91 255
-6.748683675842955 -30.379442921561520 29.665601433732689 168 156 114 255
-7.863723201413080 -30.397748008036530 28.958922861722840 197 169 132 255
-8.914559665725079 -30.351035994229164 28.296336530583744 204 170 135 255
-9.657318493322549 -29.957259599551662 27.847315164814461 204 166 132 255
-9.972120118072354 -29.071888529664989 27.695481113165727 197 152 120 255
-10.956206569565950 -28.964469846440636 27.078318884747205 183 137 106 255
-11.695144355803876 -28.577159993465699 26.631295407125805 185 139 109 255
-12.493214889455714 -28.263477361538094 26.142876895173089 188 143 112 255
-12.564755235609795 -27.094955784525467 26.160092346682660 185 143 111 255
-12.999444466628546 -26.354032555236074 25.924523643894247 184 147 111 255
-13.313777212701268 -25.469379011930130 25.772815453398977 173 139 102 255
-13.748578704750713 -24.728241347376382 25.537149663308696 151 126 84 255
-13.345057863349467 -22.973951007999119 25.886359750415892 119 104 58 255
-12.765945899626303 -20.995646461534562 26.358693458116107 89 90 38 255
-12.191264368304786 -19.009780647779365 26.828611067550554 71 81 26 255
-21.579322451510251 -0.738328522729489 21.859135147643997 142 115 85 255
-23.995805513227339 -2.724578349624949 20.223098432241443 157 117 91 255
-25.614754919765687 -3.628164992782047 19.149854198338119 166 122 97 255
-26.778750114961298 -3.911764100118944 18.397791915094132 170 126 101 255
-27.659081865470966 -3.806712190856729 17.846106498313588 173 129 104 255
-28.313640918585548 -3.388768949903465 17.454100301473176 175 131 106 255
-29.636424152279204 -3.925055739993525 16.588071892294380 179 135 110 255
-31.455750972382617 -5.184901598062424 15.369039337985427 180 136 109 255
-33.268455642531876 -6.456050273246547 14.153619718631205 179 135 108 255
-34.631504237211800 -7.098185021897677 13.256517496542074 176 132 103 255
-35.327077039369840 -6.784846612713523 12.833082934816417 179 135 106 255
-35.911084906579561 -6.312821974685903 12.488790361575681 182 138 109 255
-36.549273502382135 -5.922899088449640 12.105839548791806 186 142 116 255
-37.296101377917665 -5.696687476647696 11.645392362600461 188 143 122 255
-38.205499232124964 -5.716696123334174 11.068896321412012 190 143 123 255
-39.057931287532796 -5.659390813900814 10.532631678626501 189 145 124 255
-39.908252185979450 -5.605705976860065 9.997545709307076 186 141 120 255
-40.756464921322248 -5.555637257333188 9.463637965651486 181 139 117 255
-41.494188947674132 -5.345053920448549 9.008298441033730 177 131 108 255
-41.473501607016772 -3.985145856474617 9.094584595947808 158 115 91 255
-41.454938917295266 -2.621644605483652 9.179763719587839 142 105 78 255
-41.008137691092031 -0.592643368738095 9.571684816300859 120 100 68 255
-4.642910145206088 -27.202954529135553 30.095973066860722 147 128 85 255
-8.153892684480269 -29.950139355307186 27.742607411345972 170 140 102 255
-9.509949774186055 -30.258315279141300 26.872642254390058 177 141 105 255
-10.129285595520486 -29.726653143519457 26.510113121395904 188 144 111 255
-10.564978973458381 -28.984103694291946 26.274134238204255 179 134 104 255
-10.939803691462572 -28.170660257705805 26.080136885053037 171 124 94 255
-11.193501293150007 -27.214403928092025 25.969795722253849 161 116 83 255
-11.387392205699456 -26.185444915404275 25.900862814877797 150 115 78 255
-11.703049341585967 -25.298183245146902 25.747886233110336 156 136 94 255
-12.139677413535509 -24.553975074279862 25.511297901709781 132 126 78 255
-22.358309570098641 -1.023110799904885 20.287192890895739 148 111 88 255
-25.393239606760972 -3.883082061961318 18.227692268371300 159 121 98 255
-26.727265780743807 -4.403341453611233 17.360495068672776 164 126 103 255
-27.551606169528668 -4.220698442402977 16.850685675344408 167 126 104 255
-27.869828306715476 -3.329073229199253 16.696332363329589 162 121 99 255
-29.138758331711756 -3.785697790984671 15.873491591369145 168 126 104 255
-31.017090726316468 -5.124544766557619 14.621230267145322 166 124 100 255
-33.389211102253967 -7.193417904156377 13.020237555250162 161 120 95 255
-34.420105856131642 -7.357296486640791 12.362534257019348 152 114 86 255
-35.337346269079973 -7.365654844881249 11.784484473007169 149 110 79 255
-35.644615765383577 -6.492793289718350 11.636215821135437 161 118 89 255
-36.338119524446228 -6.184026091586247 11.215542597617087 181 137 111 255
-37.085264951194091 -5.958476210197716 10.756812173439954 186 140 117 255
-38.434045453341867 -6.628390306553513 9.872874082879932 190 143 120 255
-39.668921970469540 -7.143213036905308 9.068730042924059 193 145 125 255
-40.354091769330921 -6.848731694009331 8.652699916918294 191 145 124 255
-40.983501588760902 -6.474685818088830 8.275941127155107 189 144 124 255
-41.448928912533489 -5.856282244958919 8.015140858372447 184 137 119 255
-41.859922160065793 -5.156056728486249 7.792897433921951 169 123 104 255
-41.892599835308857 -3.878289209384150 7.838845252019127 147 108 85 255
-41.711481306530260 -2.266448104125061 8.036775376958644 118 90 63 255
-3.812381485507728 -26.733969180792144 29.569435968574197 146 117 77 255
-6.347250704877098 -28.357591015096745 27.899912161785267 158 126 87 255
-8.934316282055562 -30.067051944004902 26.193362894868073 161 127 90 255
-9.432088873129914 -29.393562584415321 25.915106761900461 159 125 88 255
-9.929516067458252 -28.720646956506869 25.637014266260564 159 121 87 255
-9.695693965956053 -27.196203453415649 25.859682354700425 155 119 85 255
-9.829367598514835 -26.094314264066327 25.830924169140218 150 121 82 255
-9.721715223602104 -24.704443362252050 25.967760410027211 129 120 73 255
-28.366481051483078 -9.882574797127006 15.018595815793361 197 161 138 255
-30.005326908098851 -9.536828498179091 14.008665802858815 144 108 84 255
-30.315427866511669 -8.658666323240283 13.858117809712198 156 120 96 255
-30.120716164798580 -7.067524939748864 14.059536668607180 168 132 108 255
-30.320975362696998 -6.026960330960094 13.985973592029282 161 125 101 255
-31.584013736569858 -6.496619858720408 13.171024579011473 145 109 83 255
-33.066066488632543 -7.292292249336697 12.202574259885381 122 87 61 255
-33.986907072385293 -7.296294288423553 11.625368490389818 135 102 72 255
-34.960839091679020 -7.384645121696678 11.010707700530304 156 120 87 255
-35.710701615718364 -7.155631071935318 10.552337301885018 171 131 101 255
-36.403745963687555 -6.848654513540907 10.133495069411680 178 135 108 255
-37.425997977737524 -7.029523571301581 9.484022422561580 182 138 113 255
-38.775084893346303 -7.702282138946487 8.605204500463302 185 140 117 255
-39.900377746764718 -8.057209157761633 7.882532112976037 190 145 124 255
-40.584688586878713 -7.765196405390327 7.468544676083525 191 146 125 255
-41.103996188231065 -7.229973680896023 7.170139221488085 190 143 125 255
-41.568350748258950 -6.613615019956001 6.910260081138802 183 136 118 255
-41.869555838417341 -5.750889682279421 6.764963070107072 171 125 107 255
-42.225465376099038 -4.969772549188406 6.581350681900759 143 105 82 255
-42.041315443695197 -3.360951970183123 6.777553371064343 119 90 64 255
-41.644479653556800 -1.415380450791758 7.123904438833179 89 73 44 255
-5.817927911857993 -29.479188418967937 27.115165349225919 129 116 66 255
-9.170708682229190 -28.315725030246824 25.080933946787468 125 125 73 255
-8.753316727174479 -26.576966539920363 25.424925336896251 118 125 70 255
-31.902611561362420 -15.299005319974128 11.528997497101486 136 96 75 255
-33.451296666123341 -16.159819576709253 10.521835766309522 110 74 50 255
-33.807563289435251 -15.377614057372909 10.337276616307008 112 76 53 255
-33.825681559961652 -14.121649122631823 10.386382535542850 128 92 68 255
-33.226707504536961 -11.992265828107975 10.862319508419091 170 136 112 255
-32.744722788824390 -10.013536445283734 11.258080260764359 168 135 111 255
-32.602939263987707 -8.505093151973085 11.419103836719160 157 126 100 255
-33.134193886182658 -7.949759281477043 11.114620339897968 141 110 84 255
-33.720635402827185 -7.475398634930627 10.771854171523913 137 106 77 255
-34.751101998798390 -7.644404070418631 10.121286844393765 149 115 82 255
-35.667703401599596 -7.657461098895226 9.549250700458998 164 125 94 255
-36.692596488809187 -7.835999248062478 8.901755178516922 172 130 103 255
-37.604157980965454 -7.857681086390755 8.332504195568063 176 134 109 255
-38.623488930955631 -8.045735255720160 7.688078538613425 181 138 114 255
-39.584966565054089 -8.157395507962974 7.083434595042945 187 142 120 255
-40.379364484925475 -8.028792373486453 6.594567241822617 189 143 122 255
-40.898512125148159 -7.494257538581451 6.296900449296118 189 142 123 255
-41.253489466467698 -6.714503849926245 6.113439217716618 181 136 116 255
-41.608737443856313 -5.934312798831400 5.929868901081790 168 122 102 255
-42.072828603751304 -5.318669282709664 5.670550443060492 142 103 79 255
-42.265905176501605 -4.289881249908490 5.600147918570144 118 86 61 255
-41.919846636614380 -2.429849653601366 5.905974932825231 92 72 45 255
-41.685281093048104 -0.729854723373137 6.134626773791652 47 44 15 255
-30.109592980675558 -17.209940427763456 11.552122251607813 208 180 156 255
-31.783463089126286 -18.211762135862983 10.467130466289802 208 174 153 255
-32.995128284617834 -18.599650326230119 9.697350748567018 184 144 126 255
-33.918496544688026 -18.602843233329622 9.124269457696244 154 115 95 255
-34.669110779863360 -18.374841097799049 8.669092298175173 141 105 83 255
-35.134866631728272 -17.756284824136316 8.408753460590944 139 103 81 255
-35.487293841796514 -16.980466071914122 8.226027730755149 171 136 114 255
-35.163351380278556 -15.254880249872883 8.506946386689620 181 146 124 255
-34.617806541431520 -13.206145787601656 8.940339871992819 174 142 119 255
-33.964484503707354 -10.990690834541340 9.448344854560034 164 132 107 255
-34.043991713378233 -9.804014410675791 9.454058895537287 151 121 95 255
-34.292627215630745 -8.854736616210914 9.343870676626437 143 114 85 255
-34.876375951291521 -8.385598367772047 9.003557024167733 139 107 75 255
-35.959639157319742 -8.642039099008969 8.319751615514718 152 115 83 255
-36.873341662934791 -8.661850303859552 7.752133150545234 166 127 98 255
-37.895311848602404 -8.847576919727487 7.109685964669069 169 127 102 255
-38.362413958677593 -8.226890074118444 6.848875231907343 176 134 109 255
-39.104563936227976 -8.013504966061276 6.398583053181824 184 139 116 255
-39.954990193543779 -7.966022697803311 5.873460769854688 185 138 118 255
-40.638905653722105 -7.676717780370268 5.462881100220045 184 136 116 255
-41.157501077645293 -7.143562258212683 5.166201385782529 174 129 108 255
-41.457431615735857 -6.282264457599581 5.020425461791660 160 114 93 255
-42.029917381050012 -5.832519059718152 4.686522032767158 133 91 69 255
-42.167449567987290 -4.722419774167065 4.653108424315548 109 74 51 255
-41.819059413573910 -2.863627730792416 4.955905237359246 87 64 38 255
-41.474383700808431 -0.998535275985319 5.256737487803591 61 53 26 255
-28.094893254073128 -17.567855848459544 11.778959798600098 206 175 154 255
-29.779150877218029 -18.556324563411010 10.695172607935604 210 178 157 255
-31.285266941211290 -19.322186262348907 9.731275008710014 216 181 161 255
-32.557138288956111 -19.785651663159172 8.925452995351691 219 184 164 255
-33.710678481947383 -20.099983073641624 8.199329782590468 215 178 159 255
-34.347467138550172 -19.716363331234561 7.823287755129513 211 174 155 255
-34.755566182113313 -19.020882089999645 7.602316228544126 202 165 146 255
-35.277162388769199 -18.482790345241199 7.304290709894190 203 166 147 255
-35.741561790082557 -17.866783023811053 7.045058923339454 197 160 141 255
-35.584137141843428 -16.381090586029131 7.208420751414693 184 149 129 255
-35.429323468544112 -14.890960802794723 7.370388093335094 180 145 125 255
-35.164645766193274 -13.237272924835906 7.607478290042891 169 134 110 255
-35.464176207460042 -12.376083205671080 7.461018125344452 157 124 100 255
-35.316415902328941 -10.873975172008386 7.619232382700872 147 116 87 255
-35.506330213684777 -9.848822117041095 7.547787894009417 140 108 76 255
-36.254387691565853 -9.626504424383199 7.096079039545288 145 109 79 255
-37.000846092958398 -9.406928310324759 6.645261837810551 161 122 95 255
-37.579368563887328 -8.947364069611581 6.308825963822017 163 124 95 255
-37.880516605975942 -8.083516979618111 6.161645900408502 169 126 101 255
-38.623646225056973 -7.869668000642719 5.712716272884904 177 132 109 255
-39.585390427504620 -7.984876898467149 5.114213097165120 178 132 109 255
-40.214982163240762 -7.613757658485895 4.742437765601167 176 128 108 255
-40.788733220307591 -7.162422927046407 4.408739444003928 165 120 101 255
-41.088423857204219 -6.301163259498708 4.262511363289462 148 102 82 255
-41.497695690952554 -5.603979092818577 4.041369160866481 126 84 63 255
-41.635025038267941 -4.493263805810443 4.006555424028363 105 68 48 255
-41.610912385319352 -3.131504639472155 4.082624337876325 83 57 35 255
-41.480675773141940 -1.599830349297463 4.231817346231054 50 38 15 255
-18.917422105846214 -15.025601388260554 16.520303537580304 183 155 133 255
-22.748009078084550 -18.682154302240463 14.011237566042340 185 157 135 255
-26.882191983179439 -19.011697206619317 11.457657195795306 200 168 145 255
-27.879689506533794 -19.067725362205692 10.842542500631509 207 171 149 255
-29.279165523397239 -19.667890292553608 9.957290838667092 212 176 157 255
-30.501064715476531 -20.043893723480380 9.190693367844887 215 180 160 255
-31.719217166133745 -20.426288204731208 8.426133835438762 217 184 163 255
-32.761383301383574 -20.581811922130839 7.779369293643327 219 186 165 255
-33.857882120848132 -20.820346737608133 7.095698625333483 217 182 162 255
-34.436821550560722 -20.360534758039989 6.759763701464351 217 181 161 255
-34.843876514407924 -19.666863820847169 6.539406160398713 211 174 155 255
-35.307780445195732 -19.051917937389135 6.280783463196542 205 168 149 255
-35.828139279555472 -18.516369358477505 5.984110063569304 201 163 144 255
-35.894964788476301 -17.348961955103420 5.993011847744171 192 154 135 255
-35.906854884332489 -16.099589763746792 6.039176169503392 185 144 126 255
-35.864207734767774 -14.767575135402296 6.122388859204932 174 134 114 255
-35.992323612576854 -13.671352503192622 6.090665750360301 163 126 103 255
-35.729081538833157 -12.012913815003969 6.323360694366940 149 115 88 255
-35.748794024600357 -10.750267104955668 6.365377980058938 143 109 77 255
-36.216972030180870 -10.128141138054275 6.104603971136342 143 106 77 255
-36.740567596004354 -9.587186262220428 5.806350285931842 151 113 85 255
-37.430318534474054 -9.289878338641415 5.395659776414931 155 116 87 255
-37.841571231775276 -8.589218200890912 5.173287695523356 162 120 95 255
-38.418720880449314 -8.132646803874081 4.838620895326684 170 125 102 255
-39.215752136891183 -8.003760732269569 4.354929727740711 170 124 101 255
-39.845820753823517 -7.632640511730472 3.984170682645924 168 120 99 255
-40.529740104621595 -7.345365222513209 3.576786088928017 163 117 98 255
-40.828927818152920 -6.484592625385289 3.430249361257779 143 97 79 255
-41.128650416201396 -5.622931581159435 3.283459284516681 119 76 57 255
-41.319891619691475 -4.594975238479208 3.210445318368542 100 62 43 255
-41.457824309610146 -3.482296072238569 3.173835781266092 79 51 33 255
-41.434356323680305 -2.117913284726740 3.247161217185663 31 15 1 255
-43.907695176314803 -1.942902160116830 1.737522452213170 9 18 0 255
-43.940289475334822 -0.658685695507415 1.773166660234651 12 21 0 255
28.951721551853240 -0.852391558563625 45.313332266790525 156 134 102 255
26.623659845298988 -1.983332098932465 43.844881286046132 153 128 96 255
25.745515524892795 -1.541897928203525 43.326781357206357 138 116 83 255
24.681357873439083 -1.310825140292536 42.686365678610031 132 115 80 255
23.494817358689488 -1.222757377185644 41.965275670332971 127 115 78 255
22.435897568652109 -1.000569719389830 41.327631394310856 107 109 67 255
21.628138175229793 -0.503209099497326 40.854702977704306 87 92 48 255
-18.136071716306930 -23.449180196989573 15.617548857676880 189 158 135 255
-19.039503416765086 -23.315932314527060 15.070895331334910 185 153 130 255
-19.940747581500005 -23.186408488890663 14.525420100910452 183 151 128 255
-20.661652982788070 -22.836830617159421 14.099153367841154 185 153 132 255
-21.381168181536083 -22.489619366662936 13.673635364981948 186 154 133 255
-22.040175079360296 -22.069729777978779 13.288066364785522 188 156 135 255
-23.169957712211129 -22.253900491724750 12.590076143620536 188 156 135 255
-23.884517727560848 -21.915130191110620 12.167235455085503 188 156 135 255
-24.773862093527470 -21.805876581750766 11.628188815168230 189 156 135 255
-25.485259388347316 -21.472497110848309 11.207062091153091 191 156 136 255
-26.253734560834545 -21.217641674631352 10.747843158826683 194 159 139 255
-27.137218758126380 -21.118379347027656 10.211976504361928 197 162 142 255
-28.542277434137446 -21.712404595033348 9.329000053928183 202 167 147 255
-29.013802615701650 -21.084646392974633 9.066526733963784 209 174 154 255
-30.006377682657899 -21.151071077880545 8.457229709736353 212 179 160 255
-30.591679093410079 -20.681013769110251 8.118786951547065 217 184 165 255
-31.637461809971427 -20.832566831674171 7.473506991421061 219 186 167 255
-32.507693081106282 -20.755916838175324 6.944858315174486 222 189 170 255
-33.490569039629833 -20.838893732109000 6.340849160535697 217 184 165 255
-34.241686107110979 -20.613663122327353 5.891096860161127 214 179 161 255
-34.819768388919641 -20.155942835464145 5.556616713295639 211 174 156 255
-35.111997266560081 -19.306410156099162 5.412875558793445 206 167 150 255
-35.461591811531008 -18.534919323417313 5.230899340726012 202 160 144 255
-35.697936062772584 -17.604851260313751 5.124639125659328 193 152 134 255
-36.048258776786440 -16.832141464533208 4.942303141432049 184 141 124 255
-36.229387112037870 -15.820401573884169 4.873166760452619 172 133 112 255
-36.411545168985953 -14.806919917133058 4.803493362276072 164 126 104 255
-36.482310135281580 -13.631699600408552 4.808536025086624 151 114 88 255
-36.386395830379996 -12.213166171118701 4.925421505547689 144 108 81 255
-36.292838243387450 -10.790632493746443 5.041056127134510 142 107 77 255
-36.480722572862959 -9.767453253383508 4.968378106845094 145 107 79 255
-36.892386965898794 -9.066101608549673 4.745798970913143 151 109 84 255
-37.581802877213022 -8.770393403753275 4.336905159959684 154 112 88 255
-38.103628509825882 -8.232928222647757 4.040353097922292 162 117 94 255
-38.846074932425068 -8.022675204764539 3.595611409575895 163 117 94 255
-39.255994774061179 -7.324370107296488 3.374092273003839 161 113 93 255
-39.941038010388979 -7.036188619980578 2.967683586657387 153 104 87 255
-40.295408283683429 -6.256798916055942 2.783498168087604 133 85 69 255
-40.704809302790125 -5.559441606222947 2.562359834430438 113 66 50 255
-40.841075830306437 -4.448616341722243 2.525105001474842 94 54 36 255
-41.087668108177752 -3.501385348629697 2.413769585403358 58 30 14 255
-41.226338480534110 -2.386514105203219 2.375292675227627 24 6 0 255
-44.942490878033567 -4.141314661848128 0.034494159281650 10 14 0 255
-44.217097628094621 -1.686404239895751 0.579116234316814 9 18 0 255
31.940068954513890 -2.377140894917318 45.860568739545556 158 129 99 255
30.101337875875203 -2.939889515479479 44.721254430690550 163 127 100 255
27.509662962068631 -4.331362880725919 43.091679248210937 164 125 103 255
24.926861831257895 -5.737930235319141 41.466863870848329 162 121 100 255
24.996951382327438 -4.273819698328055 41.567306325509463 166 124 104 255
23.996802716152587 -3.977670384400597 40.971303805798470 163 122 101 255
23.312309131274304 -3.339475247067980 40.580573184546779 160 123 102 255
22.190828382766000 -3.188496247475541 39.905053389886859 156 122 98 255
21.384204226247590 -2.694112526501328 39.434376099408951 153 122 95 255
20.703578126623256 -2.062450996995210 39.045649541560806 152 123 95 255
19.713064979118798 -1.782624938817548 38.454711128046313 145 120 91 255
19.344994900013091 -0.803624312082661 38.269559807690882 143 120 91 255
14.240324363817791 -1.080692788088356 35.156062120872463 116 111 68 255
12.229258927754444 -0.645636214736726 33.950721331967060 102 105 59 255
11.013414927129332 -0.685648506623238 33.210068347222460 88 94 47 255
9.496037494506851 -1.091735643450818 32.271731670434036 94 101 54 255
-16.590482550360662 -27.032304260860798 15.395818748607894 193 167 141 255
-17.317332749819656 -26.673646264981102 14.967983290351157 208 178 156 255
-18.223281492174777 -26.537737604557464 14.422524227705424 208 176 155 255
-18.826873065683088 -26.037140735011008 14.075167916475323 203 171 150 255
-20.088505907937900 -26.351014911408726 13.295824761855840 194 162 141 255
-20.808446768663970 -26.004109287773559 12.871695138576428 188 156 135 255
-21.646266441254824 -25.808294225633006 12.369973324938528 192 160 139 255
-21.946634116228267 -24.944475453069828 12.221172155599533 195 162 141 255
-22.366206984010518 -24.229488271225335 11.994062873563237 196 163 142 255
-22.963430816965285 -23.739721692021817 11.650120566590672 197 163 143 255
-24.091754603514147 -23.928778879596052 10.956689052640485 195 162 142 255
-25.039918104488578 -23.896889141431814 10.381445034767722 195 162 142 255
-26.103323152221066 -24.020587994030649 9.730042481803849 196 161 141 255
-26.106986002496598 -22.782449443075222 9.776285304391436 197 161 141 255
-26.932525299478158 -22.607554139278676 9.281199664203058 198 162 143 255
-27.756156830325921 -22.435911888798614 8.787149908185810 201 165 146 255
-28.869447188190293 -22.650593783830089 8.101865982417877 205 169 150 255
-29.572246500242471 -22.332896087257723 7.687010611144387 211 175 156 255
-30.331721225672283 -22.094607619677845 7.234593902975831 215 182 163 255
-30.857894702638106 -21.549949258965114 6.936027415829855 220 186 167 255
-31.730197480792839 -21.471372046806835 6.408774061404358 221 188 169 255
-32.312079428786575 -21.007777988675485 6.073181128792001 222 188 169 255
-33.180724902348288 -20.935445701587071 5.547927166222522 216 183 164 255
-33.817662887896830 -20.554030338911502 5.175665011246323 213 177 159 255
-34.625271752546411 -20.409739892213167 4.690363234174242 211 172 155 255
-34.859755621980213 -19.482263159064473 4.584201048437762 205 166 149 255
-35.151987730304654 -18.632372965546892 4.439905447046385 199 158 140 255
-35.501573949371760 -17.860741599665630 4.257690803849755 191 148 131 255
-35.964847931343172 -17.247357152648618 4.000175234349967 181 137 120 255
-36.031659099247321 -16.077697405805225 4.005509946911431 173 129 110 255
-36.156491024114985 -14.985162861734636 3.972568532738606 161 118 97 255
-36.338949878904174 -13.970425314310518 3.901565232494320 153 112 87 255
-36.466242784968728 -12.873724836608858 3.867335345447557 149 108 83 255
-36.370565376628946 -11.453061563048891 3.981382319598751 145 105 76 255
-36.333182004202200 -10.109061189896806 4.057010563937752 141 102 74 255
-36.911735259427502 -9.651298601698159 3.723469215511074 141 101 75 255
-37.600827641823940 -9.357153306956263 3.316338849916150 147 105 81 255
-37.955352898955795 -8.577249930771075 3.131677689205418 151 106 83 255
-38.420950797342471 -7.960056425681330 2.873141443732294 150 105 82 255
-38.665178214415988 -7.016179473428224 2.762024880062796 147 100 80 255
-39.296202602023868 -6.645076611928602 2.393333029340795 136 89 71 255
-39.706126378628511 -5.946832125305548 2.171917457988059 121 74 57 255
-40.335574343526361 -5.578456777525844 1.804143527202228 101 55 39 255
-40.635488136625128 -4.715754583326259 1.656126788851509 79 40 22 255
-40.935941336783628 -3.852156762528352 1.507855081348026 56 27 12 255
-40.801066877416105 -2.322550594996187 1.650396565335541 24 6 0 255
-41.158016534941538 -1.538712122221000 1.464731299158956 7 1 0 255
-41.569471461623152 -0.838001163182867 1.242711048467953 3 4 0 255
-43.062706918984162 -1.813532343161910 0.297321003391204 7 6 0 255
-43.795309364145140 -1.621506744287842 -0.139811724180461 5 9 0 255
-44.418711805652634 -1.263627581728542 -0.504008517233359 11 16 0 255
-44.987401605761050 -0.823028057186093 -0.831653648856559 9 13 0 255
38.018350871961076 -0.703727378941835 48.385320970531041 122 121 80 255
34.307105205866463 -1.780160121286258 46.101760363684321 126 97 69 255
29.915833273387364 -5.044714871634199 43.324274479745100 146 110 86 255
27.825861133848292 -5.888239431391554 42.029213856368671 153 112 92 255
26.629371683575016 -5.787740601239562 41.309839906315887 155 112 95 255
25.372696947703844 -5.760840986055427 40.551273422005806 157 112 95 255
24.182379893632657 -5.670814694318835 39.835168691650381 154 110 93 255
23.435656507781601 -5.103406587831103 39.405193741369374 152 109 92 255
21.496769796859411 -5.851907457263394 38.204883187536240 155 116 98 255
20.629538484997198 -5.431468836226486 37.696456858774297 156 118 99 255
20.076696871650597 -4.665844144335153 37.391072599971864 157 120 97 255
17.975691964802252 -4.257353161726996 36.136196074596143 151 117 92 255
17.488191233908509 -3.426840832860933 35.872678834377496 146 114 89 255
17.620872800919216 -1.891330905738869 36.010631047353854 147 115 90 255
-13.106548944898719 -25.817423905043768 16.531118280723462 193 164 134 255
-15.236095619946212 -27.121679614137264 15.194303973745448 205 171 146 255
-16.813195703610830 -27.781703223186440 14.215731190236113 210 176 154 255
-18.264350890099223 -28.303975756057781 13.318479510375965 213 180 161 255
-19.228649540472674 -28.246429565505366 12.737389506113445 215 180 161 255
-19.949882271456545 -27.898354145865227 12.314180444614010 210 175 156 255
-20.909798886275667 -27.848264223012137 11.735444971302044 202 167 148 255
-21.567824613797882 -27.431707169446611 11.353014321211418 198 163 144 255
-22.284477295107962 -27.091422991478936 10.932263112774478 197 162 143 255
-22.582379956180404 -26.231447038749081 10.784234479780110 199 164 145 255
-23.118706687654651 -25.669901790457800 10.480823937171522 199 164 145 255
-23.535722797762645 -24.959306056428829 10.255152794234277 199 164 145 255
-24.663382045498906 -25.151896616888848 9.565850769880299 200 165 146 255
-25.610523201711686 -25.123558536815807 8.994001272538853 200 165 146 255
-26.614182909597872 -25.175089828193848 8.384978123905839 202 166 147 255
-27.085678707119797 -24.547836479021811 8.123234771077705 203 166 148 255
-27.909030824869234 -24.378082986487271 7.631554240769816 203 166 148 255
-28.613346432111427 -24.058815721258611 7.217470736699610 205 168 150 255
-29.199420674522202 -23.588680394735633 6.880554965449946 208 171 153 255
-29.609748656995606 -22.889489047353607 6.658515415701743 213 176 158 255
-30.252695626009825 -22.498626613503035 6.284245375642570 217 182 163 255
-30.836499633566490 -22.032371335651760 5.948576319193151 220 185 166 255
-31.477365813458590 -21.645064202835499 5.575447440615477 221 186 167 255
-32.059357162989471 -21.181908637634876 5.240776497103056 221 186 167 255
-32.813428628221288 -20.954065757773890 4.793228289504952 216 181 162 255
-33.508365120320605 -20.650818996977762 4.384280785931509 215 177 160 255
-34.144565084688139 -20.271490084991115 4.013719434127125 210 168 152 255
-34.550698285604398 -19.579495831704776 3.794027143600616 204 163 146 255
-34.728351683180364 -18.572132964401305 3.724346546228290 198 155 138 255
-35.077963375805325 -17.800293712003679 3.541859864213123 190 144 128 255
-35.655193743295939 -17.345310064883080 3.209858312704455 178 133 114 255
-35.948028371064339 -16.494064043198847 3.064719870930901 171 124 106 255
-36.071615310409669 -15.402698026633857 3.030955971186984 163 117 96 255
-36.140046292655029 -14.229154171242101 3.033649376654367 155 110 87 255
-36.153719628740333 -12.972754665091770 3.072585967718624 151 106 82 255
-36.225406952035428 -11.793690781757107 3.073562369078758 143 101 76 255
-36.242605385326698 -10.531315004714827 3.110639213830666 136 95 67 255
-36.764939985789596 -9.993792063386593 2.815082770826933 131 91 65 255
-37.342524326996880 -9.538316196154767 2.483063871586623 139 97 73 255
-37.696671760319049 -8.758888203218930 2.298342718432806 142 100 76 255
-37.995548986594144 -7.897482445409025 2.150149163702125 142 97 74 255
-38.239554784931300 -6.953420413418883 2.038268992046000 138 93 72 255
-38.705401759628472 -6.336065411860204 1.780010790017698 126 81 62 255
-39.115855276987901 -5.636944886070921 1.558350373078468 110 65 47 255
-39.636310695825188 -5.102753923100408 1.264014745531369 96 51 35 255
-39.936778357234260 -4.238740202175109 1.115120887636962 91 53 34 255
-40.073580064134745 -3.125109167286951 1.074602895824654 67 38 22 255
-39.884098479631291 -1.510435985010361 1.250236708207339 18 1 0 255
-42.393860423450775 -2.696074790568105 -0.310937964447305 2 3 0 255
-43.615533837618472 -3.257423764226473 -1.070209836189008 3 2 0 255
-44.130301445787126 -2.733086948696325 -1.361212926047003 5 5 0 255
37.328309384444566 -1.935749396560482 46.694782491642258 135 113 83 255
