ply
format ascii 1.0
element vertex 642
property float x
property float y
property float z
property uchar red
property uchar green
property uchar blue
property uchar alpha
end_header
-13.977220088350180 -22.786405849519269 -13.840866441152201 213 178 172 255
-14.768252726658204 -22.532368038592722 -14.250656322879450 222 185 177 255
-15.433336802947537 -22.128756822861192 -14.597695468437863 227 190 182 255
-16.407365150762587 -22.109162369427111 -15.098429992461675 226 189 181 255
-16.883895009136950 -21.480564814061097 -15.351539526674230 220 182 173 255
-17.668842453089098 -21.236880111951109 -15.758061589932225 217 175 164 255
-18.144057392351925 -20.610521223401776 -16.010462618145198 217 175 163 255
-18.741916434293955 -20.139357972470577 -16.323839604632184 220 176 163 255
-19.093515973203949 -19.359459614200716 -16.514737360677259 219 175 162 255
-19.690201605559679 -18.890295246835791 -16.827480301799994 219 173 158 255
-20.408212634679131 -18.578569834812271 -17.200491475010807 216 170 155 255
-20.941982669747119 -18.034522375977133 -17.481885140082227 208 166 148 255
-21.596817067772662 -17.648358137412913 -17.823406619924796 202 159 140 255
-22.250543388335899 -17.264080766787686 -18.164330492160076 197 152 133 255
-23.084837722875562 -17.118376780861837 -18.594895868537009 194 148 129 255
-23.554679604815561 -16.501173945900462 -18.844388664066159 188 141 121 255
-23.783038434544380 -15.567113484950255 -18.973961042208757 178 127 110 255
-24.012148204509884 -14.631778744448468 -19.103931438867946 171 120 103 255
-24.542156632352345 -14.094147000997964 -19.383280166932508 164 111 93 255
-25.011700922354208 -13.477462190644076 -19.632594760599019 164 110 93 255
-25.361414952846332 -12.700800741813339 -19.822434474885924 162 107 87 255
-25.651726537837959 -11.843280890139681 -19.982808648439260 161 105 86 255
-26.061535792197077 -11.146310420688934 -20.202468281594321 164 107 87 255
-26.768157103282618 -10.853993989404557 -20.569314427467617 169 110 92 255
-26.999540006667047 -9.914818090894585 -20.700464289165822 167 108 90 255
-27.645419342610893 -9.543926108255391 -21.037119540014743 154 99 79 255
-28.113303319042416 -8.930092152876625 -21.285501603957528 131 78 60 255
-28.698582798148408 -8.480383555783135 -21.592041130601700 110 59 38 255
-28.578559313028876 -7.047536348484613 -21.549087245253304 89 38 17 255
-28.753777121379215 -6.022015602007315 -21.652476373408845 91 44 24 255
-29.397587928675648 -5.654665113633030 -21.987985973136247 90 43 23 255
-29.807086813729228 -4.958263502805778 -22.207414859850360 80 33 18 255
-30.100220449815112 -4.095994426781431 -22.369222700684475 61 23 11 255
-30.451926040661050 -3.316005293516810 -22.560036634139905 33 14 1 255
-32.251774164462432 -4.620355967995124 -23.467556789370818 14 8 0 255
-33.929717925728227 -5.768259314760598 -24.314487441344824 10 8 0 255
-34.737090175104186 -5.668435401066120 -24.730476176341568 5 4 0 255
-34.047130614893803 -3.386053557600235 -24.405751731938892 13 8 0 255
-35.715060147313096 -4.551005193938124 -25.247288179111706 37 25 12 255
-36.919154413706451 -5.049706992085191 -25.859235499158018 34 18 8 255
-37.319851685503551 -4.368327533856757 -26.073863338821056 14 0 0 255
-38.632417094913620 -5.046339704814443 -26.739173343188099 38 25 14 255
-39.542770810037581 -5.135187523753075 -27.205543079648891 44 31 18 255
-40.734404764455974 -5.655105416056074 -27.810772986862659 11 0 0 255
-40.847083382654944 -4.554149791449049 -27.882875833164888 10 2 0 255
-40.961118220583700 -3.450895558901948 -27.955693151067877 13 8 0 255
-40.175237965669965 -0.967939208333746 -27.584206482753160 7 7 0 255
22.889994680338560 -25.688163501953227 4.070849307216662 188 153 133 255
20.951506091776821 -26.397290393420406 3.091075287656878 189 153 133 255
20.022718974031591 -26.092344841136338 2.612160208077981 198 157 137 255
19.630149309506066 -25.242664721799969 2.399140426397153 205 162 143 255
18.170993198117770 -25.492389067290929 1.657447175383993 207 169 148 255
16.848952696717504 -25.611133315449877 0.983864231452671 212 176 154 255
14.999390353676603 -26.289393201871832 0.049034752019864 215 177 156 255
14.281765912189599 -25.797300970777485 -0.324791792421280 210 174 152 255
12.837999976204571 -26.073185508944221 -1.058258094377166 208 172 150 255
12.058154942675145 -25.657353036796849 -1.462755750184670 213 177 155 255
10.489512333194000 -26.085022603017734 -2.257788034488101 216 180 158 255
8.531171534942388 -26.942436003719735 -3.245570577539837 216 180 158 255
6.972545601074643 -27.387135305070245 -4.035243012084663 218 181 159 255
6.531208237377172 -26.636570060258919 -4.271761526139457 216 175 155 255
5.828678620767533 -26.170130430179626 -4.637527726278435 207 165 143 255
5.518410923373722 -25.278302163992606 -4.809177327017949 197 155 133 255
4.231901637013380 -25.457443496109136 -5.463764892573565 201 159 137 255
3.143691588524916 -25.427577218574697 -6.020133402298086 210 165 142 255
1.928648529963709 -25.546172948174700 -6.639109970710436 211 169 147 255
1.428071600683410 -24.876931402832781 -6.904711092109522 214 173 151 255
0.992362943553900 -24.135925400084176 -7.138233958894801 218 177 157 255
-0.795419386348385 -24.919218066481648 -8.040008223261950 218 180 159 255
-2.384775746273760 -25.493719340483750 -8.843494432721641 218 181 162 255
-3.841026003219042 -25.930424238977480 -9.581015104018206 218 181 162 255
-4.909008981668620 -25.934948023904894 -10.126558304404057 218 178 158 255
-5.910401689353449 -25.870636592908028 -10.639099300545766 218 177 157 255
-6.781879169599193 -25.663102453935153 -11.087384374509753 220 179 159 255
-7.397055492060673 -25.163121532240240 -11.409047790136952 223 182 164 255
-8.328655218803704 -25.035420657534360 -11.886871702319610 226 186 168 255
-9.131404800228154 -24.762686063904056 -12.301009961528095 227 188 174 255
-10.185263706922598 -24.791227070222931 -12.838988653553727 227 189 176 255
-11.047214002500567 -24.599893765942738 -13.282170616333289 225 187 176 255
-12.096021640583871 -24.637025298014066 -13.817442219477044 223 185 176 255
-12.639739446292566 -24.076488150346478 -14.103494860139762 219 180 173 255
-13.120193965475352 -23.441458701181375 -14.358326721909719 217 178 171 255
-13.412722157278580 -22.579782735448219 -14.520495528119355 222 184 176 255
-14.142501349179526 -22.249065167403330 -14.898209532013283 224 185 178 255
-14.995420939615173 -22.073092108117038 -15.336548559798857 226 187 180 255
-16.094954458507829 -22.206041038225550 -15.896316925695430 226 185 179 255
-16.633501510335833 -21.654301011259378 -16.179593119430848 219 179 171 255
-17.233324979173119 -21.180433561016486 -16.493023286885290 215 176 164 255
-17.523612164319218 -20.322573636413637 -16.653983495322393 218 179 166 255
-18.368803122313722 -20.159749630768943 -17.088172372765584 221 182 167 255
-18.781782836706697 -19.457397941373131 -17.309514363172056 220 180 165 255
-19.685418296534294 -19.377264649719365 -17.772336398384624 223 182 166 255
-20.158434213729663 -18.754896943880226 -18.023164225137080 219 176 160 255
-20.508983210710028 -17.976641751583259 -18.213724216042877 215 175 158 255
-20.981629218462189 -17.354906870644754 -18.464347940069615 213 170 154 255
-21.818819556872967 -17.205699767003892 -18.894232599024178 205 162 146 255
-22.836142538016446 -17.296396340032771 -19.412599265884438 196 154 137 255
-23.608592747659685 -17.075212810999631 -19.810464985266364 191 146 130 255
-23.956520007596339 -16.301427347738013 -19.999602613688523 186 138 120 255
-24.364950077272397 -15.606831739847735 -20.218477062443611 178 129 112 255
-24.713190923557391 -14.832518358796364 -20.407774288779990 169 120 103 255
-25.121674084096867 -14.137838131618253 -20.626668286585385 165 114 97 255
-25.350467905368333 -13.202505631516573 -20.757309507109539 161 109 93 255
-25.520268295170780 -12.185422202635948 -20.859013590529031 160 109 92 255
-25.929573590569163 -11.489353435981684 -21.078333055879725 166 112 96 255
-26.338848904743031 -10.793339152822114 -21.297630965371837 174 120 103 255
-26.688740895163107 -10.016237453606692 -21.487782101441340 174 121 100 255
-27.275765942246551 -9.564184433924225 -21.794277033362306 170 114 97 255
-27.980158138285958 -9.276697436288401 -22.158298046802742 158 102 85 255
-28.683208765829818 -8.991495952979932 -22.521593876565390 140 86 71 255
-28.796648899513002 -7.888206998619950 -22.595735012470669 117 66 49 255
-28.970090039412099 -6.864963105500919 -22.699341206504499 103 55 37 255
-29.495953167751679 -6.334864840464661 -22.975708898114178 98 53 34 255
-30.021278101557783 -5.805686484944772 -23.251780905388856 92 49 33 255
-30.312872709688094 -4.945681579034897 -23.413318521047373 65 26 10 255
-30.604991594704018 -4.084790143867167 -23.575129114806288 38 9 0 255
-31.652086642805614 -4.307008803386907 -24.106654224200540 26 5 0 255
-34.028033309532759 -6.457186851673612 -25.288613012903170 8 1 0 255
-33.275403798243843 -4.095601810764492 -24.938798110876021 8 4 0 255
-33.853745580371339 -3.658371968378844 -25.240551816662517 16 5 0 255
-34.891354726580886 -3.896743078390159 -25.766961672731725 35 13 5 255
-35.696575580755791 -3.802006469965590 -26.179554503874783 31 3 0 255
-36.728931791357780 -4.049321648937678 -26.703132589388417 48 20 15 255
-38.101060584410817 -4.811293719292621 -27.392694897603306 98 69 53 255
-39.753609061126298 -6.006779694523885 -28.219116970520247 129 102 85 255
-40.718224669107599 -6.187232901918748 -28.709049807533432 97 69 52 255
-41.226521056233167 -5.687084443656175 -28.975885907481228 116 90 74 255
-41.055348604977780 -4.157511695854282 -28.910764164924075 56 37 21 255
-40.322367152551067 -1.762579753121258 -28.571372484658696 12 2 0 255
-40.383149976697410 -0.566871329420451 -28.619804005033515 8 5 0 255
23.710768423178308 -25.304150977102381 3.415342177329691 187 160 133 255
21.835981226516793 -25.943721109950332 2.473603295496034 190 157 134 255
21.039465385390173 -25.500592030414538 2.061827679409589 200 161 140 255
20.511979644744059 -24.785871502032876 1.782251346412892 207 166 146 255
18.782980955188350 -25.308808853816430 0.912638964504623 211 173 152 255
16.859219469577965 -26.047354901747099 -0.052375900946373 214 178 156 255
15.539937469091399 -26.173398878990497 -0.720384926201788 216 179 157 255
13.494127715209459 -27.068933803229100 -1.744831851780148 213 177 155 255
12.779540372671676 -26.582839269058127 -2.115723454697331 212 176 154 255
11.669477211728093 -26.517847024681942 -2.680602210838700 215 179 157 255
11.089928356252614 -25.896843744534863 -2.985118695847248 218 182 160 255
9.260076154077552 -26.612800046801453 -3.902828172534058 218 182 160 255
7.698716514952167 -27.056251866484587 -4.688624657107070 221 183 162 255
6.732109808448683 -26.870662154447444 -5.182624580171307 224 183 163 255
5.898592046016603 -26.546851271645693 -5.611289324219996 214 172 150 255
5.654504234964918 -25.584947051857228 -5.751008935771026 206 164 142 255
4.562456254828106 -25.550576580917834 -6.306258149976031 205 163 141 255
3.603229544659399 -25.377530071911877 -6.796315076898864 212 167 144 255
2.516398470709959 -25.352028250908631 -7.348774038927814 213 171 149 255
2.209593873963257 -24.465736786741417 -7.519121593188970 216 175 153 255
1.579134150451836 -23.940411651210695 -7.847958660939497 219 178 158 255
0.304471526603123 -24.142304849219443 -8.492107722645642 220 182 162 255
-1.417283562396932 -24.859797144918730 -9.354912996882348 220 183 164 255
-2.812433793792280 -25.221337168251580 -10.057651782711829 220 184 164 255
-4.459959977850218 -25.882786120615890 -10.883673434824388 219 183 161 255
-5.270663057599990 -25.597759490559355 -11.300136279374840 219 181 160 255
-6.143540193631026 -25.389274112860846 -11.746927578253860 221 181 162 255
-6.887059896354486 -25.036223282872783 -12.130380711012009 222 184 165 255
-8.010649496442397 -25.130475691789798 -12.699563661727254 224 187 168 255
-8.814015030280615 -24.857925404734033 -13.112097885219953 227 190 175 255
-9.742341763966948 -24.737416076774196 -13.585615839201722 227 189 176 255
-10.668473521530871 -24.620639437946437 -14.057957823791000 226 188 177 255
-11.592411680359845 -24.507593256224197 -14.529124403739161 221 183 172 255
-12.325410770516754 -24.172432939450317 -14.906941728916564 217 179 170 255
-12.680316054144811 -23.386608706798029 -15.100088274943346 216 177 170 255
-13.160718781734687 -22.751914053776204 -15.354505005396035 222 184 175 255
-13.890860886152467 -22.421613415540151 -15.730789798672873 224 185 178 255
-14.744382543738709 -22.246044248598082 -16.167209649275037 226 185 179 255
-15.720490375282594 -22.226555875591515 -16.663339290731926 224 183 177 255
-16.072944018605256 -21.444903854681058 -16.855167569831863 219 179 171 255
-16.611564481205477 -20.893482700238224 -17.137786410066539 215 177 164 255
-17.087738242592792 -20.265984378594680 -17.389930040477125 220 182 169 255
-17.872204162409815 -20.025580914326667 -17.792327882586804 226 187 172 255
-18.408659135716249 -19.477845856274712 -18.073780975018749 225 186 171 255
-19.005986417032631 -19.008867800211817 -18.384861887612630 224 183 167 255
-19.602464310689356 -18.541335709081125 -18.695485334171707 220 180 164 255
-20.198094539558326 -18.075246768198213 -19.005652056912680 219 182 164 255
-20.792878876164565 -17.610598078745255 -19.315362824175907 217 177 160 255
-21.813324843043716 -17.697996348150070 -19.832242733472100 210 171 154 255
-22.527091228696406 -17.395560610542333 -20.199727454921415 201 163 144 255
-23.118158701804958 -16.937238631626940 -20.507437535724577 193 152 134 255
-23.405724938869525 -16.083677945458817 -20.667454823374726 188 143 124 255
-23.995779224561829 -15.627083524327588 -20.974614906072844 184 135 118 255
-24.223390349853048 -14.693212360074938 -21.105485919187061 178 129 112 255
-24.572027802637081 -13.918076468607183 -21.295228097844046 172 123 106 255
-24.680877757699761 -12.821626031770165 -21.368428896241880 164 114 97 255
-24.970629605396624 -11.964361716894047 -21.529596513886943 166 117 100 255
-25.619314102270238 -11.590349305075790 -21.865164067716194 173 121 104 255
-26.147696461615539 -11.056375835597066 -22.142239425913615 179 127 108 255
-26.556572001884803 -10.361088997191700 -22.361248408469010 182 130 109 255
-27.024764890614534 -9.747205356418306 -22.609049161218877 179 125 107 255
-27.670302803189486 -9.378556908692474 -22.942910492749974 176 121 104 255
-28.373841673906867 -9.093550387406992 -23.304858131194720 165 112 96 255
-28.722361680511568 -8.318643390560169 -23.494491586402319 151 100 83 255
-29.247573775847684 -7.790082249170837 -23.769835325259166 136 86 69 255
-29.772244530085374 -7.262445641352031 -24.044882835269163 123 77 59 255
-30.296376676870437 -6.735729043623792 -24.319635384339222 112 68 51 255
-30.586300480491957 -5.878212291690829 -24.480832347756419 94 52 36 255
-30.876748158382298 -5.019809157357543 -24.642302918009690 73 35 23 255
-31.400338276509984 -4.494027476276813 -24.916744402977656 47 16 2 255
-32.271532146098934 -4.470763487279442 -25.359515814654657 15 0 0 255
-33.256396025339313 -4.618745897792508 -25.857215221645390 17 2 0 255
-33.603291549379122 -3.846640846147181 -26.045916466128915 34 13 4 255
-34.930094977409397 -4.506777387980378 -26.708904703982711 125 93 80 255
-35.907724145090668 -4.667076479067987 -27.202706696686462 189 148 135 255
-36.997450188299382 -5.001297199499902 -27.750593838099618 193 148 133 255
-37.912337886543384 -5.086029107400293 -28.213749017100241 160 116 99 255
-39.281646254184722 -5.856173430959245 -28.896499601702629 212 168 151 255
-40.475593867145534 -6.377717324433945 -29.494238350878192 205 159 143 255
-41.040711745007599 -5.963635902511385 -29.787870412770758 180 145 129 255
-41.264866974473847 -5.035755452848321 -29.916711301951040 146 115 97 255
-40.697895687140203 -2.901431747463789 -29.663435013536670 81 56 36 255
-40.699820808446788 -1.622392615118144 -29.685120159348344 105 88 66 255
-40.928857021730124 -0.686232008170293 -29.816544265265804 54 48 27 255
23.596945806421587 -24.605786248203714 2.278549230059809 191 157 132 255
22.125566884127863 -24.840743917464408 1.539758057171241 199 162 140 255
20.658270868164152 -25.082641694034976 0.803149421517134 205 167 146 255
19.195057212679927 -25.331478756823060 0.068723198908799 212 176 154 255
17.802682186003238 -25.518308328305977 -0.631047867224510 215 180 158 255
14.948402072114533 -27.233415733928098 -2.041613453212307 217 180 159 255
14.165000121893655 -26.813605757597713 -2.444764626205767 215 179 157 255
13.051227379848086 -26.744327553869141 -3.008455375428184 216 180 158 255
11.940201521778221 -26.679718289148497 -3.570678083371263 218 182 160 255
11.426740075603561 -25.989072444639191 -3.842386726139154 220 184 162 255
10.188092840367972 -26.072370839733082 -4.466405245383228 220 184 162 255
8.491950771600500 -26.654958359699123 -5.312486510342580 222 185 164 255
7.195098408302385 -26.821741064621477 -5.964403046645160 221 180 160 255
6.164022446485745 -26.710611490819900 -6.487100302929491 220 178 156 255
6.116806544936566 -25.535546917665158 -6.532074787090906 214 172 150 255
5.088689030790135 -25.429445285359520 -7.053191871572878 209 167 145 255
4.063047482698892 -25.327552676441314 -7.572984809599632 214 169 146 255
3.039881099647147 -25.229867824439395 -8.091453880051816 213 171 149 255
2.473444911344131 -24.631590826146663 -8.388274114317937 216 174 152 255
1.907621582351055 -24.034354989531977 -8.684767643011995 219 178 158 255
0.696131418042000 -24.163819804000866 -9.294261459028192 222 181 161 255
-0.447594745609678 -24.226050596441780 -9.870744131965949 221 183 164 255
-1.781405657641784 -24.512438854660616 -10.539191181987690 221 184 165 255
-3.047189528830671 -24.732040578057195 -11.174485894528416 219 184 162 255
-3.860766090051897 -24.443359701036940 -11.590553384050935 219 183 161 255
-5.056455662815779 -24.599689870072154 -12.191589025117239 220 183 164 255
-6.440376551057540 -24.983329603289803 -12.883595705500639 222 185 166 255
-8.011335896817258 -25.596307422047971 -13.665934354189375 224 189 170 255
-8.814654028098715 -25.325069566333127 -14.076509068239801 227 190 174 255
-9.806605995599455 -25.280457081049633 -14.578269976339413 226 188 175 255
-10.606196111713501 -25.015558591869620 -14.986847933861469 223 185 172 255
-11.404123060421369 -24.753488401580995 -15.394534868606144 218 180 169 255
-11.948246808287962 -24.193147685037957 -15.679412669532141 215 177 166 255
-12.365964997613645 -23.482828400553188 -15.903151276897560 215 177 166 255
-12.846384647077059 -22.848351441812468 -16.157190082889173 222 184 175 255
-13.389109210865428 -22.290391220255088 -16.441316539714165 224 186 177 255
-14.243763079649568 -22.114324532688073 -16.876101038024188 226 185 179 255
-15.034124040786224 -21.865122829256052 -17.279731208361596 223 183 175 255
-15.449389859804029 -21.158976721607416 -17.502151591553599 219 178 170 255
-15.864592904755170 -20.452938248755856 -17.724536955682865 218 180 167 255
-16.589611381399351 -20.132388267570178 -18.096447546744827 221 183 170 255
-17.436931653204965 -19.968796566166247 -18.527297126041802 225 186 171 255
-18.035497511505895 -19.498349977652651 -18.838040276617818 225 186 171 255
-18.633212103489228 -19.029352214732540 -19.148325479253174 223 182 166 255
-19.414414745649566 -18.795731485264923 -19.547038513467896 225 185 168 255
-20.071348405739826 -18.408500162507465 -19.885754913336456 220 184 165 255
-20.543627636489788 -17.787878145999684 -20.135414126403717 218 179 162 255
-21.381885464709029 -17.639705295025465 -20.561396493383072 214 176 157 255
-21.852742641696551 -17.021504868562204 -20.810288649584990 207 170 151 255
-22.627210407038746 -16.799344835396710 -21.205381455956569 198 160 141 255
-22.854176838813288 -15.866021788574585 -21.336767850071652 196 151 132 255
-23.323973271411063 -15.249631063394474 -21.585082535222185 190 143 125 255
-23.310362651225546 -13.995551133981166 -21.600737124549028 183 136 118 255
-23.599841199047574 -13.138398660027121 -21.762312452398533 175 128 110 255
-24.010057907899466 -12.440864632095241 -21.981987297415287 170 121 104 255
-24.480230612683243 -11.823843557216463 -22.230488618663429 168 119 102 255
-25.369118367955934 -11.772059219499056 -22.680275823374956 176 125 108 255
-25.897500362532270 -11.238524028880192 -22.956663807083217 180 129 110 255
-26.544514571721749 -10.868188640454775 -23.290022930820982 186 135 114 255
-27.071520790987393 -10.336998590676018 -23.565665118649093 185 132 114 255
-27.538644655695094 -9.725175959315806 -23.812511486461545 186 133 115 255
-28.005483221558620 -9.113841611553084 -24.059200111915871 181 130 113 255
-28.353906997188915 -8.338943904697203 -24.249024370175377 174 123 106 255
-29.232984112128719 -8.303862719186839 -24.693524752358059 164 115 95 255
-29.698321632837690 -7.695090838290838 -24.939393720984583 149 102 84 255
-30.339393320674986 -7.334882794988800 -25.269534991159929 139 93 76 255
-30.569637541621574 -6.396032700873207 -25.402603633086173 122 76 60 255
-31.209507433941951 -6.037875643748066 -25.732089635428963 108 63 47 255
-31.265585222882095 -4.847807493136543 -25.781707355900735 80 42 25 255
-32.020943581368073 -4.658200755610324 -26.166473336300271 40 10 0 255
-32.426665918059342 -3.968362273258265 -26.383657718331278 21 0 0 255
-33.121779995939676 -3.698743629437104 -26.739425813143242 59 31 20 255
-34.277541690575760 -4.105519451862222 -27.315658214600177 181 142 126 255
-35.717944982361161 -4.940591730791880 -28.027931438042614 182 136 120 255
-36.923685620901637 -5.444850637332934 -28.627639481707476 186 137 119 255
-37.609609892070381 -5.190875051905152 -28.978460165517973 186 136 117 255
-38.809182373323551 -5.705630645555857 -29.574852025712133 192 145 125 255
-39.833828262160978 -5.970457635098114 -30.087390801643892 204 158 137 255
-40.570836051626287 -5.812092414710548 -30.462269996510386 201 160 142 255
-41.192650960608631 -5.484687412262730 -30.782006851043946 190 151 133 255
-41.303255924259929 -4.384415800483737 -30.857461592508642 142 104 85 255
-41.697999994298982 -3.713295653131695 -31.068687171355606 128 97 76 255
-41.472132141034791 -2.090418863053912 -30.983594684188063 129 111 86 255
-41.361802719017305 -0.636005170303292 -30.953812482618829 117 113 83 255
25.564977762338913 -23.064069816634969 2.171205583464484 190 159 131 255
23.079552123646209 -24.317598647745172 0.947893251314028 198 163 141 255
21.945077937889238 -24.215149739515994 0.376304212544738 207 171 149 255
20.612322929894731 -24.323511912929973 -0.290711509008602 211 176 154 255
18.681225369141714 -25.058359894798343 -1.245875133849736 216 181 159 255
17.156536312492818 -25.388323029046092 -2.004922233910705 218 180 159 255
15.103311507832188 -26.280814772254843 -3.018321106098782 216 180 158 255
14.319630036088569 -25.861560765693099 -3.420002742859623 216 180 158 255
12.475860303769906 -26.562236331467631 -4.332000175673926 217 181 159 255
11.630928861465605 -26.221486176623046 -4.762901050560572 219 183 161 255
10.853755941895116 -25.813294594475764 -5.161104743036233 220 184 162 255
9.550440745994223 -25.971701721243051 -5.812378117530628 221 183 162 255
7.789988449691236 -26.631387289292206 -6.683354284059305 222 181 161 255
6.494690517000066 -26.803424139288268 -7.330338832264275 223 181 159 255
6.120569720233703 -25.984637956944937 -7.534227375850335 219 177 155 255
5.288378296423076 -25.665543139357965 -7.958318159385783 216 174 152 255
4.392585399251686 -25.420955883240254 -8.412883956432168 216 171 148 255
3.759321676306570 -24.892146270440008 -8.741207407558463 214 169 148 255
3.126937111755865 -24.364830764136002 -9.069061345165167 214 171 149 255
2.171028109126127 -24.200676024072294 -9.552238186681592 219 177 158 255
0.828839659738236 -24.475629901004197 -10.220758152438151 222 181 161 255
-0.444933464945734 -24.684259992963973 -10.856227934478653 222 184 165 255
-1.328280861705593 -24.460830516415541 -11.304136267045365 222 185 166 255
-2.080991451238759 -24.094222446851319 -11.689259507169808 218 183 163 255
-2.832295844007632 -23.730005090391273 -12.073630326908273 218 183 163 255
-4.799785308799244 -24.768259016172948 -13.041152475108007 219 182 163 255
-5.993414757837087 -24.930506652016135 -13.637293949855845 222 186 168 255
-7.375238006935007 -25.320718658044768 -14.323458406609930 226 191 172 255
-8.179835571266807 -25.048537065368009 -14.732784162916374 227 190 174 255
-9.173425988102309 -25.002961319757162 -15.232560505008180 223 186 170 255
-9.720614088031283 -24.437853097293299 -15.518383525211277 218 180 167 255
-10.520350310211199 -24.173937928939552 -15.925105705291600 217 179 166 255
-11.128959218852145 -23.687046606355182 -16.240233887654398 216 178 165 255
-11.988792528234086 -23.503599290832881 -16.675552220415284 215 177 164 255
-12.720921316015904 -23.171988288732393 -17.049654194548964 219 180 169 255
-13.200627504691766 -22.538971530790008 -17.302923068396964 222 182 173 255
-13.805251781255436 -22.058857430313822 -17.615914713257737 222 182 174 255
-14.534000381299080 -21.732995744791936 -17.988204002037051 225 182 173 255
-15.074280345876474 -21.179637675443644 -18.270322103151514 221 178 168 255
-15.613967599700374 -20.627288261952856 -18.552121533080850 216 178 165 255
-16.153063538484304 -20.075945211067619 -18.833602913593722 221 183 170 255
-16.753532214511637 -19.602901287511031 -19.144362949614589 224 185 170 255
-17.600468584982195 -19.441390135386058 -19.572765179948647 224 185 170 255
-18.568890083901664 -19.438619404521603 -20.059051255360515 224 182 167 255
-19.534873476752409 -19.439995518257575 -20.544030006806580 227 185 169 255
-20.191255067969394 -19.054538074480831 -20.881139495230215 225 185 168 255
-20.907826663319014 -18.749391192902806 -21.246893786229776 221 180 162 255
-21.684193187851548 -18.525226707582874 -21.641081239503791 219 178 160 255
-21.848561258421938 -17.515142897359937 -21.743389449769623 211 169 150 255
-22.196652479017445 -16.740626836421711 -21.933324260987945 204 163 143 255
-22.241104642587089 -15.569139038864307 -21.978581510183844 198 153 134 255
-22.711576555905822 -14.951843049841614 -22.226875868871531 188 143 124 255
-22.637177695592328 -13.617141006294787 -22.215651669745512 183 137 118 255
-22.987479821008350 -12.838873259528896 -22.406758280322236 177 130 112 255
-23.458494418975278 -12.220660591754779 -22.655333667210812 171 124 106 255
-24.169651540973263 -11.924736551066587 -23.018163256887419 170 123 105 255
-25.179345542754277 -12.034463461304483 -23.522932723770580 175 127 109 255
-25.827287757027278 -11.663378123523643 -23.855488685172361 182 134 114 255
-26.235287851730135 -10.969668063276856 -24.073890424849125 190 141 119 255
-26.643261732559409 -10.276005114856872 -24.292274142311186 193 142 123 255
-27.110661528906121 -9.663953085282287 -24.538891762602901 192 141 122 255
-27.459140466401834 -8.888804571440119 -24.728992085317586 187 136 119 255
-28.044606652932430 -8.441310097168326 -25.031656663258147 182 131 113 255
-28.924530375168814 -8.406403076907395 -25.474076637203609 175 125 105 255
-29.802326389222145 -8.375116645337130 -25.915353080996468 164 115 96 255
-30.266473955354826 -7.768608681063427 -26.160207181583885 155 105 88 255
-30.613035199137329 -6.996735650541211 -26.349257591014464 142 94 78 255
-30.959855306672011 -6.224425760315938 -26.538441422254238 127 79 61 255
-31.014973575295215 -5.034849432919032 -26.589334859812311 116 70 52 255
-31.537762417419032 -4.511297074326194 -26.861986222109721 90 51 32 255
-32.176283113257398 -4.156269458827239 -27.189438249295392 69 36 16 255
-32.813753270282092 -3.803031587424130 -27.516322358570633 34 4 0 255
-33.681632857863690 -3.788632258587256 -27.952248937798743 122 85 68 255
-35.182464090778694 -4.707178833868227 -28.687691664413066 166 126 108 255
-36.332690338990147 -5.125962283106048 -29.256885097318047 163 120 101 255
-37.249628715203130 -5.210808667475135 -29.715483692161499 167 122 101 255
-38.336217724011163 -5.555151551352481 -30.254173256078346 183 136 116 255
-39.476864086011744 -5.990234195423511 -30.818221622936832 198 153 132 255
-40.043389623179394 -5.574999153445077 -31.110660591706903 200 157 138 255
-40.779971885698274 -5.418570398219856 -31.483407510986837 194 152 132 255
-41.117354847847338 -4.662355459646392 -31.667462306417775 177 136 116 255
-41.851764950694218 -4.509628445323699 -32.039033150888187 155 119 97 255
-41.679950574004891 -2.975362840826733 -31.982649871003872 138 115 88 255
-41.398006859010763 -1.263056056484857 -31.874450264574747 126 115 85 255
23.563716283842638 -24.272380168170912 0.126732528118765 198 166 143 255
22.495143613236934 -24.101155543164367 -0.410290847378704 209 174 152 255
21.160533350147006 -24.208974912993881 -1.074199095903595 211 179 156 255
19.762475219371282 -24.391759604474828 -1.768191463340500 216 184 161 255
18.100777876707212 -24.857666170586157 -2.587784875653696 219 183 161 255
16.911073000517121 -24.846169032842624 -3.181895535226573 217 181 159 255
15.391396976331521 -25.187856953570474 -3.933232753274766 216 180 158 255
13.942530607884265 -25.467093900377847 -4.650549300082062 216 180 158 255
12.365081253473193 -25.893394399422789 -5.428934614411688 218 182 160 255
11.520415776858130 -25.554326465097887 -5.857761852041776 219 183 161 255
10.016785938849580 -25.923292706936451 -6.600516667801386 221 184 162 255
8.517498158011193 -26.299640633256246 -7.340948730240896 222 181 161 255
6.956752985150587 -26.754338713250519 -8.110398648412200 222 180 158 255
6.516923803692237 -26.006526869135087 -8.345812948428161 217 175 153 255
5.421853845563618 -25.973080392372339 -8.893161450298763 214 172 150 255
4.787320787666516 -25.442753779240519 -9.221157592161603 213 168 145 255
4.088400857818669 -24.985796761648402 -9.579739190688628 212 167 146 255
3.781426229952274 -24.098180814698935 -9.751803445766342 212 168 147 255
2.563994421830785 -24.222374332667499 -10.356892380150143 216 173 154 255
0.960627424313884 -24.787444586590539 -11.145283031106587 219 178 158 255
-0.055263601061029 -24.705775385536725 -11.654133590332791 219 181 162 255
-0.745674569248024 -24.263283880916617 -12.008163518482107 219 182 163 255
-1.241536924563604 -23.603041764836689 -12.269696900502822 218 183 163 255
-2.702099274005633 -24.045226862913495 -12.989409501409426 219 182 163 255
-4.415149130566448 -24.789495575792500 -13.828752342934806 220 183 164 255
-5.546175542988038 -24.877754524196916 -14.391473104226975 223 186 168 255
-6.674206251999976 -24.971106950983000 -14.952590308921515 226 191 172 255
-7.480216063338219 -24.697756025039041 -15.360737852118575 227 190 174 255
-8.793941006621907 -25.023913761563506 -16.009612074195374 221 184 168 255
-9.214318688365751 -24.309170883516856 -16.234620022775616 216 179 163 255
-9.888253898600482 -23.894692681038208 -16.579830387549094 215 178 162 255
-10.118133872814838 -22.955312513271195 -16.714508737848263 217 180 164 255
-11.232729663044921 -23.071509141767052 -17.268432336902862 218 181 165 255
-11.651234177370782 -22.359952657560115 -17.492435219705243 218 179 164 255
-12.321178997132563 -21.952260874458148 -17.835506896473987 219 180 167 255
-12.864507669189749 -21.394161021862743 -18.118563219867525 222 181 169 255
-13.845524939548483 -21.371788945973037 -18.608742232132641 223 181 168 255
-14.386736143428237 -20.817290681574036 -18.890663002901533 221 179 165 255
-14.927354416174495 -20.263801331036490 -19.172265167752172 215 176 163 255
-15.405166482594638 -19.634255207490668 -19.424127407060510 220 182 169 255
-16.130982250224008 -19.314417175459909 -19.793218459116986 224 185 170 255
-17.227114004715077 -19.462013517048774 -20.337249061485068 225 186 171 255
-18.320275812613232 -19.614660470790113 -20.879688438860995 225 184 169 255
-19.163729390798068 -19.460499437180601 -21.303983515984584 227 185 169 255
-19.820617770924315 -19.075015438641174 -21.640053039468654 227 185 167 255
-20.599235923489630 -18.848249280734933 -22.033519709285400 220 177 160 255
-21.314927507938194 -18.545631416716219 -22.397181365543574 215 172 155 255
-21.417689246598371 -17.456710499979124 -22.471554185578867 210 167 148 255
-21.704797272995677 -16.602887785470045 -22.632960867570958 203 160 141 255
-21.687932811571727 -15.351676727941765 -22.651055766381859 197 154 135 255
-22.037430305917127 -14.574623303779020 -22.841973092838401 190 147 128 255
-22.144643598662441 -13.478140039366451 -22.918718626650175 187 143 124 255
-22.797590062547869 -13.099369906267185 -23.252659920513693 177 132 113 255
-23.449441016230793 -12.722464127047743 -23.586012133888488 171 126 107 255
-23.919508419822137 -12.106106276717725 -23.833696857460737 172 125 107 255
-24.629669585328855 -11.812905970917200 -24.194375548836732 179 132 114 255
-24.978683415190233 -11.036685777719583 -24.385016901600892 187 140 120 255
-25.686933912181786 -10.746737980689886 -24.744666758476228 194 146 124 255
-26.453537521751258 -10.540421042077384 -25.131668683559568 196 148 128 255
-27.099392634614020 -10.173721343801731 -25.461793220026323 196 148 128 255
-27.506420609958610 -9.481714831046759 -25.679595007630098 196 145 127 255
-27.972734330848397 -8.871753755922470 -25.925247619043176 193 142 123 255
-28.734631018722439 -8.673448486253193 -26.309716380363056 188 137 118 255
-29.435887439976540 -8.395405461500957 -26.665601972489782 182 131 112 255
-29.959085719043145 -7.871577255135719 -26.937812573366642 170 119 102 255
-30.305417789374957 -7.099937504785686 -27.126985837337060 159 107 93 255
-30.652008338641934 -6.327861007346087 -27.316293167628899 151 100 81 255
-30.881835965285148 -5.388626311647926 -27.450854835906952 136 85 68 255
-31.521116293845949 -5.033127567186966 -27.777425281282945 122 76 58 255
-32.217590421332289 -4.763231358363441 -28.130726381394311 92 53 34 255
-32.680286281051963 -4.159445345949962 -28.374405108026963 80 43 25 255
-32.794825300992983 -3.050555051446338 -28.454995658039778 45 10 0 255
-33.199955247171260 -2.361808275084798 -28.671730286211385 38 8 0 255
-34.182293936031272 -2.520100005745576 -29.158632373634433 87 59 34 255
-35.046834059069283 -2.512994680781958 -29.590233996740778 97 64 39 255
-36.656197077246503 -3.616471224306054 -30.370086503720856 130 90 68 255
-38.317357480909919 -4.814724847635148 -31.173782250080222 182 138 117 255
-39.286442639185907 -4.995561603921317 -31.653573332130335 203 158 137 255
-40.195857534423254 -5.095012345884072 -32.105298903324694 200 159 137 255
-40.818296691613170 -4.768180278280738 -32.422803820759754 185 147 124 255
-41.439717003460743 -4.443083913002397 -32.739758028065808 175 138 115 255
-41.550165007905548 -3.341182901254683 -32.818106136906835 164 136 109 255
-40.757507132976372 -0.849301256524370 -32.475099042718853 133 114 87 255
25.668557265156466 -22.589322903547185 0.071885883556689 200 168 143 255
22.641423795214308 -24.398076814530697 -1.389131992457592 208 176 153 255
21.305758346428320 -24.506713716455124 -2.049504488755574 215 183 160 255
20.443459265098198 -24.138901370074620 -2.485827987101160 218 186 163 255
19.448875653887768 -23.912253925834136 -2.984581527783561 218 185 164 255
18.657058391361545 -23.481235184395644 -3.387370746142565 217 181 159 255
16.599032924048601 -24.375129073882022 -4.388321831163978 216 180 158 255
14.281149409996715 -25.559362852091652 -5.511611057236465 216 179 157 255
12.701764820733132 -25.985774435535319 -6.285691508115846 216 179 158 255
11.723848361529548 -25.787460255473150 -6.775531604480094 220 182 161 255
10.549591578850482 -25.804441274733904 -7.357899435822659 220 181 160 255
9.510448521518015 -25.685066265743330 -7.876325148768899 219 177 157 255
7.880519271703236 -26.208576745307028 -8.673277034391447 219 177 155 255
6.781743945162447 -26.170851629999277 -9.219435026060452 215 173 151 255
5.488754672580058 -26.352036984211281 -9.856982732991355 213 171 149 255
5.051054507323357 -25.607892593646795 -10.091182710874278 212 167 145 255
4.809594341667832 -24.648281786294405 -10.232909661627332 210 166 144 255
4.828430733673230 -23.399075844817617 -10.252065043677163 208 166 144 255
3.803562020427279 -23.303967270539601 -10.762855684026476 212 170 150 255
2.131292268309267 -23.938525068651245 -11.578288677549466 217 176 155 255
0.723570537916430 -24.290715877170641 -12.268875069727784 218 178 159 255
-0.485920828745890 -24.430824344410382 -12.865923121367729 218 180 160 255
-1.885912006641746 -24.796158109658847 -13.552373034174153 218 181 162 255
-3.152928728121680 -25.021499332038843 -14.176024689894803 220 182 163 255
-3.708859627483463 -24.442413410870358 -14.465134361571614 221 182 165 255
-4.841897809700271 -24.529469370552448 -15.025450168274205 222 185 167 255
-5.715708806585099 -24.325112505915428 -15.463766005976822 227 190 172 255
-6.715437102178129 -24.272746576939568 -15.961103478312609 227 190 174 255
-7.776495354443426 -24.299145264920014 -16.487080037028036 219 182 166 255
-8.325549225366245 -23.731752436676175 -16.772507988612631 215 178 162 255
-8.810473288647302 -23.090355772694522 -17.027797658209280 215 178 162 255
-9.231666374413635 -22.374277257964621 -17.253162376170252 215 178 160 255
-10.285408055472800 -22.413116645864818 -17.775221510827166 214 177 159 255
-10.831394320267407 -21.850940938561195 -18.059005236185257 215 176 159 255
-11.376782204657985 -21.289783115679370 -18.342467901305042 216 177 161 255
-12.047301361117178 -20.881952909894409 -18.684531089994493 219 180 165 255
-13.406743503913674 -21.316230113469516 -19.349276499636574 220 181 166 255
-14.136153893299451 -20.991311668646745 -19.718672298967618 219 180 163 255
-14.551842565277013 -20.284595580120708 -19.941085112446189 214 175 160 255
-14.655797817970978 -19.192701571040232 -20.017578698664749 219 182 166 255
-15.507439522049197 -19.026042753742900 -20.444020635517646 224 185 170 255
-16.667515608341972 -19.250172247023102 -21.014614043445761 223 184 169 255
-17.762419486299507 -19.402070609336732 -21.554510635855735 224 185 169 255
-18.483526857752139 -19.091273340801251 -21.919455863086824 225 183 167 255
-19.264928719837940 -18.861001769712715 -22.312485093850327 215 174 156 255
-20.352389920817217 -19.025556477588452 -22.848394823823170 179 135 118 255
-21.007035287050087 -18.644723106845561 -23.181949627439835 161 118 99 255
-21.109094746869545 -17.556060152828309 -23.257416314523780 173 132 112 255
-21.090143721525038 -16.307065685543364 -23.276484321838581 181 138 119 255
-21.134009863645673 -15.134308380328406 -23.324985626356352 186 143 124 255
-21.544690635677370 -14.436118849803393 -23.544699224954485 188 146 127 255
-21.955329441647535 -13.738002032929984 -23.764388223754167 181 138 119 255
-22.608384459673943 -13.359880122223274 -24.097080035468963 175 130 111 255
-22.897452736240609 -12.502385594455774 -24.260068088785033 170 126 106 255
-23.247363637940424 -11.724485369665842 -24.451432647535171 170 126 106 255
-23.537287809422338 -10.865538856491355 -24.614873731101540 178 131 111 255
-24.007964864298003 -10.248389919427609 -24.862499358089480 189 143 122 255
-24.898019482487513 -10.199477924922405 -25.305286141198010 199 153 130 255
-25.845753188015294 -10.235538621001069 -25.774756745213935 201 154 134 255
-26.671705976232630 -10.112578131350887 -26.187415653403065 202 154 134 255
-27.138447308878227 -9.502127101747931 -26.432924886690898 202 152 133 255
-27.723753586119358 -9.056168194761142 -26.733519731135061 201 150 131 255
-28.367542246706961 -8.693816512201124 -27.061227844505225 197 146 128 255
-29.128579587435723 -8.498194737508129 -27.443317318619194 187 137 118 255
-29.651907798651422 -7.974579209139449 -27.714916669010918 183 131 113 255
-29.998011098521005 -7.203172108852044 -27.904212916758212 172 120 105 255
-30.344372506690803 -6.431328350869990 -28.093643881526489 164 111 94 255
-30.749626392354202 -5.742394901025989 -28.310407081725586 155 103 85 255
-31.447376878365645 -5.471346154966909 -28.662793628908219 138 88 71 255
-31.968706724491909 -4.951138773312550 -28.933306947825344 118 74 56 255
-32.431278423503642 -4.347797245846039 -29.176552778113390 106 63 45 255
-32.254461476030457 -2.818140158330095 -29.123610727154841 77 40 22 255
-32.196240839405988 -1.452922518540390 -29.125770047353186 40 13 0 255
-36.063084540695769 -2.017340774528691 -31.031533869005500 78 57 30 255
-38.585113361567977 -4.501850715285229 -32.226385750583489 199 158 136 255
-40.011012657748040 -5.372302458611216 -32.914065198832304 204 161 139 255
-40.633548408970654 -5.046120738029344 -33.230342825107343 193 152 130 255
-40.742843685574400 -3.945223132768774 -33.309575771168099 175 138 115 255
-40.967065479462974 -3.015003974246838 -33.441946656882465 170 137 112 255
-40.738934515207859 -1.389585545450416 -33.365675108461318 143 118 93 255
31.231328122598342 -18.713115706968097 1.654291631937113 186 152 125 255
25.953239695605134 -22.749113312852899 -0.851248552525533 203 171 146 255
23.326804808223670 -24.147269077884403 -2.112933594533970 207 175 152 255
21.584797245567671 -24.667066879388187 -2.959710122560367 218 186 163 255
20.318595673100901 -24.713181637232253 -3.583301344424584 219 187 164 255
20.129332016268677 -23.658540779611343 -3.702434115746769 215 183 162 255
19.805144896203757 -22.740973618978671 -3.884788258951360 217 182 160 255
17.542234458430329 -23.841011036901818 -4.974399183177866 216 180 158 255
15.420008741672405 -24.813768714318201 -5.997707466252010 216 178 157 255
13.371096324563865 -25.727937128203337 -6.986275330719437 215 176 156 255
12.325221018831058 -25.598940472171478 -7.505439342397622 219 178 158 255
10.950303132948278 -25.826680834674931 -8.178234766168401 216 175 155 255
9.843880027913400 -25.777974837368788 -8.725311175248933 216 174 152 255
8.410010248828371 -26.088718967362553 -9.425165278236477 214 172 150 255
7.507455434834810 -25.836923546615168 -9.876616580083521 212 170 148 255
6.212212574774952 -26.016889862936068 -10.511268410765354 210 168 146 255
5.839456683648763 -25.199977717746577 -10.715127651053649 209 167 145 255
5.073479641573613 -24.813921073995687 -11.102472497826710 210 168 144 255
5.093390966287870 -23.565212109990114 -11.123141833283753 208 166 143 255
4.459120180214143 -23.036612640578142 -11.448985918844357 210 169 147 255
3.695513133627117 -22.654585522131185 -11.835062276669674 214 173 151 255
2.088648233829218 -23.220904937897103 -12.614025877382318 216 175 155 255
0.097597128397780 -24.233439481525579 -13.571642170784770 217 176 156 255
-1.369328989910770 -24.671211644405957 -14.284701196758562 216 177 157 255
-1.992440352784030 -24.161584528769652 -14.604574287113664 216 178 159 255
-2.936893161996721 -24.021786786245855 -15.073958972497749 219 182 163 255
-4.072076018342102 -24.107414031607931 -15.631940579355359 221 184 166 255
-5.140085024080719 -24.124015313249288 -16.158465037176541 226 188 172 255
-6.141319739609088 -24.070911399812843 -16.653746027488552 227 188 173 255
-7.204003989589438 -24.096565618088221 -17.177421067329362 220 181 166 255
-7.817505044389151 -23.603278403532443 -17.492150108264866 214 175 160 255
-8.302844300089731 -22.961422921404392 -17.747274018843598 213 174 157 255
-8.724332785861804 -22.244892352314935 -17.972718035392973 213 174 157 255
-9.589422285047618 -22.056793923378990 -18.404120712064270 212 173 156 255
-10.009842874917837 -21.342079875600518 -18.628991813009463 210 173 155 255
-10.619544616273004 -20.855254171128138 -18.941684491339942 211 174 156 255
-11.291367804386169 -20.446044525838261 -19.283130328417045 211 174 156 255
-12.653430396555109 -20.878869451669573 -19.944563070166978 213 176 158 255
-13.384263915047200 -20.552565442874538 -20.313096939750480 213 176 158 255
-13.800777056871283 -19.844497268901478 -20.535872999700899 212 175 157 255
-14.029866226396280 -18.905384886630372 -20.671818738211584 218 181 163 255
-14.882904792827077 -18.737778258339688 -21.096767480140059 221 186 167 255
-15.982786562879085 -18.883426521225488 -21.635853007578078 221 186 167 255
-16.893527443295596 -18.800949391264965 -22.087189788959620 221 185 166 255
-17.554396613650965 -18.410367418933845 -22.422767418322564 220 181 164 255
-18.461320191357544 -18.334381349696685 -22.872059834059186 168 122 104 255
-19.119434770340575 -17.948483901075861 -23.206161402392581 159 110 93 255
-19.653384947327226 -17.407223082045988 -23.482795207977887 132 85 67 255
-20.063966492813535 -16.709246132351325 -23.702386810960604 131 88 69 255
-20.351975040373105 -15.853200528388697 -23.865361692150771 152 107 88 255
-20.395945335250929 -14.679133526745460 -23.915697087795209 180 139 119 255
-20.685451276825574 -13.820544487015923 -24.079469537357539 180 142 121 255
-20.975444008910500 -12.961129012613696 -24.243500617577482 174 133 113 255
-21.205191811707465 -12.020909209426122 -24.379779399866862 166 125 103 255
-21.314491966232765 -10.919007905576734 -24.460577868032487 167 126 104 255
-21.787892938574203 -10.297467498938914 -24.709284892644447 166 124 102 255
-22.562679957366782 -10.079681187217943 -25.096829010248484 180 138 114 255
-23.155234382636564 -9.622025976404444 -25.400318521343877 190 148 126 255
-24.167473763473026 -9.733460311606621 -25.896974414480226 200 155 134 255
-25.236982510970932 -9.930759693823347 -26.419787499260281 204 159 138 255
-26.124133991377846 -9.888402185803386 -26.858479192557994 206 159 141 255
-26.710768356736565 -9.440816038657800 -27.158794418992358 205 157 140 255
-27.237046064801604 -8.912615772805424 -27.431297159131844 204 155 138 255
-28.119248026302074 -8.878676323113183 -27.867335390785172 202 155 137 255
-28.762202703026190 -8.518571504728953 -28.193295648480401 195 148 130 255
-29.463235584312486 -8.242956906512006 -28.545845415024104 188 139 122 255
-29.808846214102175 -7.472231096491043 -28.735123476112619 181 130 113 255
-30.390247037676829 -7.033550468619524 -29.032626066865404 171 120 103 255
-30.794598397215083 -6.346190295739291 -29.248845320591727 161 110 93 255
-31.374805407753968 -5.909542266456555 -29.545704477022156 153 100 84 255
-31.603301558415410 -4.971474123533881 -29.681276331395125 139 88 71 255
-31.949304757711502 -4.200089138269618 -29.870751504313702 122 73 56 255
-31.771578843454932 -2.670050421201097 -29.820348702962832 90 51 32 255
-31.596507223242298 -1.135501473699378 -29.771362368722492 58 32 9 255
-37.250607204606723 -3.066747982118670 -32.513423937919782 200 167 144 255
-39.597674667446768 -5.306322170641465 -33.616657530338159 204 155 138 255
-40.449496456571381 -5.324054938340055 -34.036405452863747 196 150 132 255
-40.671879766863697 -4.396398213509372 -34.168676941818774 183 137 119 255
-40.895097693564651 -3.467324807029343 -34.301391445220219 170 132 111 255
-40.778544191347180 -2.016536237508433 -34.279201639680522 148 119 95 255
34.108299169335595 -17.580486139582518 1.948532092228049 198 164 132 255
30.301822546585640 -20.097060839002893 0.146972356359868 193 157 131 255
27.728123782463740 -21.407810739544544 -1.081299294018791 198 166 141 255
25.298023569528624 -22.595839307496561 -2.242330129456604 204 172 149 255
22.133348819215342 -24.552702182832036 -3.743655308389108 216 184 161 255
21.134839768949007 -24.322631564376195 -4.239405446763953 218 186 163 255
19.802428425754641 -24.442023153320946 -4.889837093452215 215 183 162 255
19.278647906848306 -23.735057000472182 -5.165146278615339 217 181 159 255
17.616947634324134 -24.211753456792792 -5.967791950544623 216 180 158 255
15.358712206065832 -25.325112468979114 -7.046464347839958 215 177 156 255
14.174802032503635 -25.330117807862621 -7.627031898925964 214 176 155 255
13.326691545514365 -24.988887054099763 -8.051902216058011 216 175 155 255
12.413837192807875 -24.721011075961485 -8.506619313319405 214 173 153 255
11.370346846282217 -24.597892330667293 -9.021644575683979 213 172 150 255
10.197018646492467 -24.620887587008582 -9.596551207608940 211 170 148 255
9.158750524875160 -24.506646937304311 -10.108782738883264 209 168 146 255
7.793499487784686 -24.753630844234323 -10.771995704398492 210 169 147 255
