ply
format ascii 1.0
element vertex 664
property float x
property float y
property float z
property uchar red
property uchar green
property uchar blue
property uchar alpha
end_header
-38.890135428227921 -16.255087557765094 -11.673579255670461 84 35 19 255
-38.908935864064127 -15.591032401999740 -11.489570381962608 145 99 76 255
-38.918213001265393 -14.894654153020014 -11.406699143680612 161 114 92 255
-38.975374770943624 -14.366752112766250 -10.818026182560743 168 120 98 255
-39.023015745972735 -13.808134327874768 -10.330450996439481 158 110 89 255
-39.032432605774027 -13.115556437740807 -10.247514925961980 146 95 76 255
-39.041897887566009 -12.423422119918996 -10.164578347613826 133 83 64 255
-39.060980733703957 -11.766407430732940 -9.980454546752071 119 72 54 255
-39.089682243591639 -11.145315924301215 -9.695123562642209 106 61 42 255
-39.080163240965675 -10.384834850022131 -9.814568989941904 97 56 38 255
-39.051561157814348 -9.552701266288381 -10.136457816504105 81 44 26 255
-38.965605824167831 -8.504230262092250 -11.065688669917392 72 40 21 255
-38.965817889552660 -7.775060664571484 -11.084067567010607 59 31 10 255
-38.908680034877953 -6.827914895881165 -11.709830423395204 39 14 0 255
-38.909007283631475 -6.096817979983811 -11.728283095404720 30 11 0 255
-38.851988721715308 -5.144482595641534 -12.354202648467492 16 3 0 255
-38.909840461507450 -4.634122450529802 -11.765240330271126 6 0 0 255
-39.072990217833294 -4.538085179300964 -10.062405579792767 1 1 0 255
-39.140526296980497 -4.074487005420750 -9.371978013785792 0 3 0 255
-39.255956195138239 -3.804125925333892 -8.175128223169168 0 2 0 255
-39.438409619471031 -3.807456958012580 -6.269201751501100 5 6 0 255
-39.687880959113258 -4.090164543992088 -3.654054451104287 15 13 1 255
-39.908705103272254 -4.270522825694215 -1.342438325877310 10 9 0 255
-39.986098197634107 -3.877939196071736 -0.549973728135001 1 1 0 255
-39.824424409797473 -2.507368274287941 -2.290005381177707 3 2 0 255
-39.615008576967575 -0.929555572434737 -4.536844717984309 3 0 0 255
-39.816948205165133 -1.052086780654250 -2.427368050862583 4 1 0 255
-40.085888795289769 -1.466443745401591 0.391646160991229 2 4 0 255
-40.192297504222815 -1.209456705620070 1.488396828442205 0 3 0 255
-42.439243413963084 -2.976025767845229 24.902374696464449 179 168 135 255
-42.641939764178005 -3.259406553748804 27.015728990527407 198 163 142 255
-42.806464966301576 -3.377156349863583 28.723636278100173 204 161 145 255
-42.856407702231493 -2.970318770929381 29.214521444883047 203 157 144 255
-43.001940845801052 -3.013157321357099 30.719883395841464 191 147 133 255
-43.013817475569276 -2.433719001413678 30.805123237127418 183 136 117 255
-43.092624270124020 -2.171387572949314 31.600551786689579 168 121 101 255
-43.104659597549599 -1.594138508382301 31.685811783818679 150 106 83 255
-43.183611520662318 -1.337819185718146 32.481359583460801 123 83 58 255
-39.283443917981749 -18.072382265205491 -15.298991184071440 138 91 75 255
-39.422450531567470 -17.812641157033099 -13.799801821449819 150 101 86 255
-39.580107835630486 -17.625450195888945 -12.098051443820452 156 108 94 255
-39.654091823871241 -17.154700852400879 -11.306802645202026 151 104 89 255
-39.681608752134068 -16.524260631008204 -11.021446305386235 165 116 102 255
-39.653354865317745 -15.697014379455737 -11.343288798502272 162 115 95 255
-39.653053410852181 -14.968067312301827 -11.361549218982589 164 116 96 255
-39.690009335093372 -14.373442874806756 -10.974948901506650 169 121 101 255
-39.745618986141565 -13.848634601667882 -10.385856972382044 167 119 99 255
-39.773369036110616 -13.224555413722285 -10.100391952636642 152 101 82 255
-39.810471823999670 -12.636409498094650 -9.713661040175907 138 88 69 255
-39.819716463785397 -11.946278700521361 -9.630625589183978 125 78 58 255
-39.838315842804562 -11.291527469278478 -9.446338606300799 111 68 49 255
-39.819756163272977 -10.496854832521635 -9.667074734680284 100 57 40 255
-39.819856558313212 -9.771957600730644 -9.685321671521137 87 49 30 255
-39.773497848839575 -8.868119268176486 -10.209946791807454 76 43 24 255
-39.755104814507959 -8.069531874876176 -10.430817974244860 65 36 17 255
-39.680953792974684 -7.051899593023052 -11.259449923531292 46 19 4 255
-39.671981824851912 -6.285792451954819 -11.379157046632258 33 11 0 255
-39.672373041226095 -5.555822236963792 -11.397595453261033 22 4 0 255
-39.737941819096932 -5.085476765324117 -10.706905071110725 8 0 0 255
-39.794268809998059 -4.581354403999896 -10.117450756617927 4 0 0 255
-39.859959121278266 -4.117946944928576 -9.426612659191733 1 2 0 255
-39.944314468345688 -3.733986043254703 -8.533043315333146 0 2 0 255
-40.224059721071406 -4.156837840617399 -5.511353809715672 2 4 0 255
-40.373639989992327 -4.057179933780773 -3.908045644190736 7 6 0 255
-40.560480942984640 -4.120933459177408 -1.899146136611932 7 6 0 255
-40.561368689977463 -3.415096177599906 -1.917086956949731 1 1 0 255
-40.655326171281033 -3.101841281293360 -0.921432310504940 4 3 0 255
-40.368060860566970 -1.172093141550548 -4.081772511019153 3 0 0 255
-40.527256036292528 -1.136840370715376 -2.376540262700644 4 1 0 255
-40.816692426725922 -1.671900495453443 0.748258403621492 2 4 0 255
-40.864417988132359 -1.173969897864211 1.237340751524812 0 3 0 255
-43.302909533848755 -3.482380426945539 27.388132512564738 191 170 137 255
-43.453678072577844 -3.557205785163887 28.995566211015444 199 161 141 255
-43.437327692069786 -2.840168211053481 28.776296282026607 202 161 143 255
-43.606792647219606 -3.016273854844655 30.587003257408810 198 153 137 255
-43.664882759495285 -2.661775893392274 31.179831756481491 189 142 122 255
-43.788036033383818 -2.627116766419007 32.483328053006261 177 130 110 255
-43.809134074490409 -2.098076418997479 32.670226316761614 162 117 96 255
-43.839597976339554 -1.615534683642679 32.958653215084894 137 97 72 255
-43.823740868621854 -0.903684697190457 32.739405277660069 107 71 45 255
-39.973654573162769 -17.952678358385697 -15.863396374295917 187 146 124 255
-40.190000656374217 -17.979577647410778 -13.452235641015648 173 125 108 255
-40.343138163335411 -17.793649534443560 -11.749459972156558 154 106 91 255
-40.405951958583394 -17.291667818536808 -11.058959366577483 159 114 99 255
-40.414587437524979 -16.596679593170407 -10.975912131991038 160 113 97 255
-40.378080547920639 -15.736877223582155 -11.399177355451172 163 116 98 255
-40.377769344867147 -15.008152923009774 -11.417430032353082 188 140 123 255
-40.413656387301742 -14.413740165281837 -11.030589431425597 176 127 110 255
-40.449592587259936 -13.821402244501272 -10.643707472177880 166 118 99 255
-40.485578912964037 -13.231132820020790 -10.256784526856734 152 101 82 255
-40.521616331739956 -12.642925470201419 -9.869820969548016 140 92 72 255
-40.539629941605867 -11.987417516884037 -9.685424247905701 126 81 62 255
-40.539620687458516 -11.262981108921423 -9.703635495951744 112 69 50 255
-40.530627676733559 -10.503206332955315 -9.823178789497490 104 61 44 255
-40.539765884964389 -9.813741534066040 -9.740103198645443 93 54 37 255
-40.530884943719741 -9.053164389849428 -9.859691299889846 81 48 29 255
-40.522061985024600 -8.291904282149275 -9.979309317453840 73 42 22 255
-40.450034808037373 -7.275852776583065 -10.808368387349105 59 31 14 255
-40.450370109757976 -6.547879953615876 -10.826744285764107 53 27 14 255
-40.468841923247474 -5.893423248445529 -10.642421856660576 44 21 10 255
-40.514487680418533 -5.351210263241285 -10.153995643652024 14 0 0 255
-40.361381629518768 -3.989105869913786 -11.895697796552099 9 0 0 255
-40.136054144028876 -2.316377532230561 -14.448680942719818 4 0 0 255
-40.642765817330506 -3.701765812631976 -8.789805315632748 0 1 0 255
-40.797101727057736 -3.627678027266981 -7.084481266955549 1 3 0 255
-40.852100741616958 -3.139461913607462 -6.494335132823835 3 3 0 255
-41.160163983258180 -3.738919505066931 -3.064756778780804 3 3 0 255
-41.350815415708823 -3.849477088661232 -0.953099773686347 3 3 0 255
-41.324683952590746 -3.028477903004074 -1.275251758434194 9 8 0 255
-41.398006662714579 -2.640668387190573 -0.481772381547785 4 2 0 255
-41.372020715771690 -1.818900457286688 -0.803975680893359 5 3 0 255
-41.427414638653723 -1.356088291527740 -0.213277666890065 2 4 0 255
-41.509977895697617 -1.017361898234583 0.681822869027997 1 5 0 255
-43.843939771234844 -3.134475271042504 26.441109269404365 156 162 114 255
-44.053679177876923 -3.516281718759458 28.760226712410145 192 163 136 255
-44.055954689063199 -2.887799612324599 28.743925644468248 203 160 142 255
-44.184609752881947 -2.885146875382532 30.149435621923686 203 156 139 255
-44.241164261401842 -2.529730804957325 30.742578594870935 196 149 131 255
-44.369944267117027 -2.539421828977794 32.148371445959782 186 139 119 255
-44.408606205772237 -2.100846117602060 32.538520017260083 173 128 107 255
-44.429316554556699 -1.572382136418966 32.725517994125710 150 108 85 255
-44.387007611514534 -0.721860118947944 32.201343096540342 119 83 57 255
-40.709809385629278 -17.991537605665272 -15.921822513731342 185 146 123 255
-40.902236093897777 -17.954650912130873 -13.711844290908289 194 147 128 255
-41.042082227908502 -17.736119956946226 -12.109384992828097 159 111 95 255
-41.094256198079940 -17.201020460033334 -11.519796567383537 134 89 73 255
-41.111387720311249 -16.537958981949288 -11.335395850810755 155 108 92 255
-41.102248502475653 -15.776744904349911 -11.454943191049438 188 141 125 255
-41.101928862057910 -15.048242264775084 -11.473188440401941 198 149 134 255
-41.119203029248254 -14.386849747897642 -11.288777120161171 183 134 118 255
-41.154072704299693 -13.794181185902275 -10.901669030216965 170 121 104 255
-41.232857824857973 -13.374256722769033 -10.007779410596754 153 102 84 255
-41.276604269877417 -12.821472781654663 -9.519201458596285 145 96 78 255
-41.276539552397537 -12.097905503060673 -9.537378663642073 132 87 68 255
-41.258983209792433 -11.304332691676336 -9.758307694440077 118 75 57 255
-41.250255196390100 -10.544774052107954 -9.877903805731023 103 60 44 255
-41.276675272258267 -9.926492488890446 -9.592000671250048 96 56 39 255
-41.303152924844888 -9.309697358726666 -9.306072822402200 88 53 37 255
-41.294598425536215 -8.550272299161762 -9.425703717175793 78 47 27 255
-41.242241486957745 -7.608666493173246 -10.052378232358137 61 33 17 255
-41.207492598026150 -6.736792200537991 -10.476333403429237 58 29 17 255
-41.216669489422536 -6.046780853266085 -10.393280056852461 65 37 27 255
-41.243454693512604 -5.431354776372487 -10.107385394163941 40 15 9 255
-41.182584952819354 -4.443565980788136 -10.835768128055179 21 3 1 255
-41.165643799399056 -3.640050050317839 -11.057082372774858 7 0 0 255
-41.096143196461952 -2.607717505515211 -11.887106160748431 3 0 0 255
-41.061801482223771 -1.723612157166230 -12.311458341736682 0 2 0 255
-41.984414103781049 -4.325307761859364 -1.694924805964320 1 1 0 255
-41.994109176248955 -3.659690115005546 -1.611372076273256 2 3 0 255
-42.030185409647650 -3.112211245176965 -1.223393083740120 11 10 0 255
-42.092640317323031 -2.685305033161768 -0.530926090790672 7 5 0 255
-42.120088125046642 -2.102662536353648 -0.244352859359537 8 7 0 255
-42.130072179716187 -1.441201830810485 -0.160759142759730 4 6 0 255
-42.105060550392430 -0.618556290806580 -0.483198680824728 1 6 0 255
-44.601692545300104 -3.210222888570087 27.915138910973894 172 164 125 255
-44.674079061420358 -2.935375492193472 28.711664097950973 198 163 140 255
-44.807826164094109 -2.977617617399531 30.219601860905641 204 159 142 255
-44.915367397269378 -2.892669618539813 31.422847265717905 202 155 137 255
-45.014219020905863 -2.768614601905298 32.524601216840836 192 145 127 255
-45.025615630322150 -2.194659246423626 32.610084425100410 181 136 115 255
-44.975846239689211 -1.300037808848685 31.984022363960605 162 120 98 255
-44.952434657008496 -0.539980222341043 31.662804647036523 130 92 69 255
-41.564491186427716 -18.474244389143664 -14.561286719668715 197 152 131 255
-41.683022804508887 -18.185523770710091 -13.160743528960211 143 89 75 255
-41.759069090364591 -17.743097777690110 -12.266817576835194 114 66 47 255
-41.784120848443791 -17.110399225454472 -11.980976120837227 133 88 68 255
-41.766683281782420 -16.315345431022976 -12.201968494815048 99 53 37 255
-41.791829418270282 -15.684405830209926 -11.916103562726278 190 142 130 255
-41.817024771403830 -15.055011386930587 -11.630210602149191 197 149 138 255
-41.884808551542505 -14.595119131431389 -10.837325912657093 186 138 127 255
-41.910105948875575 -13.970146608348841 -10.551344210552259 175 126 113 255
-41.977994549057044 -13.517364795332455 -9.758303796738517 156 107 93 255
-41.994890038415448 -12.862386083887671 -9.573647984067748 151 102 87 255
-42.011839819599444 -12.208380287772258 -9.388979645454754 137 91 75 255
-41.994813613106828 -11.415566503596196 -9.610006127805491 124 82 64 255
-42.003367593012435 -10.727190958167711 -9.526774726650842 104 64 46 255
-41.994963824773038 -9.968258337379126 -9.646426374563077 92 55 36 255
-42.020650282586750 -9.351666343617453 -9.360319498204717 87 54 35 255
-42.029381403289619 -8.664502571493486 -9.277096570559422 81 50 31 255
-41.995636270429060 -7.796250202647343 -9.701181327320228 53 23 8 255
-41.936432882855613 -6.815975252922158 -10.429741450920744 53 23 13 255
-41.928339549193382 -6.052763865549309 -10.549568912354744 55 25 18 255
-41.945833629623628 -5.400156851277870 -10.364985054362592 57 26 21 255
-41.937873418850209 -4.636313524286919 -10.484857666654875 56 29 24 255
-41.955502038492433 -3.984682552110300 -10.300278844085824 49 34 26 255
-41.888135496502571 -2.954734208103474 -11.130711799290168 5 0 0 255
-42.171308903444618 -2.045360294677153 -7.836014569237875 2 3 0 255
-42.614542073645495 -3.352888128223341 -2.574816220482774 2 2 0 255
-42.675098293111461 -2.920982774348587 -1.882057542976838 8 6 0 255
-42.778245692181613 -2.690365309540255 -0.681508607375292 10 7 0 255
-42.830436037713334 -2.227095754228358 -0.090117882535878 10 8 0 255
-42.797664851572684 -1.365917665820120 -0.514238875518117 2 4 0 255
-42.781982404990337 -0.583016349200321 -0.735311530656986 0 4 0 255
-45.257737586277671 -2.805080269566886 28.272833313454697 179 170 132 255
-45.396051307410005 -2.891117142104136 29.883286701462850 200 164 142 255
-45.483487928295546 -2.715510199109858 30.883835413354632 206 159 141 255
-45.570994321919621 -2.544975403905013 31.884496308260509 201 154 136 255
-45.607651193935808 -2.106204003217883 32.275080713321074 191 144 126 255
-45.601966328040511 -1.440071043347729 32.157164501731273 177 133 112 255
-45.587896043798182 -0.726844753146608 31.937489182778165 151 110 88 255
-42.345255219761235 -18.703284305214353 -14.010227055383439 199 153 132 255
-42.394132629066860 -18.160611241117394 -13.420104389518428 153 99 85 255
-42.451299206740870 -17.653366014430603 -12.728494744430634 140 91 72 255
-42.475546089777424 -17.019802794699530 -12.442498099717682 120 73 54 255
-42.524567807956736 -16.486135918709849 -11.852180728430142 101 55 40 255
-42.557154887487584 -15.889539378600901 -11.464669632981042 167 119 109 255
-42.581549995314731 -15.261707024504801 -11.178561489548883 190 141 133 255
-42.622481625470336 -14.702592944914613 -10.689523933079556 189 140 131 255
-42.671708692763197 -14.179951215316649 -10.098974514970280 176 128 117 255
-42.720989614059803 -13.660455638663251 -9.508357836630296 163 115 104 255
-42.753839711191830 -13.075298788647089 -9.120616948870634 152 105 90 255
-42.753774104845945 -12.353511329675001 -9.138749211524271 140 97 80 255
-42.737279409463909 -11.561725676280091 -9.359866682062716 128 90 71 255
-42.737328211431461 -10.839158526412788 -9.378043696398606 116 79 60 255
-42.737436168069621 -10.116460848179230 -9.396236995765605 98 63 43 255
-42.770575357579581 -9.536634170818232 -9.008425648740115 86 55 34 255
-42.754319945949085 -8.742689445694879 -9.229650000518234 77 46 28 255
-42.721642933937133 -7.874923077911447 -9.653957332844811 46 17 3 255
-42.647819481743689 -6.822011799567164 -10.585966650142097 46 18 7 255
-42.648244497221498 -6.095570071880957 -10.604323775685316 43 15 7 255
-42.673462886603843 -5.480266183665762 -10.318081623883756 48 17 12 255
-42.665781400924160 -4.716896902162574 -10.438003587386049 54 23 18 255
-42.691136623794527 -4.103379162456903 -10.151746608196675 75 50 43 255
-42.667113661115494 -3.263777307522659 -10.474829778929688 17 2 1 255
-42.750298409873892 -2.918792999543044 -9.477604790027556 6 0 0 255
-42.882995155013020 -2.809770083457622 -7.870820737791291 3 0 0 255
-43.287688212144481 -3.987323972260313 -2.911673423291404 2 3 0 255
-43.272180955076813 -3.202104400943028 -3.132842872546860 1 2 0 255
-43.363866056761957 -2.926117820879412 -2.033333335884834 10 8 0 255
-43.455619109749186 -2.655853615910729 -0.933694868252701 15 11 0 255
-43.489769596347934 -2.112588262033398 -0.545186624833832 10 7 0 255
-43.532233891907580 -1.611318531646944 -0.055031695921969 1 1 0 255
-43.467683874623276 -0.587808320729479 -0.885921916326140 0 4 0 255
-46.026493214676464 -3.028195879969402 30.055404537295914 189 165 134 255
-46.160670359294606 -3.123307750329928 31.666995384701011 206 161 142 255
-46.237348614418288 -2.909860376279923 32.566539240443831 205 158 140 255
-46.289437250491289 -2.564283523589552 33.160911272095035 195 148 130 255
-46.275849085350174 -1.854977614180029 32.941228537265260 182 138 118 255
-46.287019276530742 -1.282426516928510 33.026796821665187 159 118 96 255
-46.290068900640733 -0.663596979594274 33.010568266518334 136 98 75 255
-43.114298433010312 -18.900601340250091 -13.559806877348763 191 147 123 255
-43.129670255840907 -18.231616572629235 -13.375168263018111 154 99 85 255
-43.200926724679185 -17.789321019183788 -12.480186134138194 132 80 64 255
-43.208417308599259 -17.091767004056521 -12.396951736109258 116 69 49 255
-43.239888021174615 -16.493020554741207 -12.009249292472646 130 84 68 255
-43.239500010341011 -15.764173345475854 -12.027488175578128 181 132 125 255
-43.295004900304839 -15.268471703081801 -11.335223037519597 174 125 120 255
-43.366518351110606 -14.843642892865674 -10.439858261548636 175 128 122 255
-43.414153480798269 -14.322012734036122 -9.848933471579016 178 131 125 255
-43.437910437996862 -13.701143886182109 -9.562509978219964 166 119 111 255
-43.453745261780718 -13.047394673036592 -9.377590098895439 154 109 97 255
-43.461658982623767 -12.359947743441055 -9.294194609405224 142 102 87 255
-43.445697180712223 -11.568107903672043 -9.515430582875808 134 98 82 255
-43.437772355659170 -10.810271356518683 -9.635159955324809 121 85 69 255
-43.445863555339685 -10.122721144700094 -9.551806075874254 108 75 58 255
-43.469971774975342 -9.507072330013244 -9.265328558519855 90 59 41 255
-43.454254719944025 -8.712797526704122 -9.486679550417136 74 42 29 255
-43.422647587594348 -7.844704134562392 -9.911230285458259 40 13 3 255
-43.367175370505940 -6.864598656467606 -10.640606334025449 38 16 5 255
-43.383567099325965 -6.212023611562216 -10.455779353406626 41 18 10 255
-43.400026839674005 -5.560352436972380 -10.270944598592166 47 19 13 255
-43.416555804453708 -4.909577296214636 -10.086102533221890 57 24 18 255
-43.441131725013641 -4.297334984679395 -9.799642181899799 80 46 42 255
-43.433873786792340 -3.534851810751164 -9.919634971675180 35 6 2 255
-43.466570233761459 -2.962548079773015 -9.531537164259134 23 9 2 255
-44.114377653854902 -4.651000913313666 -1.335597720049236 2 1 0 255
-44.155242875131187 -4.143322982157912 -0.845252393289513 2 2 0 255
-44.156308773573151 -3.441759665835363 -0.863124921772737 12 11 0 255
-44.189349230452429 -2.898120637679980 -0.474382066339388 16 12 1 255
-44.214492154061986 -2.316581412505997 -0.187274437702456 7 5 0 255
-44.223767029966837 -1.656232254309401 -0.103496883703258 1 3 0 255
-44.217178202543408 -0.915433876605491 -0.223091573136571 4 8 0 255
-46.488234219780580 -2.225982838118995 28.090204737982418 163 164 120 255
-46.665991603784107 -2.586038516829603 30.313387223238180 196 162 135 255
-46.827879883401835 -2.867201250591748 32.333237779107009 208 158 140 255
-46.926172252875617 -2.794534893724318 33.538825045269277 202 152 135 255
-46.937036093346457 -2.223975298817237 33.624510740649896 191 143 126 255
-46.955949714214263 -1.699620606913413 33.812006987081531 172 133 110 255
-46.967007346583912 -1.129539129162467 33.897662103629813 150 110 88 255
-46.970214476780768 -0.512894427105678 33.881453855129990 119 86 61 255
-43.741322557301608 -18.527388658093727 -14.936043162585634 188 152 125 255
-43.810134475801092 -18.078866255352580 -14.040680223940342 185 132 119 255
-43.917556283716614 -17.796323631613177 -12.637539552430496 149 96 83 255
-43.940199403598477 -17.163727566839441 -12.351166053037332 123 75 58 255
-43.986029346910598 -16.631010304265658 -11.760123191433195 136 88 74 255
-43.954788424118426 -15.771011795415191 -12.184550910648227 151 103 95 255
-43.993010217457886 -15.208609454026231 -11.695000349206225 146 99 93 255
-44.038998740993506 -14.682408263078315 -11.103828524104188 156 108 104 255
-44.100467894737903 -14.227067880779501 -10.309441313692162 155 110 104 255
-44.131142805162717 -13.639450173401642 -9.921284145685888 159 114 108 255
-44.185012968239413 -13.157076753909422 -9.228324573026043 154 113 102 255
-44.184951962833445 -12.435713229723305 -9.246447188781019 141 105 89 255
-44.192662788969010 -11.749167602655191 -9.162984439057766 135 102 85 255
-44.161870224315741 -10.887003429598323 -9.587565163977104 132 99 82 255
-44.185128640434620 -10.270882983291358 -9.300912700294987 123 90 73 255
-44.169886615713700 -9.477506722496472 -9.522345522792534 93 65 46 255
-44.162421923105931 -8.718918503017903 -9.642194939561250 78 49 37 255
-44.124173598280969 -7.814478443341287 -10.168618012397644 38 15 3 255
-44.070569356680899 -6.834049519588831 -10.898412811089997 23 6 0 255
-44.109581546487945 -6.291619500895592 -10.408533864148239 24 7 1 255
-44.140950165236802 -5.714615813878424 -10.020262336665098 43 23 16 255
-44.172388570269476 -5.139590399174338 -9.631956413236423 63 36 31 255
-44.180763491595158 -4.453607930636153 -9.548625486339290 61 28 23 255
-44.196923180982481 -3.805876274016626 -9.363625729684600 43 14 10 255
-44.228578923887937 -3.235384946321375 -8.975253588556541 19 7 2 255
-44.537888155958008 -4.051251139732656 -4.925997923016780 2 2 0 255
-44.731594009234101 -4.307680234009510 -2.401671333477282 1 1 0 255
-44.871390235161023 -4.304451260200679 -0.588951287254758 5 7 0 255
-44.911028718168424 -3.800243107705896 -0.098249064160825 12 11 1 255
-44.896780326648376 -3.021710675244805 -0.319527113727531 13 11 0 255
-44.851781454837216 -2.082581171381705 -0.947756821285736 3 2 0 255
-44.822287330810646 -1.220092314556567 -1.372631132333652 0 2 0 255
-47.116181641902074 -1.688751001303700 28.143499456920267 181 169 132 255
-47.403597186643360 -2.733935682956854 31.896077955169005 206 161 139 255
-47.498770948337267 -2.660332174558434 33.102327192314846 205 157 141 255
-47.517127857619613 -2.134668000448428 33.289912892957204 199 151 135 255
-47.535581134871876 -1.609658756202606 33.477493875793897 185 138 120 255
-47.592561003963922 -1.317156117334051 34.174543473711509 162 120 98 255
-47.580465967654789 -0.608212337882293 33.954541623800395 132 96 72 255
-44.382120606822966 -18.185939787943369 -16.212090245982210 181 154 127 255
-44.500663966933864 -17.958111707156291 -14.605181915170874 183 138 125 255
-44.619262225146258 -17.738868027294941 -12.998069828949042 175 125 114 255
-44.633657900745241 -17.073171575917442 -12.813133965396617 133 85 71 255
-44.670446187223661 -16.506804908066073 -12.323367958920812 128 80 68 255
-44.655156536752429 -15.711768303934207 -12.544832055539416 130 83 74 255
-44.714393680994149 -15.248696625136049 -11.750148579855306 134 87 81 255
-44.766239325936972 -14.756277908728038 -11.056996529673711 71 26 20 255
-44.833036930581009 -14.335254366662355 -10.160499447203108 61 18 12 255
-44.870101633016994 -13.782502819637344 -9.670451900458431 62 19 12 255
-44.914672341681033 -13.266741069681231 -9.078705950112749 95 56 46 255
-44.907168089177134 -12.511464609660024 -9.198463408846919 117 82 69 255
-44.929515139537358 -11.895263688142578 -8.911612632042591 130 98 85 255
-44.892341867529780 -10.998923277463703 -9.438068387126009 134 100 87 255
-44.899918113861595 -10.312593202907607 -9.354570634804077 127 93 81 255
-44.870320607566597 -9.447935835320209 -9.779476739574250 95 66 52 255
-44.870579713149375 -8.725028145124739 -9.797708544470993 82 57 45 255
-44.856011312119293 -7.929390289726996 -10.019346302351096 40 19 9 255
-44.774486991809304 -6.803490530796040 -11.156334644330798 14 1 0 255
-44.812189707765420 -6.260707158093354 -10.666176732697522 8 0 0 255
-44.872302842791825 -5.831745735687861 -9.870828240639582 8 0 0 255
-44.925038804026492 -5.369558768003714 -9.177111833890592 18 7 3 255
-44.948059973375571 -4.760405344806657 -8.890232058528795 57 37 30 255
-44.978601095478261 -4.190583824399383 -8.501598061678123 37 19 13 255
-45.083674481033981 -4.004543141051400 -7.095514974621437 7 0 0 255
-45.173925630026019 -3.748965601409822 -5.892758715032130 2 3 0 255
-45.256802042881198 -3.460943414731261 -4.791615443790079 1 3 0 255
-45.354639286803092 -3.256646108046226 -3.486819105376298 6 7 0 255
-45.580299644953584 -3.026639596186428 -0.469654375914956 9 6 0 255
-45.417831710569324 -1.450459303712066 -2.726772756451567 3 2 0 255
-47.839859456786421 -1.740453967149890 29.521996538722078 198 162 134 255
-48.021033001668599 -2.207245839299404 31.951948374590074 206 158 140 255
-48.128015666735436 -2.228579964519440 33.362825438838371 202 156 140 255
-48.131161436438830 -1.611821973251182 33.346627830359580 190 141 124 255
-48.201193624095268 -1.411949658852080 34.247973919134608 171 126 106 255
-48.219375287155103 -0.890039096985859 34.435692513132011 145 105 83 255
-44.999990641717844 -17.717797301779086 -17.895956143999229 175 165 131 255
-45.171737571598619 -17.741505105374713 -15.475071865239101 145 105 92 255
-45.278907808718500 -17.488049644604700 -13.968726202537425 163 116 105 255
-45.314314364584831 -16.917635342321660 -13.478758226952039 165 117 103 255
-45.371320796675072 -16.448162142154175 -12.683745338887206 122 75 61 255
-45.406835643586085 -15.883815662410171 -12.193648614809604 142 95 87 255
-45.456770793291199 -15.388709110164413 -11.500144175383639 108 61 53 255
-45.463667617179134 -14.695815871096571 -11.416662079026196 143 100 93 255
-45.542447477739948 -14.341872678816955 -10.316275644485415 105 62 56 255
-45.592555954183254 -13.857291193335783 -9.622544691739051 97 57 49 255
-45.657089560580182 -13.445167956819702 -8.725326171923768 89 51 41 255
-45.635490832700292 -12.621861624057431 -9.048532547007710 91 57 45 255
-45.649867314222909 -11.971470243079779 -8.863207674652926 109 77 64 255
-45.621210299142525 -11.110820324779226 -9.288219765618180 122 88 76 255
-45.621348603748018 -10.389761204289456 -9.306378540581136 121 89 76 255
-45.614370057935872 -9.632816067213056 -9.426293512865243 96 67 53 255
-45.607458853956423 -8.875179175236042 -9.546240679853838 84 60 50 255
-45.586251760745441 -8.044274245257228 -9.869724182759740 45 26 15 255
-45.543568991721571 -7.101914176854606 -10.498544236548014 15 2 0 255
-45.608690278778134 -6.708515397883644 -9.600984143222377 6 0 0 255
-45.566153699039454 -5.763361282961853 -10.229906578329235 2 2 0 255
-45.760686443422472 -6.047889640609128 -7.500218500679921 2 1 0 255
-45.689572142011059 -4.954231777201841 -8.536266167453562 6 0 0 255
-46.078125866687067 -6.281149919746525 -3.057723885043345 8 0 0 255
-45.807029602792092 -3.408234212932413 -6.962259645534346 0 3 0 255
-45.836761317572005 -2.846604982640983 -6.573241759879409 0 3 0 255
-46.183627106061529 -3.299769901676939 -1.722013349217491 6 7 0 255
-46.012578477566628 -1.647721037111737 -4.183989760412601 7 4 0 255
-48.359448224368727 -1.199656543023536 28.165163387715836 171 166 121 255
-48.620236265607531 -2.209562816372383 31.820289795480562 203 161 139 255
-48.723569569972391 -2.230777287877899 33.231966053760999 202 159 142 255
-48.748254282904668 -1.752198128411962 33.521762957457270 195 148 130 255
-48.815964097030751 -1.553035564129644 34.423637394313090 178 131 111 255
-48.826532055216767 -0.985194454097424 34.509456476800892 160 117 96 255
-45.887990077385489 -17.716681782848696 -15.735560946940325 46 12 1 255
-45.991181943666277 -17.462865687050865 -14.228349825801502 69 25 18 255
-46.025261201325378 -16.892115699798111 -13.738098523152644 193 146 134 255
-46.080146509343578 -16.422297955497228 -12.942628031994161 122 76 61 255
-46.135088317021989 -15.956725543702959 -12.147063227355829 140 91 84 255
-46.203922386472946 -15.562007756472710 -11.147934037814821 163 119 111 255
-46.217474768458715 -14.903982950020051 -10.962619926278933 164 124 116 255
-46.258755737007256 -14.382335242417071 -10.370298806130620 157 118 110 255
-46.320849592924390 -13.966183035695622 -9.472645274089132 144 105 97 255
-46.341498100021994 -13.348456553056650 -9.185459478200642 135 100 89 255
-46.348372723409469 -12.662919083293474 -9.101787568033785 107 75 60 255
-46.355310169585351 -11.977800042121970 -9.018118947725043 101 67 55 255
-46.341558645895049 -11.187493410109425 -9.239802237585991 103 71 60 255
-46.355543553242100 -10.537848611503946 -9.054372519354899 108 77 66 255
-46.369595203386048 -9.889141650871878 -8.868933894044289 101 72 61 255
-46.383714868095424 -9.241365289683870 -8.683486823200326 71 49 36 255
-46.377151833761907 -8.485666335625567 -8.803461802519507 35 19 6 255
-46.356825990256930 -7.656153499519633 -9.127104022623428 11 1 0 255
-46.481830582684026 -7.598133555602544 -7.312509997193274 4 0 0 255
-46.475483077595392 -6.844889013176427 -7.432470647009609 1 1 0 255
-46.254799021124647 -4.932589459175730 -10.709426456540143 0 2 0 255
-46.816530092329344 -6.551909873673225 -2.496303793470020 0 2 0 255
-46.817392947549472 -5.847963998565433 -2.514191589658083 0 2 0 255
-46.479488040893457 -3.259759709586959 -7.523485874869550 0 2 0 255
-46.861951753399765 -3.968725186503804 -1.956722626067517 0 1 0 255
-46.648806044210112 -2.048289212839848 -5.133121673533367 0 1 0 255
-47.044162638209826 -3.589896878768627 0.656577983292095 0 1 0 255
-46.651470164467618 -0.624169873868894 -5.169511529991610 0 2 0 255
-49.219483173137341 -2.211809410122129 31.688619853109998 191 162 132 255
-49.353626844326612 -2.461998121758896 33.611372098361812 204 158 139 255
-49.391360387877313 -2.076871857208928 34.105486940136444 201 155 135 255
-49.442965540745149 -1.786779607942535 34.803778608259506 188 142 120 255
-49.453336641382776 -1.220204208656810 34.889672785593262 172 127 108 255
-46.558180979214299 -17.468185809544238 -16.708477003430062 167 140 124 255
-46.710609333459942 -17.469913291711876 -14.386317131944395 152 113 105 255
-46.783275128813322 -17.094063932405973 -13.285137453697303 195 151 142 255
-46.836042052757158 -16.625791253156564 -12.489162454495840 170 123 115 255
-46.862257178604281 -16.029623720410882 -12.100239890704302 167 120 110 255
-46.895182176172469 -15.468838520237867 -11.609484330832686 167 123 112 255
-46.921513378471126 -14.877089704396099 -11.220476190617205 172 132 121 255
-46.967862181507812 -14.388942215329507 -10.526008440665521 170 134 122 255
-47.014272155418929 -13.904475078340496 -9.831461608409711 137 101 89 255
-47.047438756299833 -13.354910148032360 -9.340477065452319 78 44 31 255
-47.040751829756857 -12.599993432206901 -9.460405144296203 56 24 10 255
-47.047434552737542 -11.914265796262640 -9.376695831619202 69 37 24 255
-47.060835508470866 -11.264145357635059 -9.191149707388718 107 76 65 255
-47.074303232538405 -10.614968659114325 -9.005594533304873 101 74 62 255
-47.101144125674089 -10.038205348279021 -8.616321678035320 94 67 56 255
-47.114749033413872 -9.391435880781330 -8.430736138711381 57 39 27 255
-47.108467628146343 -8.636749441051066 -8.550747569778139 21 7 0 255
-47.108911256883587 -7.917903656586148 -8.568917814902989 9 1 0 255
-47.242467763945434 -7.935307092462736 -6.549470625230242 3 1 0 255
-47.196494511434636 -6.961873209855440 -7.280767003038306 1 1 0 255
-47.143949782753637 -5.947091612871418 -8.114076776559045 0 2 0 255
-47.531274958386064 -6.708898825023752 -2.239798459388396 0 2 0 255
-47.425755316526313 -5.395133201262311 -3.888327352725014 0 2 0 255
-47.340279222423518 -4.187808408855034 -5.231330951125074 0 2 0 255
-47.188399334045926 -2.586005229346071 -7.593839389863092 0 2 0 255
-47.056572607067828 -1.088444949649812 -9.650879905819238 0 1 0 255
-47.277240480910301 -1.660663279392793 -6.305193538727735 0 1 0 255
-47.458074609020386 -2.013344141796736 -3.570780788511001 0 2 0 255
-47.599082893996574 -2.141596528314793 -1.447766358693514 0 2 0 255
-49.865167642614033 -2.532786193478231 32.271684113773773 158 161 115 255
-49.894935841118119 -2.097499439794191 32.663870395294964 191 159 133 255
-50.004296686590791 -2.217083915943618 34.281531633749751 198 158 137 255
-50.027621359100202 -1.742224490740838 34.571721020464906 199 153 133 255
-50.031185082067154 -1.128614633116484 34.555510685733481 187 142 121 255
-47.277288420935385 -17.443395760824046 -16.969592820455773 164 135 120 255
-47.449169383771249 -17.573626905686694 -14.238804663822066 164 124 118 255
-47.544470080976943 -17.328472472342597 -12.729641140734543 187 144 137 255
-47.595120374496375 -16.862014086055297 -11.933155250234279 184 136 131 255
-47.607505053415395 -16.201605527852479 -11.747644384918033 137 89 80 255
-47.632722635206349 -15.608797467998855 -11.358418079484238 85 38 29 255
-47.683550182540010 -15.152350378938010 -10.561719455753916 60 17 8 255
-47.728051499000607 -14.666286313935259 -9.866793211381207 42 5 0 255
-47.779002731461361 -14.218015098186541 -9.069916223921268 44 10 5 255
-47.772527415388737 -13.464505374807473 -9.189855445330920 77 43 30 255
-47.785279286557440 -12.814299014415070 -9.004168799550428 110 76 64 255
-47.798096489416892 -12.165049330851332 -8.818472462867589 100 68 56 255
-47.823755730773129 -11.587139332879715 -8.428968686183964 104 76 64 255
-47.823932097822492 -10.869392238805617 -8.447052559339511 91 67 55 255
-47.817790485408395 -10.115762396926868 -8.567068155407128 70 48 36 255
-47.798945299695461 -9.289423521859234 -8.890956056084406 17 5 0 255
-47.831271758587803 -8.751518149732732 -8.399493696559205 8 0 0 255
-47.799799560267182 -7.850668086079949 -8.927316039965831 6 1 0 255
-47.908916659658814 -7.756952097613748 -7.212545473496903 2 1 0 255
-47.986169653792004 -7.486811176128285 -6.007298102706159 0 2 0 255
-47.999630449794388 -6.849370945997407 -5.821446335473127 0 2 0 255
-48.006783260365644 -6.175182500031141 -5.737550247042350 0 2 0 255
-47.905457733790037 -4.856972994861067 -7.387112815599323 0 2 0 255
-48.187352000062241 -5.820333855737445 -2.918448978306799 0 2 0 255
-47.863824886313175 -2.436318273108398 -8.155748332740473 0 2 0 255
-48.114003714679839 -3.237952744587901 -4.196270830494029 0 2 0 255
-48.352802869679806 -3.283202665277770 -0.458145152473094 0 2 0 255
-48.258489653851967 -1.987087345502204 -2.006275288545339 0 2 0 255
-48.234487818345656 -1.123372087859678 -2.432387747502503 0 4 0 255
-50.402382379096835 -1.458035760704234 31.102388946506096 182 169 133 255
-50.501230342741593 -1.527546779257406 32.618683812200004 198 162 139 255
-50.587431178750194 -1.512119357976971 33.930786502064478 197 153 133 255
-48.119330614898438 -18.057594524606017 -15.193299101857519 75 50 32 255
-48.216721922067535 -17.838420187781324 -13.581523561362701 152 110 103 255
-48.271319560643938 -17.400395556255219 -12.682772112679515 199 155 148 255
-48.332098492136410 -16.999918963057112 -11.682017027064603 199 151 147 255
-48.362325667278441 -16.439616863209920 -11.190656286228375 200 151 144 255
-48.392612607906493 -15.881930376229235 -10.699242923097074 190 143 135 255
-48.422960420985198 -15.326853472414157 -10.207777332598255 179 135 126 255
-48.459492897710895 -14.808220573455500 -9.614336602972458 162 122 114 255
-48.477720337518903 -14.190393091073261 -9.326621147461765 147 110 101 255
-48.489889044566702 -13.539694007779929 -9.140818698274529 128 94 82 255
-48.489877474301920 -12.820653851759076 -9.158893768334053 117 83 71 255
-48.514423584789348 -12.241175666626248 -8.769184729563392 104 73 62 255
-48.539037471106688 -11.663727931366196 -8.379439541097042 104 78 67 255
-48.551475036074457 -11.017377561478511 -8.193586859880270 62 43 29 255
-48.545615510616649 -10.264760213466943 -8.313639008863277 16 0 0 255
-48.521461367075908 -9.403432525407879 -8.739657960842464 9 3 0 255
-48.497382343608137 -8.539775650818754 -9.165751984519261 6 2 0 255
-48.546845139558179 -8.112333615974705 -8.368024136070176 3 3 0 255
-48.620869130433576 -7.836313778659957 -7.162214769609193 1 2 0 255
-48.664357691693930 -7.381170214383715 -6.466288519461216 0 2 0 255
-48.701800733986019 -6.892267636486963 -5.872300491012084 0 2 0 255
-48.714836934063747 -6.255896075581418 -5.686328521377334 0 2 0 255
-48.801402621345687 -6.075213172288045 -4.276042371404913 0 2 0 255
-48.869680845807103 -5.787389795959299 -3.171685128780666 0 2 0 255
-48.950275111150610 -5.582197696167469 -1.863120935967515 0 2 0 255
-49.196171122493134 -6.429140173933277 2.200855519105971 0 2 0 255
-49.111688582408959 -5.192279333176856 0.754472541232076 0 2 0 255
-48.892699415872329 -3.083882212021393 -2.937459594986137 0 2 0 255
-48.952191464192460 -1.328325304458488 -2.072908526199285 0 4 0 255
-51.036653275767925 -1.068413870707175 31.465259951781007 198 166 139 255
-51.220680816990068 -1.178413925809693 34.397706214920674 203 156 139 255
-51.321930856267699 -1.315066888749939 36.017579494544435 205 156 140 255
-51.374554425586382 -1.082499247745375 36.819511940033038 195 144 127 255
-51.390763434856211 -0.569019146424310 37.007876115531161 201 155 137 255
-48.910279197302152 -18.448066291487805 -14.128327588725881 122 102 81 255
-48.968294888939013 -18.038735806704594 -13.127187686323907 203 160 152 255
-48.991227355299394 -17.439817602810336 -12.737612683974817 200 154 146 255
-49.049361982892115 -17.039527303653671 -11.736271643934629 200 151 145 255
-49.084128184955119 -16.512450386668547 -11.142654945600327 190 143 133 255
-49.130670638355888 -16.055123303146161 -10.345036496955913 176 128 117 255
-49.136272152895344 -15.367052062800369 -10.261148434385632 171 125 114 255
-49.159509309168129 -14.780934928652741 -9.871318573259657 155 112 103 255
-49.171095107639225 -14.128656368088471 -9.685427699270804 143 103 93 255
-49.188603968640038 -13.511724073526238 -9.397531779606425 128 91 79 255
-49.194463853235057 -12.826994882375132 -9.313616488424600 107 73 61 255
-49.229680541063999 -12.317277412892309 -8.719662376549763 91 62 50 255
-49.259108392140405 -11.775480978003202 -8.227660671627916 50 27 15 255
-49.317894474206433 -11.413552726825458 -7.225498362031317 20 4 0 255
-49.318175391172957 -10.699572754928624 -7.243510506947530 14 2 0 255
-49.324387177828974 -10.021438680020424 -7.159506760978786 6 4 0 255
-49.301387490735053 -9.162317018180303 -7.585724023120235 4 4 0 255
-49.319465109679513 -8.556663931620093 -7.297669553702178 1 3 0 255
-49.337619565373799 -7.952456345541336 -7.009595632755008 0 2 0 255
-49.332425878645488 -7.201343853716850 -7.129756312313532 0 2 0 255
-49.356595266376630 -6.636277499898696 -6.739602130007597 0 2 0 255
-49.374988870803080 -6.035548120892685 -6.451493332030680 0 3 0 255
-49.498865768357724 -6.118418236978570 -4.325854051356600 0 2 0 255
-49.523273246141102 -5.563564787138034 -3.935495440180944 0 2 0 255
-49.659005804356411 -5.741049420867242 -1.605246734148864 0 2 0 255
-49.724553208358238 -5.466226509000890 -0.499962353967476 0 2 0 255
-49.749201494317035 -4.924241539554160 -0.109333146742586 0 2 0 255
-51.709360484663371 -1.005319960990519 32.544820041090730 205 161 141 255
-51.852969170218252 -1.506362339412973 34.983890485112113 207 159 144 255
-51.990792787160522 -1.973245589035471 37.320955395829827 209 156 142 255
-52.006428707013889 -1.461249844817843 37.509482866500406 210 152 140 255
-52.057090266132882 -1.234684126373352 38.311997497183256 213 158 145 255
-52.102028681572065 -0.964283015456147 39.012249708255666 205 156 141 255
-52.141250296843815 -0.649209232295746 39.610217054974498 206 157 143 255
-49.543863325043986 -17.975985340681405 -15.815746776003266 170 163 131 255
-49.621598953602316 -17.691376269257432 -14.406132443266927 191 149 136 255
-49.677028265514629 -17.284323381324711 -13.404366741230945 199 149 140 255
-49.743703981441023 -16.948106003331915 -12.198455522541337 195 148 140 255
-49.788072862931507 -16.486191850738706 -11.400474604368355 193 143 132 255
-49.838097185134679 -16.061807305437824 -10.500374919839430 182 132 121 255
-49.843443955362424 -15.373670144175279 -10.416432516725934 167 117 106 255
-49.865632720845817 -14.787478274731441 -10.026374077333514 157 107 98 255
-49.854330089944355 -13.998704587772451 -10.248557142431537 143 99 88 255
-49.882243594613641 -13.449368426836799 -9.756412112570104 126 87 76 255
-49.893446624998070 -12.798673579314411 -9.570397281895055 103 70 61 255
-49.921497294046105 -12.253683366277954 -9.078173140665115 70 44 34 255
-49.955210993065521 -11.746450048737969 -8.483826187025841 34 14 1 255
-50.050514945296456 -11.632364840397798 -6.766531324178857 23 9 0 255
-50.067593390256064 -11.027122017117549 -6.478246901828925 12 4 0 255
-50.056783827459903 -10.243346049169830 -6.700412703916129 4 6 0 255
-50.051643358751711 -9.494592674109114 -6.820525770564814 2 5 0 255
-49.996253056734083 -8.416249516956341 -7.859644854264729 0 3 0 255
-50.036006950621882 -7.958121230644736 -7.162972689555261 0 2 0 255
-50.008740321593869 -7.058593884845266 -7.691686246126324 0 2 0 255
-50.043062689630794 -6.567060189073686 -7.097078380978758 0 2 0 255
-50.071874673896680 -6.040948520033808 -6.604546960642551 0 3 0 255
-50.139902646971201 -5.782615081642419 -5.396974890567435 0 3 0 255
-50.208008504812334 -5.530571329573149 -4.189261810146888 0 2 0 255
-50.326500114304956 -5.630770471334671 -2.062003061271412 0 2 0 255
-50.411526574367009 -5.509867161462140 -0.547457219544981 0 2 0 255
-50.231222527159247 -2.111496062040160 -3.973069551582284 0 3 0 255
-52.251522879018466 -1.210025634718690 31.509022887482530 174 170 126 255
-52.394330687139600 -1.748674293149634 34.051633253038602 201 159 137 255
-52.503825822857920 -2.020783121647057 35.980354838615284 205 156 141 255
-52.580038376115837 -2.021387170885490 37.295056204499161 204 153 139 255
-52.628554729843572 -1.792708024872780 38.097989259778359 206 149 136 255
-52.660508020802645 -1.425536205899178 38.593826114714545 205 149 136 255
-52.703668621209182 -1.156112284984175 39.294493692836340 204 153 139 255
-52.719186364491854 -0.649917594737346 39.483192987186754 203 156 140 255
-50.317996402749941 -17.569548321065241 -14.971951015414334 184 149 130 255
-50.365455544922405 -17.128847725007446 -14.071697660076495 195 146 135 255
-50.439614313034447 -16.856691698526774 -12.660983976161447 192 144 133 255
-50.481872704288534 -16.393884530138834 -11.862561581721593 191 140 127 255
-50.534850460524403 -16.001895698913287 -10.859878248681014 184 134 123 255
-50.550599417202164 -15.380276303090639 -10.571713306816605 171 119 108 255
-50.566413645512142 -14.760175282139087 -10.283524539021585 154 104 95 255
-50.576966607410348 -14.107482664632968 -10.097417036885020 135 91 80 255
-50.608898830897672 -13.593250656266306 -9.502854435659856 118 80 68 255
-50.635572344578748 -13.047495941936802 -9.010346788773404 101 69 60 255
-50.662316135314157 -12.504315696510020 -8.517789864657686 65 42 32 255
-50.699786814822495 -12.034074759379237 -7.820920331821924 27 11 0 255
-50.785278432994836 -11.886584611084189 -6.204726767695774 19 9 0 255
-50.790928246938961 -11.211699941113849 -6.120517794608418 12 7 0 255
-50.823290559493365 -10.717187018880921 -5.525553971828629 3 7 0 255
-50.770493277465334 -9.645460044158568 -6.565076713539042 1 4 0 255
-50.744413997406596 -8.750838997736736 -7.093927922293005 0 2 0 255
-50.766358512123183 -8.184620366774695 -6.703313638274381 0 2 0 255
-50.756424658901850 -7.397890325616260 -6.925746208074145 0 2 0 255
-50.794511428589097 -6.946051051127696 -6.228549462194735 0 2 0 255
-50.768769436612217 -6.046315555970097 -6.757603397552828 0 3 0 255
-50.822999905660183 -5.712079092097056 -5.753743465449702 0 2 0 255
-50.866661128448321 -5.306713105046470 -4.954185294662125 0 2 0 255
-50.915730149010955 -4.943896599741493 -4.052327714426951 0 2 0 255
-50.943585743085642 -4.430890266924763 -3.559256575091069 0 2 0 255
-51.070263895699597 -3.222849859484839 -1.261851448448908 0 2 0 255
-51.034610264452475 -2.244288313884809 -1.995545201056473 0 3 0 255
-53.070852449207798 -2.491921841304134 35.560300916036567 197 159 134 255
-53.111848299280943 -2.208614294660649 36.261095296889977 201 152 135 255
-53.168813594417010 -2.069438376855786 37.269258137853484 197 147 130 255
-53.215290057966335 -1.840905374120084 38.072643275921649 199 146 130 255
-53.272435053489161 -1.711232330116744 39.081005529877416 200 147 131 255
-53.255686922683218 -0.918117969287124 38.655073561149067 200 152 134 255
-51.001303019519760 -17.351106676199691 -15.844576160972395 174 152 124 255
-51.066634658227770 -17.038347210357216 -14.535361323140080 187 141 128 255
-51.142156352124317 -16.798032087331507 -13.021728313938581 187 135 121 255
-51.197493912918524 -16.433659834539782 -11.916450994529214 181 128 116 255
-51.247834669523179 -16.041851658575666 -10.913183454453588 167 116 105 255
-51.267865160330771 -15.453989516063956 -10.522692576089469 154 104 93 255
-51.293025097301111 -14.902015880414822 -10.030008566693311 148 98 87 255
-51.318252941118523 -14.352634617043194 -9.537274308934684 125 83 71 255
-51.338486969902362 -13.771467876705245 -9.146659841078133 96 60 51 255
-51.358791276716786 -13.192339931456999 -8.756009563749728 77 49 39 255
-51.369041459919956 -12.545418834703611 -8.569690401207595 43 24 14 255
-51.409741189000400 -12.110540942395914 -7.770223203063608 22 10 0 255
-51.465702088093906 -11.786209433340019 -6.664076228986858 14 9 0 255
-51.511611303270307 -11.396231099537445 -5.762206944517516 8 9 0 255
-51.517096316191861 -10.723002246154806 -5.677920115475047 2 6 0 255
-51.512535463808895 -9.977614733490427 -5.798075971155697 0 3 0 255
-51.432126400509411 -8.683449845318364 -7.451631882368872 0 2 0 255
-51.473287911099007 -8.263830183794198 -6.651882581060761 0 2 0 255
-51.514529031714765 -7.848355305276982 -5.852046574338715 0 2 0 255
-51.555850620094439 -7.437018833418151 -5.052124211060345 0 2 0 255
-51.516281857187835 -6.427865492152904 -5.888144858979445 0 3 0 255
-51.491988601991665 -5.527835090309523 -6.417524669924092 0 2 0 255
-51.488029485478194 -4.777524130787754 -6.537936581070085 0 2 0 255
-51.560055419359237 -4.602976418074178 -5.124300056500715 0 2 0 255
-51.520863882824941 -3.584223484669408 -5.960644972649902 0 2 0 255
-51.803445938427302 -3.622645129882358 -0.388784095293488 0 2 0 255
-51.501687523879426 -0.537586379398888 -6.545118089926518 0 4 0 255
-53.648422713936803 -2.400496819006619 35.226204101885628 191 161 132 255
-53.747962408020129 -2.676196410188666 37.157204368622985 199 152 132 255
-53.792290332306273 -2.445816262443770 37.961015358832185 199 148 129 255
-53.846759421997994 -2.313749333705147 38.969905644866657 199 148 129 255
-53.856134432526801 -1.759478728202510 39.056328141346143 204 154 137 255
-53.865635477500341 -1.205245839693276 39.142723881195082 204 154 137 255
-53.885296498924177 -0.747087469339803 39.434138497948283 205 156 142 255
-53.955217745824740 -0.773068299912808 40.750860824070998 208 159 145 255
-51.573162194698199 -16.359739819177761 -19.170176924912823 136 138 96 255
-51.759787385814143 -16.882898432770119 -15.203730313996971 174 138 120 255
-51.845738745205679 -16.739370994146853 -13.382701379536229 175 127 112 255
-51.883781598259752 -16.275314401313452 -12.583383737874726 167 116 105 255
-51.926688691415798 -15.848776222088176 -11.681773689603347 155 107 95 255
