ply
format ascii 1.0
element vertex 638
property float x
property float y
property float z
property uchar red
property uchar green
property uchar blue
property uchar alpha
end_header
-21.024323706007351 -16.438322270804633 -25.017312528677508 211 181 157 255
-21.406531192695581 -14.764702465347824 -25.070778717468933 207 177 153 255
-22.294986797566935 -12.594852906172207 -25.101447442922186 200 170 146 255
-20.994641127485863 -12.525906097308422 -25.232948112430329 190 163 136 255
-21.004160236972382 -11.191824422959229 -25.304488117734699 184 157 130 255
-19.417834277170300 -11.410908222019316 -25.448374108592411 179 152 125 255
-19.859494265078240 -9.649086775221974 -25.500647897143963 176 149 122 255
-20.657238060618624 -7.525374733944346 -25.537577251720634 169 143 113 255
-19.434591140737695 -7.392817147439189 -25.664761936311841 163 138 108 255
-19.363415381145529 -6.118372510503093 -25.740850071137331 157 134 103 255
-19.719786258586169 -4.409989305665647 -25.798489257838334 146 125 93 255
-20.643719204442675 -2.119649844192850 -25.831966771368833 130 108 71 255
-20.634124043716781 -0.759856718657147 -25.906563496423509 114 100 61 255
-51.781531138578941 -10.992311654221368 -21.246981275994408 57 36 23 255
-50.106580208078469 -11.090876533245535 -21.410750042530211 74 46 34 255
-47.755740982057262 -11.793205700930258 -21.610537671831047 105 67 51 255
-46.770442785438945 -11.306588200282278 -21.735794433880585 152 111 94 255
-46.313819232951403 -10.354414219169087 -21.832452672703639 166 123 104 255
-46.006859898498078 -9.267362336506864 -21.921151984884425 163 117 98 255
-45.773635090048856 -8.111396214249424 -22.006042464481098 105 60 44 255
-44.790861709669628 -7.628216619017792 -22.130713241114812 155 115 98 255
-44.332243387325036 -6.673387778297666 -22.227566295625245 119 83 66 255
-39.925781206722263 -9.317671264140643 -22.531149770048614 48 19 13 255
-37.616700108835801 -10.076357708960387 -22.723443519545583 20 0 0 255
-32.725089514933927 -11.898411711450876 -23.119316287246058 16 0 0 255
-25.861682098681854 -16.953534251164655 -23.542391377016422 234 211 191 255
-23.298611848087830 -18.043137646934980 -23.742594576697236 214 185 164 255
-21.699936965420704 -18.244633179015835 -23.892729261172583 216 183 162 255
-21.059359903038455 -17.549532373662942 -23.993878465408521 215 179 157 255
-21.297400166920283 -16.019013093243814 -24.050801490131093 209 179 155 255
-20.947783912607747 -15.042874363869146 -24.137486678098604 203 173 149 255
-18.921459739560532 -15.677825220486881 -24.307596340301870 194 165 141 255
-19.082686497754963 -14.212098919905856 -24.368731306624831 190 161 136 255
-17.644910505048159 -14.293890858936095 -24.508839033124261 185 157 131 255
-17.513891153338761 -13.107496762265754 -24.584542106042406 183 155 129 255
-17.019940086242144 -12.273460381125432 -24.678090654739570 180 152 126 255
-17.894802100461476 -10.086575443408236 -24.705466326738005 173 146 120 255
-17.253530134579194 -9.390596523675981 -24.806478973270679 162 138 107 255
-17.975591728309752 -7.334383802745663 -24.842258424977750 156 132 100 255
-18.906655414157200 -5.054963854700816 -24.868788953213446 149 127 93 255
-19.831041951608540 -2.766550611181913 -24.896437871493873 139 120 82 255
-19.965012927116675 -1.264144537868049 -24.962005066455681 124 109 70 255
-53.212104681561129 -12.319964473187952 -19.991758629223000 70 47 38 255
-52.292811366949707 -11.753707479232020 -20.115876214064734 192 165 151 255
-50.464250274333835 -11.980809942767536 -20.292750539174669 186 158 139 255
-48.338030721508233 -12.479692529952473 -20.486246777578103 191 157 137 255
-46.596146480929690 -12.655400029076645 -20.656761543538096 189 148 129 255
-45.462371421012676 -12.304818346576667 -20.791708471225640 182 141 120 255
-44.932825776140078 -11.422717248185933 -20.891757820745667 173 130 111 255
-44.327945005914216 -10.607326422159446 -20.996094719370319 166 121 102 255
-43.198729059966013 -10.262915658192640 -21.130145258242948 153 107 88 255
-42.221350119489102 -9.786682052056591 -21.255310561625485 151 108 89 255
-40.499745264402179 -9.989776482056158 -21.422108916161058 171 127 110 255
-39.155208375842676 -9.859898128187041 -21.567184494125527 175 133 115 255
-37.071296380589956 -10.415886214792181 -21.753058924340522 156 120 101 255
-36.476050330386101 -9.613530796541198 -21.855525634538658 88 56 37 255
-25.325036965109121 -17.296296244999979 -22.607992588414966 230 201 181 255
-22.395928780723466 -18.732029771357418 -22.835500839194133 218 187 167 255
-20.872979709389142 -18.866453871680847 -22.985163575105773 215 184 163 255
-21.040180748208172 -17.409375059440350 -23.042669878068331 208 178 154 255
-21.204232089034292 -15.948057618514554 -23.100687880876244 202 172 148 255
-20.343471899021552 -15.460850381650431 -23.214070487627559 198 168 144 255
-17.736535081474614 -16.657886839972889 -23.420557150960555 194 164 140 255
-16.155863800732334 -16.882785842094734 -23.571372773132310 190 160 136 255
-16.102123473585891 -15.632671386580114 -23.640836919964912 186 156 132 255
-15.756887253049683 -14.662640578390523 -23.725876320075237 184 153 131 255
-15.266430863781522 -13.833365907238687 -23.818599806935715 181 151 127 255
-14.991763022311460 -12.790220199622581 -23.900081869118026 177 148 123 255
-15.434360438340377 -11.031421261592413 -23.944501391340211 168 141 112 255
-16.661073044977030 -8.478830577738734 -23.948990896182629 161 136 105 255
-17.307622083119583 -6.490212597284483 -23.984174044292352 153 130 97 255
-18.234235734867951 -4.206115891955051 -24.005690296088929 143 124 86 255
-18.655760996937062 -2.418939057932960 -24.053623133532547 131 116 77 255
-53.342778534429272 -13.409701706383572 -18.882381080915735 110 86 70 255
-51.738152277172787 -13.433058883265772 -19.050350928485429 188 156 141 255
-50.593782763676813 -13.067709652489413 -19.189251011417497 191 155 138 255
-48.541682020094072 -13.497031158841537 -19.383966849801666 191 156 133 255
-46.041730417701672 -14.331800656172987 -19.605532880874875 193 152 129 255
-44.607123222585642 -14.247998866536818 -19.760807187047625 191 146 123 255
-44.381773457037923 -13.103239219718063 -19.841755468968593 187 142 119 255
-43.778915704913800 -12.290558622821493 -19.945817057114823 184 140 119 255
-42.951035543495777 -11.679126971297421 -20.063476780188495 177 132 113 255
-41.375518616586305 -11.741792521931245 -20.226126173742550 157 112 89 255
-40.252507086829780 -11.405301194424879 -20.361049437748328 152 107 85 255
-38.908196224830647 -11.275077228331583 -20.508930224086221 167 120 100 255
-38.162248532519072 -10.605931678139825 -20.620713799564584 172 124 104 255
-37.045916152047596 -10.278466869125907 -20.754384818834275 176 129 111 255
-35.265387390022624 -10.569385771914597 -20.927050482432833 152 109 92 255
-30.312504486123260 -13.816162474949778 -21.285971943673118 122 82 64 255
-24.788871289999577 -17.639096266986854 -21.676171558531614 232 196 176 255
-22.524242421244765 -18.454799844019448 -21.873504571530063 217 185 163 255
-21.294903838117307 -18.311416818259886 -22.009737757193236 210 183 159 255
-19.702292097601912 -18.519299302572222 -22.166639187286620 201 174 150 255
-19.064453482356242 -17.827748703309567 -22.267933912699299 200 168 147 255
-17.770659497505619 -17.765688736056660 -22.406811054009850 194 162 141 255
-17.862755919162794 -16.376200919251374 -22.466072183952477 187 155 134 255
-17.080758599810963 -15.826723588615494 -22.575365376078715 189 157 136 255
-14.850920957692438 -16.689366632409616 -22.766521243604359 185 153 132 255
-13.929689852222140 -16.288593616472781 -22.882997673230562 179 148 127 255
-12.793791917351541 -16.103025551171044 -23.011301356076324 178 148 124 255
-12.596051107305186 -14.995627559915704 -23.086856393448457 179 150 125 255
-13.330178904992806 -12.957923834772259 -23.110742108792223 178 151 122 255
-13.986953226888460 -10.984144312806194 -23.139549097149448 171 146 116 255
-13.923566569896366 -9.721494058526702 -23.208631863371473 163 138 107 255
-15.426964347447040 -6.870696496230693 -23.192044962901335 149 128 93 255
-16.494179833711911 -4.441071953235451 -23.200314871091621 133 117 79 255
-17.625071546899534 -1.929100011861351 -23.205961497983694 121 110 70 255
-50.570390629826079 -15.629366402127232 -18.032634634361990 176 143 130 255
-49.504660532307298 -15.201437352213134 -18.168093370478417 177 141 123 255
-48.896639210439844 -14.381746617847682 -18.273262332891228 197 159 138 255
-46.848654045105263 -14.815405441946467 -18.472562853926014 199 158 133 255
-44.579987332759231 -15.455975364027012 -18.685541174679408 199 154 131 255
-43.224100684795985 -15.309457487726064 -18.838434460063127 194 148 124 255
-42.699867410563854 -14.434619403513665 -18.937122068304831 191 147 122 255
-42.100229895769985 -13.626271310460766 -19.040665095354690 188 143 120 255
-41.575638867264161 -12.750966670649376 -19.139345729226662 186 139 118 255
-40.377409533600712 -12.480748697510023 -19.281138940420000 159 115 90 255
-39.256493642108239 -12.146629923681331 -19.417679399817573 144 99 76 255
-37.914420177557417 -12.018779466973911 -19.567984530905200 155 104 83 255
-37.170332709966260 -11.352005224347124 -19.680043411236831 169 117 96 255
-35.981923021230955 -11.095054233185635 -19.820011985306934 187 134 116 255
-35.388269890390461 -10.294825961640129 -19.922292011448071 180 133 115 255
-33.022281276221349 -11.140545391708059 -20.135455165576424 173 129 112 255
-23.884741027223242 -18.325906111579542 -20.769902293213654 230 192 172 255
-22.211022706376525 -18.591674922919310 -20.936652530166782 215 181 159 255
-21.055788746260134 -18.379477875937653 -21.070756735121918 209 178 155 255
-18.146310303113239 -19.837613234621557 -21.312633623041343 202 172 148 255
-15.977675050685178 -20.613140844705953 -21.507861505577857 199 167 146 255
-14.909447167257042 -20.350118694122841 -21.634998019949506 197 165 144 255
-14.498042114446889 -19.459357086515922 -21.721857798360183 196 164 143 255
-12.634898234200762 -19.974195865303642 -21.896784214558949 195 163 142 255
-12.877172841946162 -18.451463914561032 -21.943882454684896 187 155 134 255
-11.743496659810489 -18.268367028835797 -22.074093766277642 182 150 128 255
-10.972861353288835 -17.734020229526919 -22.182239203036744 182 150 127 255
-10.131367025316422 -17.272287605796208 -22.294468544827119 184 153 129 255
-10.367534471659354 -15.741346407107216 -22.342518215899730 183 153 127 255
-10.313879320942874 -14.492237288350537 -22.408072845831235 179 149 121 255
-10.543776449555736 -12.952855347517641 -22.457152634580531 170 140 112 255
-12.409397578914650 -9.751521283179358 -22.410700707901135 157 134 100 255
-13.481969888389727 -7.330557918869857 -22.411748186224862 139 120 83 255
-14.831009672337274 -4.609772768656057 -22.397536383586100 123 108 69 255
-15.888304109899167 -2.168228011161602 -22.401160255161500 112 103 65 255
-51.842393301966240 -15.733830135166784 -16.856358621418316 153 120 106 255
-49.859382562853284 -16.085773838247405 -17.057700466154621 180 143 134 255
-48.262583728756340 -16.118022284354481 -17.231581511517501 107 71 54 255
-47.429096840484135 -15.498587694459587 -17.352154469898274 205 166 147 255
-45.384742765001135 -15.935930567250210 -17.556123984904410 203 158 137 255
-43.346593591279543 -16.381646286809087 -17.758985939148801 203 157 134 255
-41.993428910198929 -16.238156447202357 -17.914214218585236 199 153 129 255
-41.697173390038131 -15.166496462586451 -17.996855581943102 190 146 121 255
-41.099301472467573 -14.360519923141680 -18.100131256871929 190 143 120 255
-40.801233098415707 -13.286431260128325 -18.183019353320276 194 143 122 255
-39.679435009203360 -12.950663316587935 -18.321723653360635 166 116 93 255
-38.112300833216409 -13.022972204150960 -18.490173255587521 142 92 69 255
-36.996137824595962 -12.694815249414887 -18.627840853298821 146 94 72 255
-36.848054157903107 -11.486807920755041 -18.700408900492874 159 104 84 255
-35.956840040921065 -10.957705213114707 -18.822731537822513 182 130 109 255
-35.214923525562028 -10.293735223925268 -18.934950547150919 186 136 119 255
-32.997663884321810 -11.002284243312943 -19.144828760891606 184 138 121 255
-24.528040543085524 -17.568070277152088 -19.766783827443309 218 180 159 255
-20.281435947330010 -20.246858791476740 -20.107144674962797 214 179 157 255
-19.130447026172561 -20.039866954521983 -20.242778633718657 209 174 152 255
-16.445817983126773 -21.294871962336003 -20.478295842489132 205 171 149 255
-13.478650041482638 -22.841274672196846 -20.731167918442388 203 171 150 255
-11.396229798719219 -23.563558250727823 -20.925480183630160 209 177 156 255
-9.902053649336665 -23.734290769403231 -21.081017902788041 208 176 155 255
-9.137271316863803 -23.207614998416602 -21.189111112492007 204 172 151 255
-9.241742762018333 -21.835935341430400 -21.241311192681486 197 165 144 255
-9.559960766705871 -20.248201084824672 -21.280133126151021 192 160 138 255
-9.226144176856167 -19.294102277722033 -21.360849174234446 185 153 130 255
-8.675847460844807 -18.552384335827952 -21.455366051973147 183 151 128 255
-8.053933278232790 -17.882194747669416 -21.554375052513656 184 152 127 255
-8.219412174302562 -16.424717552165873 -21.603767423507740 180 148 123 255
-8.381756406360523 -14.963020347859896 -21.653676101084635 174 142 117 255
-9.181960603305185 -12.848592860157112 -21.664079522837575 161 134 104 255
-10.189313553298575 -10.509217599578648 -21.662239383825586 146 123 89 255
-10.906073289432811 -8.450382281452221 -21.679145115083003 129 112 73 255
-12.253770372918098 -5.729486209403007 -21.657733779665463 111 98 59 255
-15.427867007361698 -1.100937108920220 -21.525033460880948 101 97 59 255
-50.595674644043584 -16.644386509053476 -15.919646967511181 136 100 85 255
-48.539580908233006 -17.064667749188061 -16.131048841682706 189 151 142 255
-47.477945691951049 -16.641484640663236 -16.269186622329165 117 80 65 255
-45.280436180589334 -17.207155332687307 -16.489781670392389 202 158 141 255
-44.452309417254185 -16.594757151664680 -16.610257295087003 203 158 137 255
-43.020935484881363 -16.513192148837419 -16.774253553388188 205 158 138 255
-42.120788574380811 -15.971726721779589 -16.899521596223298 203 157 133 255
-40.469887586984157 -16.098256013062269 -17.078628245912679 193 149 124 255
-39.724168745833026 -15.428974121236081 -17.192317916251028 196 149 126 255
-39.128936709253594 -14.626555004297188 -17.295143427267519 196 145 122 255
-38.384319795719875 -13.958773083412524 -17.408579380974235 171 114 92 255
-37.043904857484449 -13.831865859455206 -17.564251359237414 145 89 68 255
-36.376415893019498 -13.100066304456391 -17.671883920131080 138 81 61 255
-36.229008335304627 -11.893340512455097 -17.742716524434222 143 86 67 255
-35.709338724764848 -11.024814420498217 -17.839916774009026 162 110 89 255
-34.376326785465153 -10.907914325469932 -17.994190449078140 187 136 119 255
-32.530330431486277 -11.275520899638764 -18.183980639406439 187 141 125 255
-19.675919422909544 -20.659865607452133 -19.198568342162176 214 179 159 255
-16.108307896313875 -22.738763045139393 -19.503739722037324 208 174 154 255
-13.869998086804912 -23.585557338422944 -19.715724026622656 209 174 154 255
-11.420348912795134 -24.651472774679775 -19.941451525302217 213 178 159 255
-9.634259222753144 -25.099868107737336 -20.120762093320742 218 183 164 255
-8.579996187511199 -24.854767235911737 -20.249441845610022 218 183 164 255
-7.528074313644538 -24.612827516919623 -20.377694925122377 218 183 164 255
-7.201524622492713 -23.668691246707027 -20.456428759168574 216 181 162 255
-7.162657469433412 -22.440355107540483 -20.515765367268472 203 169 148 255
-7.265577664956680 -21.067153130993631 -20.565745308064308 193 161 138 255
-6.575670670857221 -20.473228637579922 -20.669274473575001 188 156 133 255
-6.316443152975097 -19.451863403088140 -20.743865526611174 187 155 131 255
-6.127510640151712 -18.357260650175732 -20.813870936701335 185 152 127 255
-6.222396974895361 -16.973249867223046 -20.865144842699870 177 144 119 255
-5.958601168485501 -15.945741615880962 -20.940457743241701 166 137 107 255
-6.616777499317323 -13.977054533130485 -20.955016214187303 153 129 96 255
-8.119791218183281 -11.131212134104544 -20.914559007557639 136 116 79 255
-10.320463191452518 -7.545818179054834 -20.829345921692806 117 103 64 255
-13.072904790725602 -3.360215863395808 -20.709414986816498 100 93 56 255
-52.709211052735952 -16.037215069754723 -14.672738724008092 215 191 175 255
-50.265830801564789 -16.773898618439432 -14.919853342415305 112 78 68 255
-49.048420911980031 -16.476209334536691 -15.072020937693704 182 145 135 255
-46.694062728305653 -17.164975494235051 -15.310988600359792 80 39 26 255
-44.953688899476731 -17.337905864447606 -15.502294127362799 192 148 130 255
-43.218224988873658 -17.517463004574125 -15.692717279608772 205 158 138 255
-42.770956239072177 -16.578586540416325 -15.784756903320332 205 157 137 255
-41.042566222015182 -16.767694883788266 -15.973892252259095 198 150 128 255
-40.296219482158790 -16.097424033942417 -16.088313645936502 198 152 128 255
-39.175572783029338 -15.762289227777927 -16.230838557442102 196 150 123 255
-38.655978153367982 -14.893883419564730 -16.327941863690878 192 143 116 255
-37.762733872592662 -14.361490159881953 -16.453037052827657 161 103 79 255
-36.721817871090138 -13.965916559584770 -16.589002214953883 137 79 57 255
-35.980333700502683 -13.302235627803583 -16.702431419591015 128 70 49 255
-35.981505487542677 -11.960290703594296 -16.760588478630023 131 74 55 255
-35.610004940393821 -10.955675529694190 -16.846569891613381 137 82 62 255
-34.720517066443847 -10.428379730675971 -16.970869509475541 185 136 119 255
-32.874182990604879 -10.794444175457329 -17.165471576608574 186 141 125 255
-12.393247869913836 -24.834575227041739 -18.891040747306334 214 179 159 255
-10.093528363019118 -25.765064945573670 -19.112724526758036 218 186 165 255
-9.110957897676627 -25.448209145788724 -19.238332954239123 221 189 168 255
-8.275562494607584 -24.993876442290230 -19.353103453766135 222 190 169 255
-7.586374619603617 -24.400762545208750 -19.457203071263947 223 191 170 255
-6.608891941298396 -24.090780595875913 -19.581866471672583 219 186 167 255
-6.138091019308519 -23.288251290929338 -19.670108669713642 215 181 161 255
-5.451253020877687 -22.698320084859120 -19.773737293280682 211 176 156 255
-4.765146353559061 -22.109379523706821 -19.877218789520775 202 167 145 255
-4.222993155961234 -21.378618965062458 -19.970419479399848 194 159 137 255
-3.895276238744771 -20.433112278049066 -20.048466681493981 188 153 131 255
-3.851833855827010 -19.199064568880544 -20.106598405702368 179 145 120 255
-3.806224823577850 -17.962100998426195 -20.165082763053427 170 139 111 255
-4.610041048217283 -15.854924564260131 -20.164445194987387 158 132 100 255
-6.186678586474670 -12.942210847077206 -20.110610494721676 146 123 86 255
-9.166616353747600 -8.562414605089032 -19.960383177764545 125 107 69 255
-11.073302854532727 -5.254934843993624 -19.885985218329573 108 95 58 255
-13.461063690081858 -1.420391786277150 -19.779568462594483 90 83 46 255
-55.134164745869782 -15.181174758128435 -13.387748199639145 3 13 0 255
-52.301704381400384 -16.231208806207491 -13.673657868235612 222 200 183 255
-49.783677279773997 -17.033614505539958 -13.933320948165104 115 79 69 255
-48.186841185390904 -17.063312485084026 -14.118143629232200 182 144 135 255
-46.670190789490846 -17.033235389087849 -14.296107780993065 98 59 45 255
-44.778659923042824 -17.337195308538242 -14.503659796342614 171 129 111 255
-43.799909674996741 -16.857108284082670 -14.637830267287448 204 157 137 255
-42.596515142944327 -16.577829029393399 -14.789692549322940 211 162 142 255
-41.395769090179897 -16.302127331314011 -14.941065818182395 166 116 93 255
-39.746973279560223 -16.429703938350173 -15.127640402152693 201 153 130 255
-38.252679598426198 -16.429809438360820 -15.301550002271217 200 153 126 255
-37.659850921187569 -15.630612369517252 -15.404038482176755 197 146 119 255
-37.141720993668741 -14.764242180510252 -15.500621590334816 153 95 73 255
-36.623336794658655 -13.897535833188414 -15.597219672294166 130 72 50 255
-36.030391999027188 -13.098202092541584 -15.699641329378458 120 63 43 255
-35.659959513863839 -12.095200124888208 -15.784679949476210 118 63 43 255
-35.288631748226805 -11.090997675620628 -15.869845122203323 105 53 32 255
-34.399647198547996 -10.564116661947139 -15.995211279908080 189 141 123 255
-16.559812489613989 -23.280342719366843 -17.537481626514946 211 176 155 255
-12.159475825581012 -24.903014292846024 -17.980986269134142 221 186 166 255
-10.298169940897338 -25.415712648815543 -18.175793565045758 221 189 166 255
-9.387762874580716 -25.027868555197216 -18.297672359514515 224 192 171 255
-8.406519982346197 -24.712416686060607 -18.424738553658077 224 192 171 255
-7.644406323479586 -24.188734722290434 -18.535011452674869 225 193 172 255
-6.233466582048521 -24.301304007889200 -18.694101086257106 225 192 173 255
-5.474909378684771 -23.782425846643548 -18.803718396484630 223 189 170 255
-4.429861468424377 -23.548857896550260 -18.934697866254666 218 183 163 255
-3.889230947401273 -22.820133017514536 -19.027709898508544 209 174 152 255
-3.205560715944557 -22.234342625237190 -19.131358045905156 202 167 145 255
-2.951036887792043 -21.219803846880751 -19.203013057428855 195 160 137 255
-2.766553408999187 -20.131810316452061 -19.269575064195248 185 151 126 255
-2.864867414086007 -18.753537645957778 -19.315369947256254 173 143 115 255
-3.244046277731030 -17.082380812788415 -19.340730223317525 163 134 103 255
-5.600339286589588 -13.375917218526808 -19.221258102793207 149 124 89 255
-8.014111653550799 -9.579068060658983 -19.098852451547732 132 111 74 255
-9.850965773741024 -6.347527616680310 -19.019871106944464 113 96 61 255
-11.747239891173479 -3.028217356239452 -18.937622674816875 93 81 47 255
-52.047208449240031 -16.295483704197551 -12.663207190419982 216 200 177 255
-49.911518137080861 -16.772637749761884 -12.897532870527264 177 140 129 255
-48.390674473859178 -16.736132353139396 -13.079612961694508 183 141 132 255
-47.253159754334092 -16.377311281622525 -13.229193053044042 181 138 126 255
-45.436516325392006 -16.613324189455597 -13.435304354312024 192 148 132 255
-43.322888367434246 -17.120250849630310 -13.665683892530705 170 121 102 255
-42.346685499521641 -16.643280263264387 -13.800803508339389 205 154 135 255
-40.394154833537357 -17.031760816983933 -14.016791775829752 134 83 61 255
-39.123134921709209 -16.828632444409749 -14.175776669892777 204 156 133 255
-37.780182506737788 -16.696356408403688 -14.340407313270507 199 152 125 255
-37.486974761688430 -15.629797909021306 -14.418179796514202 198 147 121 255
-36.819619257521765 -14.897946479924428 -14.526803069704840 145 89 67 255
-36.673615238471029 -13.694210425261616 -14.592592426014363 122 66 46 255
-36.377220533353523 -12.623374704693873 -14.670832138019207 111 54 35 255
-36.672400875402900 -11.007504822695978 -14.700858594693344 106 51 34 255
-36.224399717159599 -10.067936645837619 -14.791731750378599 95 44 25 255
-34.890515010012791 -9.947928996578526 -14.954601721847492 179 134 115 255
-20.994360951576994 -20.247071544869840 -16.187062418500513 219 183 161 255
-17.129920233274106 -22.589259984784235 -16.550730434244670 211 178 156 255
-14.377044446141440 -23.912686600786571 -16.823619262750892 221 188 165 255
-11.925811379531723 -24.971491157943660 -17.071382285973538 220 185 163 255
-9.847089836644130 -25.693394102516294 -17.288528058748931 223 188 166 255
-8.937559619013712 -25.306404369774498 -17.411688626350298 225 190 170 255
-7.957241038318813 -24.991807375851266 -17.540305987892093 224 189 169 255
-7.123587587915779 -24.539298897527715 -17.657067641978053 225 190 170 255
-5.786178658292386 -24.582406060911097 -17.813578782231630 225 190 171 255
-4.956404915341381 -24.135136817596305 -17.929630477084498 224 188 169 255
-3.912490925585161 -23.902642421314056 -18.062404340706621 221 184 165 255
-3.516019296641304 -23.032610756085916 -18.144066644407935 214 178 156 255
-2.761408739105946 -22.518864423346400 -18.253826863422272 206 170 148 255
-2.507339230516692 -21.505178768198533 -18.324350803375069 201 165 143 255
-2.109681671858169 -20.633561566885135 -18.406160288421134 194 158 134 255
-1.995600174542290 -19.472967546159310 -18.465962761766701 187 152 127 255
-2.163161867713995 -18.020791298950940 -18.504091016358998 174 141 113 255
-3.105407028615986 -15.766978772018319 -18.482618108882239 158 129 97 255
-6.157456965702750 -11.322877662124938 -18.299136890748223 143 117 83 255
-7.574243491253441 -8.534084513586151 -18.242882816676783 121 99 66 255
-9.473697969158849 -5.221260588560710 -18.150467458014560 99 81 49 255
-50.343603313012466 -16.251324310819030 -11.832765895938202 205 176 158 255
-48.670031889454663 -16.343667547621038 -12.031641365496540 191 151 139 255
-46.849382809552765 -16.573251568335650 -12.242944954646617 195 151 140 255
-44.806959035011289 -17.007131697181251 -12.473107030160207 134 88 74 255
-43.223786864033229 -17.053609499587992 -12.662743014632209 164 115 100 255
-42.096955331630227 -16.708760311154208 -12.812357772063702 187 137 120 255
-40.671713137340362 -16.632648245196151 -12.987598441201509 132 81 63 255
-39.325114591720308 -16.494807855127050 -13.155697834170216 184 136 114 255
-37.832094060784186 -16.495091473506164 -13.336115015398025 197 150 126 255
-37.090009844426334 -15.830173856791021 -13.451518828494311 198 148 123 255
-36.497714730599455 -15.031684152251501 -13.553967273239465 153 101 80 255
-36.426117934801539 -13.760872488713659 -13.611756284755920 107 55 34 255
-36.574971021207205 -12.283991855902315 -13.650858421897205 105 52 34 255
-37.016873648616809 -10.531159323848954 -13.665206402406444 97 47 30 255
-36.863201576880158 -9.317474523050180 -13.730621734914632 81 34 16 255
-34.864442686298503 -9.810296463075218 -13.952898965345245 158 115 96 255
-15.501767253929700 -23.968621879195979 -15.743885625731910 221 189 166 255
-13.118945612966854 -24.950235356044089 -15.993574286326165 223 190 167 255
-11.473491200624977 -25.248353634215135 -16.180601402656158 223 188 166 255
-10.196760336053416 -25.204780559391253 -16.336280295050145 224 189 167 255
-8.995937900622209 -25.095789839890983 -16.485299302797774 224 189 169 255
-7.725666127849536 -25.060933413562111 -16.639821764720089 225 190 170 255
-6.603256678474196 -24.889905781600305 -16.781729008817173 222 187 167 255
-5.411398956897841 -24.793013638525082 -16.929140573541108 221 186 167 255
-4.510342212185549 -24.417137048383921 -17.052192140217816 221 185 166 255
-3.539192939925528 -24.114527275929817 -17.180860042716418 220 183 164 255
-3.286369400573989 -23.102753382689940 -17.250153622512972 218 182 160 255
-2.532059929832229 -22.589210747408373 -17.360746144864088 213 177 155 255
-2.206653703579718 -21.647351007479728 -17.436067581615660 206 170 148 255
-1.524636633402395 -21.063519588398776 -17.540609361723014 198 162 138 255
-1.127296635642494 -20.192448355954724 -17.621848455620167 193 155 132 255
-1.012700512055403 -19.031531405179521 -17.680117960146433 184 149 121 255
-1.461568381875537 -17.288191189392165 -17.692813847037286 176 141 111 255
-3.245557959766217 -14.157404805537624 -17.597829640863512 156 126 95 255
-5.511397971437191 -10.501928069205547 -17.464890016658682 139 112 82 255
-8.255709925559700 -6.317207126536630 -17.294575912455880 121 99 68 255
-11.755192296589257 -1.305243829077710 -17.064974147883632 80 66 34 255
-52.677631835439172 -14.102781254991186 -10.589811963743063 207 191 163 255
-49.784232318737907 -15.232835134127697 -10.904189993800987 181 149 133 255
-47.582654285216222 -15.786322094509728 -11.154787263540872 189 150 137 255
-45.236684132383346 -16.480543446727609 -11.417902895480040 198 153 141 255
-43.577359295500230 -16.591218932640714 -11.618136627998474 118 70 56 255
-42.374416355592473 -16.311003107645519 -11.776679749156266 171 122 107 255
-40.798438424581605 -16.366360781956445 -11.968652886739509 117 68 51 255
-40.126431574114235 -15.628075038684329 -12.078796680505381 162 115 95 255
-38.631865189895393 -15.625505252516916 -12.262846327499869 193 147 125 255
-38.111719440558886 -14.756573490571526 -12.359095760142498 194 146 124 255
-37.218868642424638 -14.223659691792989 -12.488719629415769 156 108 86 255
-36.699023450518155 -13.355144987729545 -12.584865168599976 105 57 35 255
-36.401427146666663 -12.283176397570827 -12.661182571804847 96 48 28 255
-37.212687465045860 -10.190695936870327 -12.638874461265313 83 37 19 255
-36.688700140334618 -9.316614504120025 -12.735660370326578 139 95 76 255
-34.322421537274408 -10.151224596359498 -12.995752359050076 221 180 159 255
-16.922314154199881 -23.753904435996759 -14.632100572737649 215 180 155 255
-14.095106301917809 -25.140988799278233 -14.928368480689883 219 187 162 255
-12.008347430257857 -25.849365723664675 -15.158672554084724 222 190 165 255
-10.948688895493632 -25.594705445791163 -15.298281926274743 224 190 166 255
-9.891371147548824 -25.343205442867315 -15.437466321564461 223 187 165 255
-8.981497542123833 -24.955097238208310 -15.563553402172019 223 187 167 255
-7.349422046668678 -25.270304069236147 -15.752412364501399 224 188 169 255
-6.155642712176615 -25.170235621149459 -15.902718071198393 223 186 167 255
-5.397255021966174 -24.650976444040907 -16.014971990696679 221 185 166 255
-4.639920727773358 -24.133141595924286 -16.127025265587079 221 183 165 255
-3.740151784924393 -23.758676806675908 -16.251272554635630 220 182 163 255
-2.913666214183166 -23.315318303867002 -16.369039151287794 218 180 159 255
-2.017137030727497 -22.945228915054059 -16.492691994384781 212 174 153 255
-1.407351897713369 -22.290939081735246 -16.591578889275521 206 168 147 255
-0.655780070984690 -21.780892347808788 -16.702549847031197 200 162 139 255
0.023795761282997 -21.200216153469484 -16.807263649151036 197 156 135 255
0.136418635341528 -20.042325666132797 -16.863589900049917 190 153 127 255
0.180266963546529 -18.809463194000728 -16.914214450399047 183 147 118 255
-0.971455563370768 -16.337609310435766 -16.863618962368580 171 139 108 255
-2.888772646032010 -13.053259216441802 -16.748901511167340 163 133 105 255
-5.355974183512558 -9.168687417088819 -16.588735189927256 153 126 98 255
-51.124530655201966 -13.926097824771347 -9.745922792234772 169 151 130 255
-47.936114204885939 -15.327048294901260 -10.095905241650051 132 98 85 255
-46.119111329215343 -15.559510990624943 -10.315486763758372 159 123 106 255
-45.061478175503112 -15.139409872257744 -10.463049926377767 137 101 85 255
-44.306852932557376 -14.457289181312206 -10.581918263076869 193 155 137 255
-43.027308280915861 -14.240924804808571 -10.750003427650231 177 135 116 255
-40.027394309637089 -15.560774794350891 -11.079105243900376 125 82 63 255
-40.626680066613801 -13.686580532705904 -11.070556674938864 174 133 111 255
-39.355743394379033 -13.481838945278696 -11.237073635462224 172 128 105 255
-38.087786754099398 -13.281120673911516 -11.403049553111778 156 114 90 255
-37.565623506848624 -12.409534491070076 -11.499361803343039 113 72 53 255
-37.043209682240388 -11.537616102057058 -11.595692884631756 87 46 26 255
-36.372631329157343 -10.801218237447415 -11.705755437575341 140 99 77 255
-36.292822749438756 -9.520220218465198 -11.761097715876630 228 190 169 255
-15.952936837664737 -24.509845010707465 -13.777269570930397 213 181 156 255
-13.348413412983234 -25.692272543958438 -14.061463337413876 215 183 158 255
-11.920829381479422 -25.779291964802695 -14.237039385094317 218 186 161 255
-11.371124747022009 -25.038251696339387 -14.331981002072588 220 186 161 255
-10.894166322116121 -24.227657402877497 -14.420255569367786 222 186 164 255
-9.764430061388879 -24.045707821388987 -14.567998279649665 222 185 166 255
-7.986275533362715 -24.498279777230266 -14.774456952241209 224 187 168 255
-6.574599092151516 -24.606766077636735 -14.947187848195185 223 186 167 255
-5.887079816596582 -24.015215194034255 -15.054001250862857 220 183 165 255
-4.840998845384689 -23.778430069740438 -15.193139053740527 218 181 162 255
-3.940657771137211 -23.402865358878501 -15.318922556374588 217 179 160 255
-2.541265456742337 -23.527927444735496 -15.489462167335684 215 177 156 255
-1.574080459979513 -23.229885616368051 -15.620840120122146 208 170 149 255
-0.680133076722996 -22.862951353020577 -15.745469898558611 204 166 144 255
0.283164470663309 -22.570157325765308 -15.876144736141729 200 162 139 255
0.889981571579483 -21.919799829643949 -15.974819820562576 198 157 137 255
1.354925067312308 -21.125450419305650 -16.060809661997531 195 155 131 255
1.890667514642416 -20.403288028975766 -16.153095441331764 189 152 125 255
2.074278465440869 -19.317699640743029 -16.214131894127533 182 147 118 255
0.011513537850504 -15.896372703136592 -16.076504049001091 175 144 116 255
-1.969342989768450 -12.532257580854974 -15.947086050693940 167 136 109 255
-49.651337028195655 -13.688317168487089 -8.899365828659334 74 57 39 255
-47.906561201589625 -13.849562213361793 -9.116585136388856 167 141 125 255
-46.995727144704119 -13.291843337268972 -9.251774659065479 50 24 7 255
-45.860635025656393 -12.934501170074640 -9.408751769477355 153 124 106 255
-44.352657358632769 -12.912299788307365 -9.601906748773672 193 162 141 255
-42.174698572101136 -13.494982274588580 -9.859992422670238 177 143 121 255
-42.693489189995091 -11.680841306492823 -9.855314531420543 175 139 115 255
-42.014577273745147 -10.933113002732142 -9.967237212140596 156 121 97 255
-39.029791295295922 -12.271338001593563 -10.302554817931622 142 107 82 255
-40.509468329089543 -9.574246824527961 -10.205167796195720 120 85 66 255
-38.498763363785827 -10.047304513610953 -10.445516363739273 120 88 66 255
-18.109147261066738 -23.613266252307966 -12.585926108921779 208 176 155 255
-15.131140366992383 -25.128233802893760 -12.914250554287005 213 180 159 255
-13.625929983491716 -25.277394034039190 -13.100986088212199 213 178 156 255
-12.416763213065678 -25.155397410402060 -13.259131496562404 213 178 156 255
-11.865601913876617 -24.412382364358763 -13.354373211173723 216 180 158 255
-10.951429923008106 -24.017819240989695 -13.484091027997351 217 181 159 255
-9.749127112062865 -23.905089020265621 -13.640992740280094 219 184 162 255
-8.043744815750415 -24.287112564306568 -13.845282410736914 224 189 167 255
-6.487880003489209 -24.535575725148618 -14.035010968662867 220 188 165 255
-5.224509986645813 -24.508097286105169 -14.196765352648683 219 184 162 255
-4.179887318391621 -24.272822712328292 -14.337642807759803 216 181 159 255
-3.065960037377380 -24.111686751188103 -14.484833126291260 215 179 157 255
-1.954701324203683 -23.954151920522861 -14.631546300117051 212 173 150 255
-0.632128856129810 -24.014441686435475 -14.797819899318888 208 167 145 255
-0.167188942256530 -23.220136844801118 -14.883635312187867 204 163 141 255
0.866024255778797 -23.000261182070176 -15.022462821381559 200 163 137 255
1.613514221876557 -22.495314914028455 -15.134487731427548 201 161 136 255
2.218580136156760 -21.847245151326092 -15.233179589175005 196 159 133 255
3.105318202677381 -21.489713625989481 -15.357945968110712 193 157 131 255
4.201434073271514 -21.352615754586253 -15.501941641928081 189 154 127 255
3.469692583335927 -19.322984341088585 -15.476864229786802 186 152 125 255
1.693077949833480 -16.188486526575218 -15.355903613827813 178 147 119 255
0.276382435815322 -13.406607218869340 -15.268889828041992 171 140 111 255
-47.788043576306791 -11.080828385402754 -8.185033477190157 76 62 46 255
-44.693258511948557 -11.096122307632925 -8.586305418487324 184 164 143 255
-44.682808088720662 -9.741959306466981 -8.631382946037590 171 150 129 255
-29.514696871092610 -18.103795970262468 -10.329967193025208 218 191 169 255
-27.087154790478621 -19.018714475102456 -10.615409175364313 226 196 173 255
-21.226974144572182 -21.838611954521639 -11.284731599657491 217 182 162 255
-17.652102335527871 -23.886848347643053 -11.682451406080496 215 180 160 255
-15.408466337023583 -24.714708994570373 -11.946761805001685 214 179 159 255
-14.195119163206300 -24.586491224895383 -12.108190751952115 212 177 155 255
-12.984758646592411 -24.462304178968225 -12.269084175516610 211 175 153 255
-12.068316316737679 -24.064348129002639 -12.400647703255558 212 176 154 255
-10.645571863665452 -24.156358145471387 -12.582094879741369 213 177 155 255
-9.371604545047887 -24.113936521338474 -12.748554294558744 216 181 159 255
-7.811956069508824 -24.356396559132293 -12.942883491287919 221 186 164 255
-6.184824539313922 -24.675387676538492 -13.143487011747155 219 187 164 255
-4.562619782693844 -25.001024335467577 -13.343222524810400 219 184 162 255
-3.160634579016289 -25.121039336789920 -13.520996530182330 217 181 159 255
-2.192225868179293 -24.820555854469035 -13.656049786417380 215 177 156 255
-1.511607230034627 -24.238041394567944 -13.762835263652473 211 170 148 255
-0.760442036130399 -23.727927700939745 -13.876426359414474 207 166 144 255
0.203023555573509 -23.434118426014663 -14.010579783733313 205 164 142 255
1.590211895940513 -23.574098060330186 -14.185721945503644 205 165 140 255
2.265472936950601 -22.998819549251294 -14.291522900734392 205 167 144 255
3.222540202871528 -22.713645324483934 -14.424528996705799 204 166 142 255
4.036632608668128 -22.286216459383184 -14.543554399480751 200 164 140 255
4.427462917895639 -21.424384186960651 -14.621642226997448 196 161 136 255
4.888996398194820 -20.634740974481105 -14.706565250406857 191 157 131 255
3.810949331147015 -18.235588017912022 -14.643554944269425 183 149 122 255
2.949704946162399 -16.046669794822833 -14.601885847921768 176 145 114 255
2.721827736452752 -14.511421091198969 -14.621327653182075 165 134 103 255
1.871819465314331 -12.307362164009419 -14.581571361245786 155 127 97 255
-48.105874436312718 -7.897869207001605 -7.199189407718404 0 7 0 255
-28.457520785306656 -18.915630507499372 -9.455397577602426 230 205 186 255
-27.214155738203260 -18.746340615583961 -9.624661167037075 220 194 171 255
-24.868952673986769 -19.603233377802297 -9.907917692023162 222 191 171 255
-20.841239110671722 -22.043006399052587 -10.364766981173602 219 185 166 255
-17.048786800051090 -24.297627295905926 -10.796215925069486 219 182 164 255
-14.880371586578121 -25.057987419344215 -11.059040665715667 215 179 160 255
-13.887279306721467 -24.723800983228045 -11.200228072480467 216 179 160 255
-12.896204816832125 -24.392338940970802 -11.341048294839169 214 177 156 255
-11.689092496907648 -24.271953703686705 -11.503904260112726 213 176 155 255
-9.904776133724965 -24.712945860089917 -11.725743114015970 212 176 154 255
-8.777295665084779 -24.532482621860623 -11.879895614695727 215 180 158 255
-7.508079534651785 -24.495824938179055 -12.048337923591156 221 186 164 255
-6.242176360880563 -24.463637229189914 -12.216191079776166 219 187 164 255
-4.476437405068680 -24.929688941369932 -12.434751763105787 220 185 163 255
-3.074856520856542 -25.049476884512757 -12.615832883617770 217 181 159 255
-1.605678971713644 -25.245578985524332 -12.803486846114986 215 177 156 255
-1.140306335496319 -24.450785234686123 -12.888963987590557 209 168 146 255
-0.176067402900202 -24.155537470003480 -13.024982828425500 209 168 146 255
0.857218803228761 -23.934648045830556 -13.167826344218660 208 167 145 255
2.455443888251608 -24.291669556675828 -13.367537697628794 207 170 144 255
3.624244513513901 -24.222974692816649 -13.523586310570369 209 171 149 255
4.578287281625450 -23.941484617733636 -13.657789254992288 207 169 148 255
5.248594963854913 -23.372749806930983 -13.763319777273306 205 169 147 255
5.074970484210837 -21.932470347488049 -13.784114565078649 202 166 144 255
5.465315519349190 -21.071408151108983 -13.861611703345105 197 162 140 255
5.926154647934169 -20.282753330900050 -13.946185807833487 191 157 131 255
5.480040180458303 -18.540075670396618 -13.940225372074714 187 153 125 255
4.829471360113729 -16.570712927337865 -13.914198945788200 177 146 117 255
5.365119195083679 -15.848654364770681 -14.006572111465644 162 133 103 255
5.346267671073633 -14.534617839568654 -14.043853482551405 161 132 102 255
6.366983839440707 -14.330706824390290 -14.184381124739538 167 140 110 255
-32.502725992608077 -15.055652713556810 -8.037949194404241 227 201 184 255
-30.955490239803567 -15.145630485228679 -8.243005510795211 221 194 173 255
-19.868234079734691 -22.794331920902209 -9.509358204756055 220 184 165 255
-16.079630712760149 -25.051342953002120 -9.952382128055451 219 182 164 255
-14.279642028474484 -25.470102367777173 -10.181762272502045 218 180 163 255
-13.798529438830030 -24.654104007092940 -10.269896920584603 218 180 161 255
-12.807574463276694 -24.322411804254727 -10.412407803828465 216 178 159 255
-11.673361827921582 -24.132346719054283 -10.570025409205176 213 175 156 255
-9.817045894706609 -24.642562214597945 -10.804250858587743 211 175 153 255
-8.689780259711341 -24.461870169904756 -10.960633638003721 214 179 157 255
-7.565181721759416 -24.284777362871978 -11.116539133448597 218 183 161 255
-6.515243579701291 -24.040963444764145 -11.264342810486450 217 185 162 255
-5.036663182613040 -24.223547031181397 -11.457306980728703 219 184 162 255
-3.419025112493415 -24.553419315087723 -11.664653771155940 218 181 160 255
-1.806314626217102 -24.889937855710286 -11.871134063574182 211 173 152 255
-0.912005183520023 -24.521191779669522 -12.001615932247901 207 168 145 255
0.122974453832768 -24.297560261619594 -12.146760446435444 207 168 145 255
1.226631476290152 -24.148722284280268 -12.298943195288079 208 170 147 255
3.390573165515690 -25.081133960123964 -12.562096241210615 207 171 145 255
4.839984280603318 -25.303062860477638 -12.749921514293412 208 172 150 255
6.002948450800801 -25.241655968699661 -12.907498717007325 207 171 149 255
6.670258883392535 -24.676821683809607 -13.013123781265687 207 171 149 255
6.704860413256654 -23.458575299232621 -13.052744589480433 205 169 147 255
7.232030072370605 -22.747921363981362 -13.143760813924359 206 170 148 255
7.829002830332371 -22.110542839450090 -13.242012276308248 204 168 146 255
8.425559115557945 -21.473728246051053 -13.340180888015382 199 164 139 255
8.673823423137065 -20.469576605101480 -13.402231105059020 188 154 128 255
9.478592545818117 -20.054198161465393 -13.521911875327543 179 147 120 255
9.520193828871811 -18.826530588569852 -13.562676172031225 180 148 121 255
9.909412804712247 -17.967113663793725 -13.639422209870069 178 147 120 255
10.781698418020454 -17.628097074011777 -13.765926076852743 180 147 120 255
12.615066689780491 -18.336687288641684 -13.991084004339363 180 148 120 255
13.275861677150999 -17.780661844542010 -14.095471947009194 180 148 121 255
37.894915273995309 -1.498515330282260 -17.855395854615381 151 124 89 255
39.153008824037158 -1.811014239607630 -18.014843713692599 150 124 89 255
39.843090226662866 -1.382885637089942 -18.119459874694904 151 125 92 255
40.719716012673103 -1.205395661797468 -18.241881235712384 153 125 92 255
42.093250787953338 -1.697009598431748 -18.411677842561513 151 121 87 255
42.902457104316539 -1.443030113068005 -18.527279152970500 147 120 85 255
43.399813838218165 -0.772585036553949 -18.613063382784318 141 119 83 255
-31.296821522576238 -16.002970020364273 -7.174049066016686 219 193 172 255
-30.121069221888320 -15.756355815454242 -7.341249932980393 220 189 169 255
-23.945862798683436 -20.147127502004622 -8.063760689701926 217 185 166 255
-17.281505986365033 -25.049659119338571 -8.839000420616212 220 183 165 255
-15.111528558683545 -25.805099410912305 -9.114401850216794 221 182 165 255
-13.971798673889424 -25.607066739477034 -9.275290177926728 220 181 164 255
-13.053474943015260 -25.205582604775969 -9.411516558880233 219 180 162 255
-12.282351887301445 -24.667921446013025 -9.531366363339224 219 178 160 255
-11.076731639542942 -24.548384624042484 -9.699051209704628 217 177 158 255
-10.163819551646810 -24.154207199510154 -9.834292902387041 214 178 156 255
-9.035800614815855 -23.971981046920860 -9.993073989444159 214 179 157 255
-7.838342332215404 -23.863458375361404 -10.159299943501839 216 181 159 255
-6.715820566201614 -23.688650054234131 -10.317099835796121 214 182 159 255
-5.093478419263789 -24.011214940249545 -10.529483930605451 218 183 161 255
-3.690932777115108 -24.128157615321726 -10.717487709419821 216 180 158 255
-2.149424188415935 -24.392389828474904 -10.920412579328513 210 172 151 255
-0.969022008235811 -24.306877263324282 -11.083617094963838 207 169 146 255
0.137248641938271 -24.153993377768359 -11.238536735928946 208 170 147 255
1.524759878760875 -24.291216480513896 -11.423887013377652 209 173 149 255
3.545659592015426 -25.080371486099295 -11.677826033299809 209 175 148 255
5.489042697547319 -25.806718330195679 -11.922896239138488 208 172 148 255
6.720945881560823 -25.819102839708961 -12.090397321273734 207 171 147 255
7.668202168371323 -25.545978000537758 -12.226854542212486 209 173 149 255
8.543260767910994 -25.202874290768875 -12.355363492373343 209 173 149 255
9.136572013536011 -24.570352229656351 -12.453330315850941 210 174 150 255
9.589767928827200 -23.792099852228318 -12.536151963734284 209 173 150 255
10.879458247104424 -23.893904879092418 -12.709045872898177 206 170 148 255
11.609289388197055 -23.411969495496123 -12.821495499425591 198 162 140 255
11.852491591931766 -22.414883146299616 -12.881616396782032 194 158 134 255
12.096886191373272 -21.416191501677304 -12.941933889459975 189 155 130 255
12.411517627892181 -20.490126756145969 -13.009840582070346 184 150 123 255
13.691398189701289 -20.605166584426229 -13.180994006566877 188 153 125 255
14.830197455763027 -20.575777718427332 -13.336837899081008 187 152 124 255
15.486067848742437 -20.026249602240171 -13.440993598980057 187 150 123 255
15.593984386901923 -18.876931483043336 -13.486762918333554 188 148 122 255
35.008353363670921 -1.573236496434163 -16.595926910430890 141 115 84 255
36.212378119340769 -1.790547767409407 -16.753924252159230 143 112 82 255
37.539044401898479 -2.177145718332667 -16.924046810003752 143 110 80 255
39.365109985547321 -3.228986524653749 -17.144178799336800 145 110 81 255
40.619267982125933 -3.546018955938621 -17.306322874958973 146 113 83 255
41.117938920062812 -2.873795048646002 -17.392365540935529 143 112 83 255
41.803972369914050 -2.450917819107872 -17.497181572509071 143 113 84 255
42.987497904391432 -2.695854092508796 -17.651679441587717 140 109 80 255
43.918843292304985 -2.611510335001242 -17.780755048341931 141 108 77 255
44.723915665260790 -2.362772207471664 -17.897092181780003 139 107 76 255
44.723504198410410 -1.024868152961233 -17.933224294042539 137 108 76 255
45.342345126084382 -0.525253057475481 -18.031007613698584 137 110 77 255
-35.041944767485916 -13.755487910483225 -5.713278430766422 158 159 118 255
-30.756782749840454 -16.340952476829386 -6.241131584110626 225 193 171 255
-28.919137880110156 -16.706751568156733 -6.486625088423647 219 183 165 255
-16.751756288551348 -25.390896660794880 -7.950733673767974 216 181 165 255
-14.510431966274297 -26.215997042394520 -8.240346949202870 221 184 166 255
-13.591133238602595 -25.812867009777221 -8.378191744776263 219 182 163 255
-12.673528840066524 -25.412024799957464 -8.515727510646840 218 180 161 255
-11.612208664820400 -25.151938332826148 -8.669559163909739 217 178 158 255
-10.553230931949287 -24.895013338825038 -8.822970075062084 220 177 158 255
-9.858509719712117 -24.292907598543820 -8.934728096932432 216 180 158 255
-8.947854584856117 -23.901447836663124 -9.071000845527692 217 182 160 255
-7.822719410436264 -23.722594081537864 -9.231536811039827 218 183 161 255
-6.412659184476041 -23.828627182548104 -9.424247253148302 217 184 159 255
-4.647873846111452 -24.292697471011593 -9.656931852510382 217 181 158 255
-3.031813511057067 -24.622771786945464 -9.872424862056135 215 180 156 255
-1.920581915760323 -24.462674589285314 -10.030500175164057 210 174 149 255
-0.954526447089762 -24.163796807837855 -10.171998926864603 206 170 145 255
0.293871066220561 -24.153287763489288 -10.345226877608425 209 173 148 255
1.822675375834365 -24.433756359351207 -10.549849550953297 211 176 150 255
