ply
format ascii 1.0
element vertex 649
property float x
property float y
property float z
property uchar red
property uchar green
property uchar blue
property uchar alpha
end_header
-38.245820184082788 -3.174228842033585 -2.952345369447613 9 7 0 255
-38.244987411851099 -0.859231270805537 -2.477770179176815 2 3 0 255
-37.561884013555016 -0.928260521016000 -1.233041075854828 11 16 0 255
-33.888148950465791 -1.869105802747526 5.344715205000796 138 146 96 255
-33.014791897953216 -2.340609593592831 6.857801903921143 182 169 125 255
-32.262529633818701 -2.598125995265377 8.191457984080415 195 164 131 255
-31.789523946294906 -2.343278149437594 9.115189387682761 208 167 140 255
-30.960840547805304 -2.760515737290177 10.557038552505901 215 169 149 255
-29.936201146179286 -3.557638911573974 12.282374636891404 218 172 153 255
-29.308923369707486 -3.616570283147382 13.426285067375858 219 170 153 255
-28.801233836221741 -3.455547525813017 14.394761012656829 220 168 154 255
-28.333856010410329 -3.222984037891479 15.303568595875646 218 166 152 255
-27.788626921967534 -3.144477151815749 16.324363111481802 208 159 144 255
-27.283708671374171 -2.994425660882825 17.285491927147092 195 148 130 255
-27.093477826905200 -2.241140651042883 17.789972325950941 180 128 112 255
-26.903279277413475 -1.487982009890629 18.294368332510402 168 112 95 255
-47.597999920874969 -14.358224348298791 -20.339717619449686 106 73 62 255
-46.139715503747453 -15.546514099209844 -17.912498152951002 60 20 10 255
-44.809734158355724 -16.546592489046532 -15.681537166344754 131 81 71 255
-44.647096019465835 -15.670564790890182 -15.202303452434052 195 147 133 255
-44.484374942779652 -14.794217788463214 -14.722857329495639 134 87 71 255
-44.611859870910536 -13.442397819284338 -14.677026940504533 163 117 101 255
-44.158685966732548 -13.040572962924216 -13.763332482027579 166 120 107 255
-43.913003405150135 -12.299923843890809 -13.159899150739449 179 135 122 255
-43.584860026586028 -11.696937112643013 -12.433791417778139 185 143 127 255
-43.793280148414055 -10.201456135457562 -12.506624801824870 169 128 111 255
-43.918233049031528 -8.839652608423393 -12.454115084982050 146 108 89 255
-44.124590956623678 -7.336022504171126 -12.521493597253254 128 96 75 255
-43.878004281262548 -6.591833030571536 -11.915695513307043 99 72 51 255
-43.754628849249741 -5.639269248536948 -11.492652624500778 25 0 0 255
-43.549130716024678 -4.825705156288166 -10.947830686010860 42 20 13 255
-43.670948593570387 -3.451525748405231 -10.887038770549111 53 34 30 255
-43.424216568052145 -2.706788107267300 -10.280877876217374 8 0 0 255
-43.381623167339171 -1.609950221798385 -9.976087130468841 3 3 0 255
-40.691476448016516 -1.634483760867852 -5.050654262896160 1 3 0 255
-39.475229860346474 -2.620867454874485 -3.025409779975945 9 7 0 255
-33.226517439977357 -1.320845587839415 8.695723943354778 184 172 126 255
-32.592350931803793 -1.362900283798240 9.849303722420700 192 162 131 255
-31.362532552323984 -2.527638823395364 11.862536664273506 201 166 140 255
-30.413813888782528 -3.180845275596198 13.466302864072759 208 170 147 255
-29.745024438065855 -3.317885814382919 14.663705442122364 217 172 153 255
-29.077604814093718 -3.460349086411156 15.857476623278245 217 168 153 255
-28.569839946024786 -3.306653464583803 16.819848319954616 217 170 152 255
-27.983967121238663 -3.307843258192975 17.893362172897753 209 162 144 255
-27.714920212840127 -2.706883301805931 18.510661169713870 198 143 128 255
-27.209701700486079 -2.563265448317281 19.466284561751195 178 122 105 255
-27.177590265101486 -1.507983843041075 19.743237026567158 173 120 101 255
-26.909306574831618 -0.910041151062615 20.358516118791130 165 118 95 255
-48.820876074182252 -15.074277112842054 -20.603038157196721 168 157 134 255
-47.899335381737615 -15.386675490230289 -18.988373514089716 177 140 132 255
-47.063595008054790 -15.572803202909398 -17.503724733208003 158 115 109 255
-46.355196813027050 -15.564140873743128 -16.210493166333947 152 104 94 255
-46.150033565847878 -14.751998214270316 -15.666638139482785 190 142 130 255
-45.736069419800600 -14.278141414845720 -14.812891040726157 132 84 71 255
-45.656372943651547 -13.263796253373556 -14.455491227030478 133 87 75 255
-45.368100544970645 -12.588626962419767 -13.788795252617518 136 91 81 255
-45.288071124391195 -11.572987249336677 -13.430532214038266 113 70 59 255
-44.792317377193882 -11.241337482790186 -12.457450516659492 146 105 90 255
-44.961152125003935 -9.813074958319703 -12.466590704996861 172 134 116 255
-44.839001039803492 -8.863692146092347 -12.045416371523714 149 113 94 255
-44.964901352254742 -7.498457687160993 -11.989481259801977 131 100 84 255
-44.676758268495377 -6.823865455900545 -11.323181950382576 96 70 56 255
-44.760229862090597 -5.523659733774139 -11.203511106044175 11 0 0 255
-44.595714253263822 -4.639579773380206 -10.718787742955243 7 0 0 255
-44.678021091786917 -3.334782911128968 -10.596045493560638 6 2 0 255
-44.841767075918284 -1.886448153626816 -10.591755486200015 1 1 0 255
-42.912174730658506 -0.538757225948075 -6.792652483137545 0 3 0 255
-40.790479995137360 -1.924782917822483 -3.214863671436518 5 7 0 255
-40.587969575462836 -1.123331776074906 -2.678198147629047 7 8 0 255
-33.236429959500327 -0.679092355908097 10.815041488767264 172 163 121 255
-32.001802002061964 -1.849034505832208 12.820982417082746 191 166 134 255
-31.129405300891591 -2.356218535040739 14.305168978492105 206 168 144 255
-30.059603048029487 -3.246775751166808 16.069058035143627 211 164 144 255
-29.549636550645317 -3.091989160991318 17.030962881490041 214 165 148 255
-28.762307350904450 -3.469986611195679 18.387088598493449 215 166 151 255
-28.294276844032851 -3.248240360898251 19.286547693177567 216 166 148 255
-27.509906931722952 -3.637947912405878 20.634832362102571 203 150 132 255
-27.241884817086031 -3.043128249756251 21.247692239151291 189 137 118 255
-27.013649119460155 -2.372841030344489 21.803803522832197 183 135 113 255
-26.982940171773777 -1.319659534024538 22.079891741378361 163 124 99 255
-48.996316839671181 -15.146782714164971 -18.827421669980936 158 119 112 255
-48.198823039844484 -15.264477290834293 -17.406294233497420 178 133 129 255
-47.655633156790657 -14.985524413705519 -16.362395084687989 181 134 126 255
-47.239552869341225 -14.508087882315294 -15.507004203401124 201 154 144 255
-46.656036756966472 -14.303420962057203 -14.405715225425837 139 92 82 255
-46.199406818547857 -13.899385377419804 -13.492341771066236 170 126 120 255
-45.994840874366190 -13.089836050178576 -12.950259330328294 142 102 94 255
-45.622952302066352 -12.553503176759591 -12.162577826973120 72 32 20 255
-45.376886739420257 -11.813593135784856 -11.559993612283591 58 20 8 255
-45.589947768248578 -10.318392488865697 -11.630173472311583 68 34 16 255
-45.718579524840436 -8.956767445218844 -11.575524145729531 131 99 82 255
-45.763118517122706 -7.730049348666284 -11.396937058448174 129 101 87 255
-45.557669250845350 -6.917087116353628 -10.852582302467198 84 64 51 255
-45.601263667295228 -5.686656846931157 -10.671513574166312 6 0 0 255
-44.898189456537182 -5.710510383410025 -9.401853234735285 3 0 0 255
-45.686695543386151 -0.880745752219866 -9.810530408967537 0 1 0 255
-41.369970708218375 -3.674872884285207 -2.574922228394968 0 2 0 255
-40.840046088724364 -3.448662540718885 -1.566378751910037 2 4 0 255
-41.498394454919719 -1.143554349104420 -2.272774278581750 8 10 0 255
-41.173140851016882 -0.558122913123839 -1.559383087664344 10 18 0 255
-31.444584230143363 -2.282225173208531 15.713278443524729 187 161 126 255
-30.291052893640767 -3.329649555165474 17.583176641036999 203 164 139 255
-29.500179983843140 -3.707700835565220 18.937054713360936 211 162 147 255
-28.990582938188965 -3.561995920902234 19.891681342105528 222 168 152 255
-28.202725616819407 -3.951977318030174 21.237571480122995 213 160 143 255
-27.894501546314444 -3.433986235152702 21.905796437212899 196 146 127 255
-27.507098733579681 -3.070329928563865 22.684953056344085 182 134 114 255
-27.477730031709967 -2.019004210809157 22.960340322784191 163 122 100 255
-49.798402626465162 -15.374044765454272 -18.228892996504129 122 85 74 255
-48.403815944314232 -16.428652315218784 -15.939303494337935 107 62 55 255
-47.732481919354200 -16.354458142883971 -14.712726904794323 180 136 127 255
-47.527729654546590 -15.544308889568526 -14.170264335947309 201 156 146 255
-47.238511977944626 -14.869446475311577 -13.504409743561268 187 143 134 255
-46.738595720909103 -14.534612296747213 -12.531283316185778 162 119 112 255
-46.365893280774628 -13.998934257840290 -11.744649156571569 177 137 128 255
-46.330290396052504 -12.919186112958982 -11.449640622431644 168 131 119 255
-46.420333611981789 -11.632390800468642 -11.336970680100421 159 126 112 255
-46.635519439848963 -10.136556076827134 -11.405305344386733 114 85 68 255
-46.640065283542100 -8.980979593342283 -11.166521890969165 107 81 64 255
-46.644081225686818 -7.823322856426955 -10.926348114742808 116 95 81 255
-46.563971931227599 -6.802295864662852 -10.563681019570879 30 15 4 255
-45.773944285286944 -6.962861790280328 -9.173353989348954 4 0 0 255
-42.984586827553557 -10.480016704740422 -4.895004124394774 3 0 0 255
-44.868544379832599 -5.024196174265398 -7.126416104710273 0 2 0 255
-45.577605763838136 -2.665773274025469 -7.901081071447408 0 2 0 255
-43.516824531168822 -1.554956360748577 -3.947743593888106 4 6 0 255
-42.240894468651334 -2.609883874277671 -1.872396701139081 8 13 0 255
-42.203385858558903 -1.522820670787382 -1.572525537629787 10 18 0 255
-32.320791287380985 -1.157065292970117 16.324958693917296 175 165 120 255
-30.679674268566600 -3.114440004389110 18.865942897896588 200 164 136 255
-29.645277666667170 -3.951415454751100 20.552266624568432 213 164 146 255
-28.894111638020917 -4.265911118963345 21.839498940949881 217 164 148 255
-28.505139939200092 -3.900897954651896 22.618801902744877 205 154 136 255
-28.196778869383024 -3.385368609384216 23.284906544731200 184 136 116 255
-28.128516781060938 -2.411438298789676 23.616003833939459 157 115 93 255
-28.538751500295035 -0.513979040950858 23.281590089204087 112 82 54 255
-51.069333067159420 -14.867888201501103 -18.315168411440709 197 164 147 255
-49.070313907529879 -16.856257254759157 -15.159074557664212 202 157 145 255
-48.183582691306640 -17.118455049794449 -13.625141145964108 202 156 143 255
-48.064429131835197 -16.175854884859916 -13.207710514463542 206 158 145 255
-47.817618794519149 -15.435159243531444 -12.604939866717331 195 148 138 255
-47.570946778594163 -14.695032200363244 -12.002553289366205 83 38 29 255
-47.197291619860295 -14.159473481629021 -11.216610082921960 78 36 25 255
-47.374245348334966 -12.738942616790411 -11.227094495931510 109 72 59 255
-47.634742141817185 -11.177667250531812 -11.357032458762120 77 44 31 255
-47.683005217014141 -9.954969849982263 -11.179454037683030 83 56 42 255
-47.604175247905061 -8.936404441512337 -10.818026593723204 105 83 69 255
-47.651320211544942 -7.709323010163274 -10.637518988326775 55 38 24 255
-47.403557665538983 -6.965020909318241 -10.032358839183729 10 0 0 255
-46.232335197805497 -7.751401406229718 -8.101525603990524 3 1 0 255
-44.350977413641516 -9.734219177970374 -5.155439293650062 1 1 0 255
-32.308691183415135 -1.691041439155640 18.177973009268271 178 166 124 255
-30.540565855518707 -3.886283846734386 20.874969288590734 210 167 148 255
-29.664787188478272 -4.427840084138211 22.328637432571867 217 165 150 255
-29.314918450121354 -3.986738985957800 23.051279764215934 208 156 140 255
-29.046027842462394 -3.394731853239705 23.661274549410990 187 138 121 255
-29.058756357093870 -2.267420477369228 23.881778177719013 161 116 95 255
-29.231516074746537 -0.830685401024766 23.882082502619852 117 82 56 255
-52.215722465755334 -14.562159678764260 -18.212946119160733 190 166 144 255
-50.463603729189913 -16.146938940452060 -15.432944046369471 193 150 136 255
-49.529474592606249 -16.473155988488230 -13.837529730276742 198 150 137 255
-49.324574173213307 -15.662785502071671 -13.294976374384675 197 150 134 255
-49.119698660802101 -14.852538623265730 -12.752509721283076 196 148 134 255
-49.042858860757093 -13.839160156382007 -12.394133073003474 197 153 141 255
-48.667410499945447 -13.300396346522803 -11.606655030143344 184 142 128 255
-49.101038740098886 -11.467817705787013 -11.980162326845829 162 124 112 255
-49.065491398911178 -10.381310220856278 -11.679531250210459 141 110 99 255
-49.241752958163062 -8.949968223301852 -11.681508321999786 114 92 79 255
-48.950745432312033 -8.272235454151001 -11.014393538357325 56 39 26 255
-48.702324487496981 -7.526441890225897 -10.408409712402630 10 1 0 255
-48.496322495100685 -6.711924164290934 -9.863112647696767 6 1 0 255
-47.156758371065507 -6.617714948832401 -7.452820144064390 0 1 0 255
-48.468033463152381 -3.289655379729197 -9.065710541856589 0 2 0 255
-48.681907241779243 -1.770707657936782 -9.115753178195490 0 2 0 255
-31.924700218280634 -2.912805782993075 20.526043662553178 208 173 151 255
-30.759796773080495 -3.982342326960520 22.370591426746245 218 166 152 255
-30.327426459544199 -3.691889674212518 23.205147122946840 205 152 140 255
-30.057716525605969 -3.098723887050255 23.815590399449604 190 141 126 255
-30.111736050931881 -1.893841996753167 23.982019383140965 164 117 97 255
-30.245875110163382 -0.532817236632866 24.039596367953379 128 90 64 255
-52.725331083134961 -14.101475049187428 -16.939772408901149 191 155 141 255
-51.785280423215454 -14.420163277853646 -15.341815387604157 190 146 135 255
-50.933205151991899 -14.611948371810428 -13.871999107409550 189 145 132 255
-50.426566317092238 -14.270469090408653 -12.897558571418557 182 138 125 255
-50.392748806724342 -13.187224063197050 -12.598549154945459 172 128 119 255
-50.187091698004281 -12.374126793495492 -12.054211978983176 158 117 107 255
-50.366642490641226 -10.947626853286749 -12.058147092405505 147 111 99 255
-50.032307140352714 -10.337969466647877 -11.330374245726802 99 73 61 255
-50.210565895880052 -8.906413551617447 -11.330932802718564 25 9 1 255
-50.302583565289325 -7.608673074726141 -11.207986860865191 12 3 0 255
-50.308697018075350 -6.446079280715196 -10.962427539377984 9 4 0 255
-49.676511393070399 -6.320574433755183 -9.812966926215523 1 2 0 255
-48.408547967889717 -7.242124127584930 -7.766276181390282 1 1 0 255
-48.457993803327525 -6.013542405573162 -7.583097807599216 0 1 0 255
-49.057344433567664 -3.873197621322504 -8.174636485602605 0 3 0 255
-49.485422087054957 -2.005235887430615 -8.522343070445089 0 3 0 255
-33.070155781405759 -2.394194394148371 20.515930155208849 206 175 152 255
-31.939838406462968 -3.385448650947239 22.302823208180683 214 163 150 255
-31.464682606622802 -3.168978451245607 23.193490710351142 208 154 142 255
-31.193986159871969 -2.573993346701059 23.804824713778288 185 138 122 255
-31.208260533146813 -1.444059754724663 24.028457221373884 174 126 106 255
-53.753205201329934 -12.838093242489322 -16.407278106878891 163 134 123 255
-52.549981667579743 -13.562017852594806 -14.444707222347176 167 133 118 255
-51.781424813796065 -13.621470857645022 -13.101314437037530 164 127 115 255
-51.877354045903161 -12.332786497880960 -12.983423434843019 168 131 122 255
-51.757052082341346 -11.380741247349761 -12.558898429846522 141 108 98 255
-51.636550903795637 -10.427938474956335 -12.133871027290553 103 79 66 255
-51.343923218076611 -9.747845104159893 -11.465811973497040 51 34 19 255
-51.523730926833451 -8.314303554509962 -11.463765995258797 12 2 0 255
-52.002645331153900 -6.395242073331559 -11.881496224345000 7 5 0 255
-52.008841600890349 -5.228567640249310 -11.632511911950076 4 2 0 255
-50.517983318957164 -6.483647707001865 -9.280759974730671 2 3 0 255
-50.482374375903078 -5.390043003837775 -8.974299858384711 0 2 0 255
-50.147825767740613 -4.782671455863863 -8.248549319816192 0 2 0 255
-49.984001067549713 -3.897101305769866 -7.762164461261847 0 3 0 255
-46.757667586463583 -8.061150364905529 -2.995414534938106 0 5 0 255
-33.849210714259215 -2.556965539637019 21.009581913420163 207 173 151 255
-32.754460292774667 -3.471970784940765 22.737749146930867 217 164 150 255
-32.482690791629864 -2.874824272893875 23.350202883097126 201 153 137 255
-32.375051242859030 -1.973406127876615 23.740746266108033 188 141 123 255
-32.349045852184190 -0.918149905765233 24.021473905779146 171 124 104 255
-54.644149572562071 -12.932604197740176 -15.931506521848377 20 5 3 255
-53.826880805281434 -13.050853824667200 -14.523132149537730 70 48 33 255
-53.054652068440078 -13.107982848500626 -13.180100935379897 114 91 77 255
-52.587636801347941 -12.697270912598782 -12.267664690024134 64 41 30 255
-53.074669470451994 -10.795599323632956 -12.694724141708889 39 20 9 255
-53.430097424884167 -9.091321682731007 -12.935169093992272 16 4 1 255
-53.092540620441298 -8.474866398561574 -12.203779155276379 9 1 0 255
-53.143838876622169 -7.242811563573952 -12.016577866419539 6 3 0 255
-52.073634729002379 -7.796614337075141 -10.262288087060170 4 4 0 255
-51.608452367637739 -7.393336377495871 -9.354858053826149 0 4 0 255
-52.089919420048034 -5.469860524884382 -9.767351885577199 0 2 0 255
-52.354912032912154 -3.886677562465991 -9.876383556012598 0 3 0 255
-51.003984135271594 -2.614362665211331 -7.218573586943677 0 7 0 255
-34.338148687556526 -3.249167277202162 21.892297482726946 204 170 147 255
-33.403795105562523 -3.861958296115404 23.394532590013654 218 166 152 255
-33.131708465130828 -3.265635635848639 24.006108072943249 206 157 142 255
-33.065917821151402 -2.288849599125797 24.341102727781930 190 143 125 255
-33.082128391098195 -1.157835602432613 24.566832159662710 172 127 106 255
-57.637404249982154 -9.811864613845529 -18.396580111704537 16 17 0 255
-56.289125295262721 -10.725600136686808 -16.249488133438518 11 3 0 255
-54.987473048350807 -11.583563629399805 -14.171174584065710 9 0 0 255
-55.695641596374628 -9.340819349244640 -14.898153487354108 25 15 1 255
-53.264136736280193 -11.975684602418738 -11.250538930681699 16 9 0 255
-54.929076041220810 -8.232474868781622 -13.307462203644405 12 11 0 255
-55.546127939881586 -6.109905659897436 -13.902691149599463 4 6 0 255
-54.858896821484791 -6.035157191304194 -12.685539622703629 2 4 0 255
-52.742381446838408 -8.234445857550327 -9.489115499945143 1 5 0 255
-52.675047299158194 -6.048567748166874 -8.874881322987534 0 2 0 255
-35.988473655591605 -1.824023096616258 21.219018037048869 203 169 146 255
-34.549918833744442 -3.341869997380115 23.386055459789731 218 167 150 255
-34.276845850462109 -2.743728035074525 23.998521762625359 207 158 143 255
-34.045474451107594 -2.070320845459833 24.555262873516568 192 145 127 255
-34.062597563560161 -0.938546633161479 24.782188115241524 174 129 110 255
-55.110836986463681 -10.576825037725428 -12.111208119297174 8 10 0 255
-54.946975246587868 -9.688705657187882 -11.622738815418700 5 9 0 255
-57.230334606851159 -4.976041826778953 -14.507962884200708 3 9 0 255
-56.583049555221606 -4.828516362893708 -13.349685008391532 4 8 0 255
-54.890756763891972 -6.335147432163240 -10.755630505422857 4 8 0 255
-54.682448415141380 -5.512525392189787 -10.205067400707776 0 6 0 255
-55.177761176917812 -2.410347709404846 -10.353878060431271 0 6 0 255
-37.271672724168980 -1.080184785152085 21.049116333208787 204 170 146 255
-35.825259116961291 -2.594837963342854 23.213908189593127 217 165 149 255
-35.217087574552039 -2.602391816425211 24.268297586676709 208 159 144 255
-34.651750067842329 -2.538229817959632 25.264731540153122 197 150 132 255
-34.628656613624031 -1.484139733847826 25.546305488285640 178 133 114 255
-34.480419871801473 -0.658453992088539 25.992874449914893 146 107 85 255
-59.538339967298725 -2.887439259648204 -15.950356818195615 3 12 0 255
-56.132598525744982 -5.880229228973519 -10.758475981132591 3 10 0 255
-54.347939816677382 -7.537279756458730 -8.058451520130603 0 10 0 255
-57.245120723748869 -1.811320512232271 -11.738591266749324 0 7 0 255
-38.223372253105595 -0.941408422632890 21.323899275942608 204 170 146 255
-36.727508346131259 -2.530406174710549 23.540360020786039 217 165 149 255
-36.158752651609603 -2.461261976082255 24.538787701667530 208 159 144 255
-35.381398838604753 -2.777287145021205 25.808474481877255 198 151 135 255
-35.443055675266010 -1.570858958189433 25.980929959326261 178 133 114 255
-35.336812562410330 -0.668534706799278 26.373090600486677 151 111 90 255
-37.588421790714563 -2.541880140586898 23.922234933316275 217 166 149 255
-36.637397556261845 -3.156018943030745 25.412991584860947 208 159 142 255
-35.857078494330523 -3.473442642216639 26.679678676307589 198 151 135 255
-35.962668337580141 -2.192511152995451 26.797166358154215 176 129 113 255
-36.151615285467670 -0.755351065750688 26.807885727795593 149 108 87 255
-38.619865122770904 -2.250556925783485 24.084959421463793 216 166 150 255
-37.409423846273853 -3.318801747033149 25.902263961511238 211 159 145 255
-36.880182144165360 -3.179087988182744 26.839724460865114 198 148 133 255
-36.902409339301471 -2.049999451804581 27.067602663149501 178 127 112 255
-39.568169370301462 -2.110940356220453 24.358326107473118 214 165 147 255
-38.309054077865227 -3.253825483298328 26.227537671210115 212 160 146 255
-37.820370881811016 -3.037320664275455 27.109823741794543 200 151 136 255
-37.673211844565827 -2.213134224991052 27.555823230259705 180 129 115 255
-37.866235985523303 -0.775979687842778 27.569072823457191 151 109 88 255
-40.732868327997068 -1.593158164929605 24.359490811860354 212 167 146 255
-39.467261305229101 -2.733636448136849 26.226656194256435 210 159 142 255
-38.933511847691051 -2.591299365372095 27.163482925770495 201 152 137 255
-38.571999975956942 -2.147264700392952 27.881311869201767 182 134 119 255
-38.681462322944157 -0.863002993829127 28.003960228907005 152 113 89 255
-41.728431629055450 -1.378430054103205 24.580460359603478 207 165 142 255
-40.586095605547342 -2.289775939525555 26.282068607582232 212 161 144 255
-39.877486324379817 -2.450042750862622 27.435513611784955 198 149 133 255
-39.773196923381107 -1.547383345691287 27.829165960464820 185 136 121 255
-39.711725437478805 -0.567429978092662 28.169464320665639 150 113 90 255
-41.795093435653342 -1.694637325626786 26.230851678685610 210 157 141 255
-41.169775866203310 -1.700482075539696 27.275994234556293 197 149 133 255
-40.978677443199558 -0.948012516790982 27.779261114145328 184 137 121 255
-43.725222428647697 -0.949738625126713 25.025288654364630 209 169 143 255
-42.615447253223181 -1.782367538998074 26.668342457813196 205 156 139 255
-42.118485059752913 -1.559836874788857 27.550463056785276 198 151 133 255
-43.655259594587108 -1.491186853720080 26.836152171517881 207 160 142 255
-43.112442725174418 -1.343382088186047 27.771861831915004 197 151 133 255
-44.344337092531930 -1.806441746163273 27.435552252645124 210 164 145 255
-43.976040542865093 -1.355140517769485 28.155170464138195 198 153 132 255
-46.601239569296609 -0.535167526605619 25.861189308654644 203 170 139 255
-45.520085036700010 -1.288442621095271 27.443765509894064 210 163 143 255
-45.061685728956974 -0.987193069601062 28.271064745723663 198 151 132 255
-46.431932016208691 -1.225191404700013 27.775208321458507 210 162 142 255
-45.882809106870781 -1.075212431346642 28.708794922755061 201 154 134 255
-47.613828919028492 -0.707952895292919 27.786615609673902 210 161 141 255
-46.659096189661966 -1.239187832601942 29.199730324654126 201 153 132 255
-47.660057320231800 -1.023737647844200 29.424652676126186 198 149 132 255
-48.798724771098790 -0.580963047527064 29.491497730290433 197 150 133 255
-52.106460243653828 -0.546547672227121 29.562152726470941 211 163 143 255
-52.794205960684593 -0.862104048220147 30.160475593241387 208 159 142 255
-52.276813055848976 -0.632028716967397 31.036131562117163 209 160 143 255
-54.372919363565217 -0.808032023851638 29.460186548941181 209 163 145 255
-53.526995577911094 -1.102037618161489 30.705446817010881 201 152 137 255
-53.100937136856345 -0.720758022001064 31.475140374796922 205 156 139 255
-55.154812331675402 -0.972564182078372 29.954146882246448 210 160 144 255
-54.445853033234386 -1.039973978492696 31.040266296407736 205 155 140 255
-53.925009754537882 -0.809527475428638 31.914084001403040 205 159 141 255
-55.794977997076671 -1.362796687770810 30.605027280001195 206 155 139 255
-54.989545635356450 -1.581715183227175 31.793662732951816 203 153 138 255
-54.561220111776095 -1.201048499773833 32.561440133114729 203 159 140 255
-56.527781234909156 -1.602437960707277 31.150248616489222 204 153 136 255
-56.002789045383679 -1.368865220863142 32.024071412031986 201 151 136 255
-55.478611305213235 -1.138487882570303 32.895758886026755 202 158 139 255
-57.925172341143508 -0.789410980254786 30.964665859492726 167 118 101 255
-57.350296753593170 -0.628415694698788 31.891349178685203 149 99 84 255
-56.728917549480343 -0.546682524561731 32.867467976001080 194 151 132 255
-36.123909973692719 -0.940911493813928 -58.498478749748031 186 166 129 255
-37.062665718640801 -1.244500508360261 -57.452909401928409 191 166 130 255
-34.322395011696756 -2.494456226047589 -57.392056986624034 197 152 128 255
-33.584751689465236 -1.841479654428781 -57.480651201539104 167 126 102 255
-33.289792838355709 -0.762479460420138 -57.602817400893464 141 106 79 255
-34.443248581848593 -3.569006941618568 -56.292895831735265 198 157 133 255
-32.301135167688244 -4.260249145055525 -56.281331190865473 195 148 128 255
-32.010245297722349 -3.186966569117203 -56.401778412307145 171 126 105 255
-32.012594629239459 -1.827385314207731 -56.543810311518797 150 107 84 255
-35.750680966062760 -3.517236479957717 -55.275489585746854 198 162 136 255
-32.345288225622312 -5.399962929944024 -55.185410024746282 200 153 135 255
-31.390563484308529 -4.965092585746902 -55.259322875610870 193 145 131 255
-31.690899722292500 -3.326337813748182 -55.418948884291289 178 129 114 255
-31.987440385325726 -1.682479556301644 -55.579172643985181 160 112 95 255
-38.324491380548636 -2.279458686391365 -54.330378858060513 195 165 131 255
-33.945859064588262 -5.061412287502947 -54.191117781273462 206 157 138 255
-31.951846393873666 -5.609081470093429 -54.200675533017240 203 154 140 255
-31.440871791564689 -4.750424860365627 -54.304474047379522 194 145 131 255
-31.592774705986585 -3.252878359385647 -54.451416834470379 181 132 118 255
-31.815046996132878 -1.679929027922128 -54.603669974041317 164 117 100 255
-39.267346964457772 -2.591498929052193 -53.271311245123414 174 156 114 255
-35.475904362808421 -4.800075110320961 -53.182702296615751 202 160 135 255
-32.587806543987767 -6.183834802680281 -53.145020101000902 205 159 141 255
-31.632632864801565 -5.747707328689614 -53.221861814029005 207 155 142 255
-31.195706668101820 -4.818714068436122 -53.329869070060205 198 148 133 255
-31.052742823963854 -3.605151605071626 -53.456035660519248 179 132 114 255
-31.275280969417281 -2.033246400202415 -53.605243707526839 162 117 96 255
-42.523075364396618 -0.747648058194272 -52.334789203932786 158 154 106 255
-37.455831702820433 -4.126238811711062 -52.189900958930977 188 151 121 255
-34.263793651429353 -5.778913119051396 -52.145421030622458 207 161 143 255
-32.416374977825058 -6.181481041352811 -52.174161632555986 208 161 146 255
-31.535324296118233 -5.674802463535570 -52.256576945330480 207 156 141 255
-30.876878300892997 -4.957762289680261 -52.351412472278618 198 146 132 255
-30.366000622278364 -4.099359524423960 -52.454655478545192 182 134 117 255
-30.368851506988676 -2.742442801576317 -52.587904141943355 165 118 98 255
-30.882047856781242 -0.882453950427077 -52.751731914251145 137 96 72 255
-40.334736162896490 -2.625907840980915 -51.230368773437448 186 160 128 255
-36.241145238879710 -5.102090286800490 -51.150940005776718 195 150 128 255
-33.720651076933905 -6.127030182032172 -51.150414205398896 214 165 150 255
-32.096887573608910 -6.319753257581624 -51.195327159320719 212 164 152 255
-31.142465066482885 -5.883995081488933 -51.274852864504652 208 159 146 255
-30.410828626891430 -5.238308530983431 -51.365942114309945 198 149 135 255
-29.900528217323995 -4.380739684137382 -51.468841720251859 184 135 118 255
-29.830248220833994 -3.095823359488008 -51.595856227197601 167 120 101 255
-30.270305771833478 -1.308264863448017 -51.751524040708809 144 100 78 255
-39.861502351965498 -2.902260987462455 -50.222120690479109 192 159 132 255
-36.290838887703615 -4.890228118371624 -50.180302740196495 196 148 129 255
-33.993476408309618 -5.704239535904662 -50.197692657433841 217 165 151 255
-32.295408900865823 -5.965933984952670 -50.242905269424377 215 167 153 255
-31.192766364928787 -5.670096764680807 -50.316598787185789 210 160 149 255
-30.608026534244061 -4.882251436544379 -50.415733388629768 202 153 139 255
-30.096853013276359 -4.023562172419531 -50.518536252688030 188 141 123 255
-29.805424818254039 -2.951036073331409 -50.632593905672003 171 124 104 255
-29.951801432239847 -1.448554985840929 -50.769490287794781 145 100 79 255
-42.224029217897055 -1.901652835369532 -49.212134515410540 175 168 123 255
-38.421276553545113 -4.084107012820937 -49.173043670412774 196 157 132 255
-35.597730007405517 -5.377070486201148 -49.174698650400522 193 144 126 255
-33.450739519124966 -6.052408755168784 -49.204779573862972 214 165 150 255
-31.680236710884685 -6.385466086785328 -49.250527319673601 216 168 154 255
-30.431337078206695 -6.231942367554637 -49.319158892694638 213 164 150 255
-29.921472802942844 -5.375062933107529 -49.421539363796867 205 156 141 255
-29.705139850537478 -4.234040768816442 -49.537747008818236 189 142 124 255
-29.340703770537402 -3.233302594858856 -49.647203734827457 173 126 106 255
-29.340989486731246 -1.874429328472331 -49.774328454634357 147 104 82 255
-29.265813490297603 -0.583802613078092 -49.898297058921990 112 77 53 255
-40.258965176080324 -3.565901209660808 -48.139934671748023 194 165 130 255
-37.800661679667314 -4.499828333529933 -48.166182728946559 198 155 133 255
-36.018329090912914 -4.815909316070588 -48.218474047876846 188 139 123 255
-33.648890656073206 -5.699744433444835 -48.245187607719828 214 167 151 255
-31.287266516972863 -6.594119144227420 -48.270528014924501 216 168 154 255
-30.186695144621979 -6.300176175138489 -48.347790587379919 215 166 152 255
-29.309131617322009 -5.797170357870357 -48.434100480002392 206 158 143 255
-29.166908081541010 -4.586459526180192 -48.552031989243432 190 141 124 255
-28.583408769625123 -3.800290463056797 -48.650935020511611 176 128 108 255
-28.657663054306283 -2.371727503308136 -48.778981976642328 147 102 81 255
-28.218697031008901 -1.440618948562587 -48.884566298199452 110 76 52 255
-39.711261745818433 -3.910938442882525 -47.132294878662805 201 163 134 255
-37.329240054227682 -4.776276731301721 -47.167889716731572 198 152 133 255
-35.770755563841476 -4.883590489551182 -47.232744411559125 188 139 123 255
-33.920556837753224 -5.277012078026530 -47.285576962697093 215 169 153 255
-31.559077716554611 -6.170062324234863 -47.317540114614744 218 171 156 255
-30.531522128094593 -5.804264034908442 -47.399743585480607 218 169 154 255
-29.285442232432899 -5.653400557658870 -47.472878330639105 207 159 143 255
-28.702492607600846 -4.867954851339221 -47.571763661399501 194 145 128 255
-28.046430890294118 -4.153795569098691 -47.667645052948387 177 129 109 255
-28.340131939107152 -2.512109853630193 -47.802114897711547 147 104 83 255
-28.047110285163456 -1.438188483085980 -47.913155169286746 108 76 50 255
-43.491369018482317 -1.600479175819430 -46.147189084499203 179 168 123 255
-39.164021603015044 -4.256006439485020 -46.127172066578538 200 155 132 255
-37.303811643676852 -4.634837742346008 -46.186520426054408 196 149 131 255
-36.486689707166363 -4.042985008197036 -46.280120986830902 180 132 116 255
-34.191649024173614 -4.854298301444487 -46.322599917177406 218 172 157 255
-32.125462220675445 -5.464804458931297 -46.371477010673537 219 171 156 255
-31.243808724494443 -4.955758442593321 -46.460796623584571 221 173 157 255
-29.996200101168256 -4.802260163823121 -46.536705752956159 212 165 149 255
-28.898176470844533 -4.510871993735805 -46.617375962916412 199 150 133 255
-28.095054683602541 -3.937943310536014 -46.708336010050608 179 131 111 255
-28.095765556084928 -2.581131341824062 -46.828878597532643 151 106 85 255
-28.385255357666324 -0.934528730155421 -46.960751100247904 106 73 49 255
-42.121441077287841 -2.705906174562699 -45.107457597420023 197 167 131 255
-38.096552065091885 -5.087158050883488 -45.109203593695057 197 151 127 255
-36.907069691305594 -4.841689689601367 -45.192811696824414 196 146 126 255
-35.868365818321308 -4.460066976615906 -45.280421005560285 171 123 106 255
-33.575358434878410 -5.272662303172240 -45.328929919738528 218 172 156 255
-31.437324469025441 -5.954755161111677 -45.380729330986554 218 173 156 255
-30.851282436320105 -5.165107468549479 -45.480293987933443 220 175 156 255
-29.824815021560937 -4.800013149750441 -45.565646463905594 213 168 148 255
-29.020127163366794 -4.224767765904232 -45.657775901916111 200 152 135 255
-28.289579533706501 -3.579766113346182 -45.752101215242725 179 132 112 255
-28.289089765280778 -2.221832341857123 -45.870678573302186 149 107 85 255
-28.649962778994336 -0.502497277912710 -46.001984570385041 101 71 45 255
-41.572503903338429 -3.049966250638477 -44.097030486431485 197 158 127 255
-37.996596397331189 -5.015673515610501 -44.122556554562600 192 147 124 255
-36.733132720594597 -4.839609562555381 -44.206417280018641 191 142 123 255
-35.620676458715820 -4.527825740615924 -44.293689070779187 157 109 92 255
-33.033482112110903 -5.620971745596449 -44.340328820492601 219 173 157 255
-30.823534677448890 -6.374435500766197 -44.395614909321608 218 174 156 255
-30.017848480241923 -5.797628419020157 -44.488860904927122 220 175 156 255
-29.580055516242624 -4.868534901715350 -44.592345888783093 214 169 148 255
-28.995278594743411 -4.080602804732052 -44.691647706537822 200 153 135 255
-28.629722642986110 -3.079261012056691 -44.797335104953085 180 133 113 255
-28.554824082790844 -1.791163703256132 -44.911828780071097 149 108 86 255
-45.356380159442438 -0.754764045904153 -43.066766402891240 164 160 108 255
-40.502869416207147 -3.878596207101509 -43.077700250339980 193 147 118 255
-38.490862397277397 -4.388717581974504 -43.148492625644494 194 147 124 255
-37.448737398606625 -4.001701709133897 -43.240109707056050 173 125 105 255
-35.594978721119332 -4.385997289804152 -43.312481718408911 129 83 64 255
-32.565879093611670 -5.899225431334713 -43.355995088117616 219 173 157 255
-30.578532015235510 -6.442617426728987 -43.422408961324159 215 172 155 255
-29.405711665252568 -6.218616482697968 -43.507487404867113 219 174 155 255
-28.748806495229644 -5.503017009470938 -43.604840383047389 212 167 146 255
-28.311786058348900 -4.575091417708109 -43.707638650256655 197 152 133 255
-28.312200570690550 -3.219358526882729 -43.821765556345895 176 131 110 255
-28.455794246905612 -1.717482093035585 -43.940089818327159 144 106 83 255
-42.866514007212515 -2.891883152357195 -42.013338637254911 186 164 122 255
-39.806383917304970 -4.361165154702690 -42.071461293875544 197 144 120 255
-38.316084318979392 -4.386718578987427 -42.156929494432944 186 131 114 255
-37.570549127553022 -3.721049562316352 -42.255868739028649 144 98 77 255
-35.347325727304280 -4.453812478205123 -42.325711134244465 106 61 42 255
-32.688722147647468 -5.616792703058877 -42.385444362879738 218 175 158 255
-30.775206510226838 -6.088985516970013 -42.458597647294830 215 172 154 255
-29.234757147738605 -6.216493036327506 -42.538351904929186 217 172 153 255
-28.724432457488945 -5.359378484083095 -42.639125612862458 211 167 146 255
-28.213864335448704 -4.501945118581148 -42.739900471900761 198 153 134 255
-28.432581930128379 -2.932430450947209 -42.856786978649197 176 131 110 255
-28.429459505136776 -1.572436292280429 -42.969308316581547 145 106 84 255
-42.093498586391547 -3.441987757877143 -41.000939099223068 191 152 117 255
-39.482340037665324 -4.497665591763564 -41.074297947218668 198 141 121 255
-38.660672360835406 -3.898680224392820 -41.173077656329077 165 110 93 255
-37.691978239141918 -3.440421663265681 -41.269331888251372 95 50 29 255
-35.764621645321597 -3.892799813326235 -41.349932036479508 112 69 52 255
-32.811183486100731 -5.334384561584329 -41.412601433189927 217 174 157 255
-30.677202978321361 -6.016608649425763 -41.487026015803849 213 170 152 255
-29.283967511818162 -6.002823728146325 -41.572852483809108 216 171 152 255
-28.626638901848025 -5.286510155352232 -41.670905223757948 211 166 145 255
-28.408113116935908 -4.144989109857988 -41.776744585910919 200 153 135 255
-28.188055823282298 -3.001413347198365 -41.882805320515686 178 131 111 255
-28.257445763198575 -1.570207755495858 -41.994570195520978 149 108 86 255
-44.610332397422383 -2.327513181426127 -39.917668513772639 165 159 109 255
-40.874403596411923 -4.406150931372395 -39.987867580792098 197 149 119 255
-39.752960681730087 -4.080426483364874 -40.084677760246755 185 128 108 255
-39.004594748217983 -3.410663300105341 -40.185322353838316 125 78 58 255
-38.108974763678134 -2.881193903508745 -40.284032696276789 58 17 3 255
-35.073768598438505 -4.379912548865434 -40.356056243738401 151 111 93 255
-32.933263809306709 -5.052001740045341 -40.437467100788929 215 174 156 255
-30.946618940531835 -5.592718626520337 -40.519599956269190 213 169 150 255
-29.699602406485837 -5.436552581157628 -40.610565704204518 215 170 151 255
-28.894652922721320 -4.859956130288424 -40.707106897516205 210 165 144 255
-28.747927102676726 -3.646137719028729 -40.812862029135502 199 152 132 255
-28.307914793688553 -2.714541191968408 -40.914592379031063 178 131 111 255
-28.303522809650531 -1.353826941986711 -41.022997097360182 150 109 87 255
-43.239160993712574 -3.426262365306627 -38.900026854211220 183 154 114 255
-40.177595562393208 -4.887327123387024 -38.985874108293579 195 145 119 255
-39.725958770068019 -3.940097261544054 -39.089449112069076 153 102 81 255
-39.644258142331978 -2.644911534491655 -39.196014932902258 99 57 37 255
-38.599152413020988 -2.252330870228263 -39.294910955787067 41 10 0 255
-35.195140048637370 -4.098447070411908 -39.372852671958135 173 143 119 255
-32.466024504629218 -5.330377641037728 -39.454680480456474 208 173 151 255
-30.848185606560378 -5.520397458500611 -39.545324830667411 213 170 148 255
-29.821300733781300 -5.152408705121900 -39.640947360421897 214 167 147 255
-28.796431299551500 -4.787144823581059 -39.736187157396252 209 163 142 255
-28.503300763549873 -3.714997392980592 -39.838845645421571 196 152 127 255
-27.990529263275391 -2.854765627223458 -39.939249192101542 181 137 112 255
-28.349316563199579 -1.137475338126706 -40.049674877763522 150 108 84 255
-42.763957837832379 -3.699610109298249 -37.893652258390169 194 153 118 255
-40.522723683595132 -4.402473298339771 -37.991185235840980 183 132 106 255
-39.772979946907526 -3.730573360720882 -38.093289707062091 126 76 55 255
-39.838553863510072 -2.295817252064012 -38.198743136627975 72 35 14 255
-38.497334194776727 -2.180747047648026 -38.298038244505854 23 6 0 255
-35.094936875473650 -4.026632230573057 -38.386233728590760 186 165 138 255
-32.219871864850234 -5.398512514430536 -38.475098666436608 203 174 150 255
-30.896474269864257 -5.307487528765193 -38.571228979022720 209 169 147 255
-29.722877664882901 -5.079872713770840 -38.667670550197478 211 165 145 255
-28.771201142192979 -4.643620323352309 -38.765073856157059 209 162 140 255
-28.039993956666592 -3.996775241269006 -38.863686882039964 198 152 128 255
-27.964388496482286 -2.710310434822247 -38.966994742628565 183 137 113 255
-27.886609681686309 -1.420925464374534 -39.070635678714936 154 112 88 255
-46.626154298090171 -1.359005251795850 -36.782992708002283 175 162 115 255
-42.587093601955473 -3.697840490684655 -36.889146186230732 188 136 106 255
-40.718527550602346 -4.055652719125078 -36.992600582641046 159 106 82 255
-40.042220230690646 -3.313408429748449 -37.095444886914734 91 50 26 255
-40.698438431575369 -1.321786297754159 -37.199106637145370 35 21 0 255
-39.503104569634843 -1.064327033586153 -37.301669157226193 19 19 0 255
-35.510427853796045 -3.465721207749539 -37.399679884293235 188 170 142 255
-32.047335637317019 -5.396587413749046 -37.496043079409802 203 169 144 255
-30.430947611708575 -5.586776663890021 -37.594250155563003 208 167 144 255
-29.258358456505675 -5.360005053359998 -37.692769762562925 210 164 141 255
-28.599704343543294 -4.641615861707066 -37.792314323178800 207 160 136 255
-28.014332695406438 -3.852818558112574 -37.891996470478510 197 152 126 255
-27.719910416149958 -2.779424555835760 -37.992714021095800 182 136 111 255
-27.496837957028731 -1.633017850968884 -38.093899674996329 158 114 89 255
-45.551868013626006 -2.180125577365288 -35.769883486566570 190 162 121 255
-42.484670126238598 -3.627312610414492 -35.884191070977771 181 132 101 255
-41.359552672656491 -3.294823596157755 -35.989556737733544 129 78 54 255
-41.645074311287260 -1.650250321078886 -36.089842643240779 52 18 0 255
-36.072436582981425 -2.765082554111984 -36.408370053565854 176 157 130 255
-31.874799143614041 -5.394694517779669 -36.516845116382534 202 163 140 255
-30.185742231822132 -5.655170897913962 -36.618955430575575 207 164 140 255
-28.867370947496511 -5.569646724556861 -36.719794078140879 205 163 138 255
-28.282225120438113 -4.781135377371072 -36.819517987936685 204 161 135 255
-27.769992475740423 -3.921781281581673 -36.919166928085950 194 152 124 255
-27.475528932115310 -2.848574126482049 -37.018831103618396 182 138 111 255
-27.034844237113703 -1.916545561247801 -37.118602781935309 162 120 94 255
-27.027681855209494 -0.554085841574249 -37.218785802662005 124 88 61 255
-43.509451635623066 -3.892708513567186 -34.770795312013675 193 159 121 255
-41.638180085778515 -4.244699498039495 -34.884225521658621 162 115 86 255
-41.479888682033788 -3.017057945363206 -34.984245227021681 95 49 23 255
-42.653068206383978 -0.540890395159977 -35.075320950266423 35 10 0 255
-35.382473350919497 -3.252362401411631 -35.418856040587123 195 176 148 255
-31.261692185584593 -5.813396457754351 -35.539917943756073 195 158 134 255
-29.574296512503565 -6.075154764830785 -35.645929293905994 193 157 130 255
-28.622880008263110 -5.638268173506589 -35.747594544086184 192 156 128 255
-27.891992242525248 -4.991436868278413 -35.847975447562277 195 155 127 255
-27.307399288231068 -4.203668967138128 -35.947612025811502 190 149 121 255
-27.086000727649207 -3.060120586655785 -36.045876536704775 183 142 114 255
-26.863075160762492 -1.914522512527697 -36.144366217618355 166 124 98 255
-41.916460058748100 -5.193915858694993 -33.779790416499274 182 150 112 255
-40.941237257041678 -4.724547349585578 -33.887270296210438 160 112 81 255
-41.154715955969436 -3.153359575342279 -33.981490677497071 111 68 40 255
-41.956933267176737 -1.023703523546772 -34.070020384507345 53 26 0 255
-38.236512101473352 -1.755401145806673 -34.302272114792004 60 35 12 255
-33.516490099125292 -4.857709944956810 -34.444116153110535 190 164 137 255
-29.841959372980853 -7.003173680854957 -34.573439875276677 181 152 125 255
-29.109859169790127 -6.354555265279060 -34.674697866919004 180 148 123 255
-28.378485747457717 -5.706924781835909 -34.775794553613764 181 147 120 255
-27.574942814247549 -5.131029767723930 -34.877317997820455 185 149 123 255
-26.772451192450319 -4.556559655269382 -34.978626361968303 187 147 122 255
-26.841909239955555 -3.129343950622854 -35.073330605881644 184 145 119 255
-26.836137320463820 -1.769739083848947 -35.168985478795420 166 129 102 255
-43.985404489154519 -4.501972264047197 -32.648434267106659 154 160 111 255
-40.920972531109101 -5.946596194876719 -32.789782226118113 189 149 117 255
-40.319256616891664 -5.135643228101628 -32.892822810834389 178 123 99 255
-40.829731408187740 -3.289694943316988 -32.979665568663300 139 89 66 255
-40.891561109725842 -1.852678926790418 -33.073573840187493 99 61 36 255
-39.695653760125481 -1.592378398923586 -33.185280859110364 44 9 0 255
-36.440018595793788 -3.286146565298111 -33.324306180097508 172 142 115 255
-32.020157711516902 -6.113727448358361 -33.476744406266100 183 155 127 255
-29.743846884096058 -6.931297477311517 -33.599054914308716 174 144 117 255
-28.572629483067715 -6.704306093352102 -33.706386687407949 176 145 119 255
-28.207200287089904 -5.705087608018943 -33.803512910505965 173 140 115 255
-27.258085798233822 -5.270659892859442 -33.907598967075899 170 136 111 255
-26.746801034335363 -4.412741898290335 -34.006391880349184 180 144 118 255
-26.742971743635906 -3.056241566595361 -34.099586788970463 188 151 125 255
-27.026114305268038 -1.410793934708011 -34.190080684511244 177 142 114 255
-43.136795027180369 -5.115609261582790 -31.652739412430805 156 156 116 255
-40.670690682039947 -6.013595003394641 -31.791536506247972 190 147 123 255
-39.920607966542889 -5.340406450357420 -31.897336875122612 189 135 115 255
-40.356748061119788 -3.564079461456060 -31.981461085271093 152 100 79 255
-39.605525496769474 -2.889373517455510 -32.087374325789945 128 83 61 255
-37.822233390009444 -3.187849575997916 -32.211172088361621 70 29 9 255
-33.762289863632816 -5.652868604590708 -32.373142277400618 201 167 140 255
-31.921042871095665 -6.042120244757967 -32.495446178327825 185 153 125 255
-29.572355852499129 -6.929549712653454 -32.625205681143761 173 143 115 255
-28.109000804961624 -6.983783990357949 -32.739444978030541 173 143 115 255
-27.452205519645702 -6.267525606481229 -32.840308713229589 173 143 115 255
-26.577407817388291 -5.764064569189884 -32.944439212195256 169 137 110 255
-26.357758843285524 -4.623781774751308 -33.038434538107879 171 137 110 255
-26.643944938667914 -2.983174896189098 -33.125175633095523 173 139 112 255
-26.998667259856006 -1.266078638138708 -33.211487628728918 159 128 99 255
-42.214503036922110 -5.797639627698004 -30.663429104022484 34 26 10 255
-40.346133299996779 -6.149198779167989 -30.795355931431480 171 130 111 255
-39.373826545468603 -5.682784917416200 -30.906602563934321 178 130 111 255
-39.810096567006440 -3.907508249143120 -30.986876633174802 178 128 110 255
-38.911989215759320 -3.372310780954479 -31.096403716105534 139 94 71 255
-36.540776994357714 -4.227830778603959 -31.236806234219976 150 105 82 255
-33.662456472066140 -5.581533981160987 -31.386539396483712 204 168 142 255
-31.821836552437219 -5.970546581597802 -31.513477699000298 194 159 133 255
-30.133263995899313 -6.226880561681071 -31.636477591648749 174 143 115 255
-28.449614382755612 -6.489857276193675 -31.758599832943773 167 137 109 255
-27.281306153420019 -6.265763396731245 -31.869908932168180 172 142 114 255
-26.333929695128631 -5.833025307978431 -31.976552385931562 174 144 117 255
-26.041599886832103 -4.763896243423915 -32.070592350010536 178 144 117 255
-26.110231307547622 -3.337239630529496 -32.158120286622150 168 137 109 255
-26.826494054308398 -1.264198805223259 -32.234311736726582 151 122 92 255
-42.186962306479302 -5.659445706408150 -29.655777548305224 10 1 0 255
-39.873120288096970 -6.421982188861648 -29.803984380049869 120 88 74 255
-39.346644680233339 -5.543665305037422 -29.905053561881481 179 140 125 255
-38.893921521122650 -4.596016278716377 -30.004244255706467 173 131 115 255
-38.071440098994799 -3.993739923222620 -30.112760343000588 155 116 96 255
-35.481769405515649 -5.059528983449582 -30.264877356001335 179 139 117 255
-32.386289966465370 -6.624810268478655 -30.428037533682399 201 166 138 255
-30.255465136607654 -7.296578899280007 -30.566251654893783 196 162 134 255
-29.375769653371435 -6.785966945913458 -30.673626433536377 181 150 121 255
-28.132292561812733 -6.628781544433849 -30.789307769380407 166 135 106 255
-27.183281690385400 -6.193506509683857 -30.897692751156605 171 138 110 255
-26.599510245464103 -5.406785392027132 -30.997452787361603 179 146 120 255
-26.088371474665450 -4.549221532404886 -31.095532394132832 183 152 124 255
-26.373240750278512 -2.908334172750074 -31.175963674570731 179 148 120 255
-26.365429829114532 -1.547958707221198 -31.263319085151132 170 141 111 255
-50.641976963179957 -1.941742256157625 -28.129187470193067 1 3 0 255
-40.521624588717088 -7.025107559473241 -28.696032993606650 8 4 0 255
