ply
format ascii 1.0
element vertex 645
property float x
property float y
property float z
property uchar red
property uchar green
property uchar blue
property uchar alpha
end_header
-18.146070965146009 -4.641767638546781 -27.972475460435618 125 91 63 255
-18.253933534056415 -3.882168828959507 -27.911639908734202 111 80 52 255
-19.207079317107485 -2.738853375637490 -27.287561155393263 95 67 40 255
-19.906857916024279 -1.705103859722868 -26.832468123957625 82 56 29 255
-20.437732127583018 -0.744506680435904 -26.490046043225050 65 45 18 255
-42.923436432546822 -16.295039541646759 -10.153374535913969 193 165 139 255
-40.678255736157041 -16.307442042255360 -11.672650459625430 166 126 106 255
-38.937239824310524 -16.151668698788896 -12.853130639379089 188 146 124 255
-37.868763601757450 -15.761382328558696 -13.581803266248954 188 142 118 255
-36.547723280828649 -15.471144246189297 -14.480016622980429 186 138 116 255
-35.226425120075049 -15.189555593939303 -15.378311385421910 183 135 113 255
-34.409686240340619 -14.727341757765188 -15.937722253148792 167 116 95 255
-33.676937760213747 -14.238709237946580 -16.440695910170859 141 93 73 255
-32.859899431153679 -13.787011751524162 -17.000223183837335 128 81 61 255
-30.948604404318075 -13.761315478384432 -18.294309956564575 118 72 53 255
-27.269355614104342 -14.433152005904915 -20.775045352729364 129 89 69 255
-24.767876406175702 -14.668194710684872 -22.464916584331718 179 144 122 255
-23.107777164563004 -14.587754484181445 -23.589866938940276 176 143 121 255
-21.868335117111172 -14.350899790633989 -24.432377745227285 170 135 115 255
-21.639112978032415 -13.717630463056508 -24.596855707591089 163 128 106 255
-21.494074058704882 -13.051951047199495 -24.704857713764056 153 121 97 255
-21.601688883908423 -12.284551469967440 -24.643352660231784 147 117 91 255
-21.877805182347288 -11.447509351769511 -24.468839483921670 140 110 84 255
-21.901279196420035 -10.713130747154992 -24.463891370642784 133 103 75 255
-21.335042232077711 -10.224070329581238 -24.854599345875158 128 98 70 255
-20.431682964382105 -9.880015354729636 -25.471440908809825 120 89 60 255
-20.033750410373898 -9.328223532923460 -25.749216924929982 119 85 57 255
-18.961566270411197 -9.065979429293137 -26.479229959334447 141 107 79 255
-18.394879224868077 -8.593822292419262 -26.870163802016208 163 129 101 255
-17.912389661196784 -8.088924126867809 -27.204624030655680 168 133 105 255
-18.188524406781823 -7.257026369652905 -27.030372494022600 164 129 101 255
-18.211814628889130 -6.534222939037292 -27.025733468508776 160 125 97 255
-18.066500112478053 -5.885720020931203 -27.134190574803455 150 116 88 255
-17.752529203960790 -5.313133762185501 -27.355754709256047 140 106 78 255
-17.607189977773970 -4.667029738864954 -27.464292478551926 123 89 61 255
-17.630535704627192 -3.945775193584637 -27.459794222479132 106 77 49 255
-18.497439902247407 -2.841300189031756 -26.889935206354124 92 65 38 255
-19.195831518887843 -1.808372865973197 -26.433158942882557 80 55 28 255
-19.894399175566718 -0.770915365506852 -25.976390922221526 64 45 18 255
-41.576584678269882 -16.579387003143296 -10.089507400377471 55 13 6 255
-39.335961326815720 -16.594649607897495 -11.614572197689483 180 134 117 255
-37.682407894566325 -16.411237243881274 -12.742867744351457 145 96 79 255
-37.371561199916840 -15.746816446809859 -12.964047400364450 189 145 120 255
-35.633540721779326 -15.611731190410850 -14.149205339045039 184 138 115 255
-34.650786976366931 -15.206480028227517 -14.824122007629938 176 128 106 255
-33.667843410497682 -14.807712036406912 -15.499103966998803 152 104 82 255
-32.684710513763264 -14.415421295089999 -16.174151550050908 129 81 61 255
-29.685809213002244 -14.799761417274681 -18.210310777452207 133 87 68 255
-23.998593784167696 -16.239055726528250 -22.061414906111906 116 73 53 255
-21.670214572246380 -16.409854699910412 -23.644235813392896 169 133 111 255
-21.273561949639998 -15.839043901450864 -23.922717705030408 188 154 134 255
-20.456757904644149 -15.436752124243455 -24.484828621076360 180 148 127 255
-19.891877484271475 -14.939500288170365 -24.876840052559345 174 139 119 255
-19.831100864587228 -14.243718222838382 -24.928571334927909 166 131 109 255
-19.938413051872743 -13.480460377373291 -24.866882890064460 156 126 100 255
-20.129815195210512 -12.682350073552342 -24.748489391014175 148 118 92 255
-20.405333944527513 -11.848569679972357 -24.573385967619345 142 112 86 255
-20.512790227791356 -11.082676709316033 -24.511754067219158 134 104 76 255
-20.031746679842769 -10.561596285963802 -24.847257948683307 129 99 70 255
-19.046108034531358 -10.255665798239548 -25.523203533611024 121 90 61 255
-18.564853774662566 -9.742511237083363 -25.858813731322897 125 91 63 255
-17.747107912786817 -9.375991617847788 -26.421415906177117 147 113 85 255
-17.265662396828333 -8.870195912413351 -26.757130252619589 162 128 100 255
-16.868260122779105 -8.331114409256529 -27.036154274981214 164 129 101 255
-16.975574683448031 -7.574504753989032 -26.974777311852961 158 123 95 255
-17.419487512539717 -6.669399776700331 -26.686454417241777 154 120 92 255
-17.358635890611566 -5.984803554348844 -26.738611738252729 145 111 83 255
-17.213641242184963 -5.338096253262577 -26.847549166835051 133 102 73 255
-17.068642388249316 -4.692314570420052 -26.956524332996821 116 85 56 255
-17.344505589421601 -3.857258941077518 -26.781789227702291 104 76 47 255
-18.293908964741405 -2.713930227495638 -26.153065141854057 91 65 38 255
-18.822585625934181 -1.757358038826155 -25.808102468574361 79 56 28 255
-19.688200115586540 -0.641935955578433 -25.236134747359415 62 45 17 255
-42.803677132067349 -16.741724335450456 -8.271499402405368 166 152 108 255
-40.735581732901153 -16.684280166699665 -9.688411148008953 155 119 93 255
-38.248312364668607 -16.791393420853225 -11.389981185252651 142 103 81 255
-36.681905987854066 -16.579520414090283 -12.465662493944563 178 131 111 255
-35.617800905997314 -16.193463642524009 -13.199956452518279 187 143 118 255
-34.721041918891757 -15.752413479653057 -13.820488196445723 189 143 120 255
-33.907894906495017 -15.286028097176811 -14.384163347547315 162 114 92 255
-33.094591521041991 -14.825046041391701 -14.947895186627335 136 88 66 255
-31.610707178095709 -14.624059966738201 -15.967048207842737 138 90 70 255
-25.852132478183307 -16.069628135215837 -19.889331189088125 153 110 90 255
-21.349694082243587 -17.066979061946626 -22.958029141869986 175 137 116 255
-19.696527288340178 -16.983885069432120 -24.091460226156215 197 163 141 255
-19.300596465079195 -16.417988914551941 -24.371066029717099 190 159 138 255
-18.820751453308304 -15.887935492561496 -24.707640990949955 184 152 131 255
-18.424676426430835 -15.327638033208771 -24.987327652909386 176 141 121 255
-18.447851181640544 -14.601416940044302 -24.982386710534712 168 133 111 255
-18.638789797145392 -13.807170900000543 -24.863597262017606 157 125 100 255
-18.578141719005714 -13.114552712723082 -24.915634910348700 148 118 92 255
-18.769165425685657 -12.318829293609880 -24.796882505084028 143 113 87 255
-18.876347830223665 -11.556748028234225 -24.735087590288316 134 104 76 255
-18.815757135872701 -10.864179538549962 -24.787198764285307 131 100 72 255
-17.580359179779123 -10.666785812294847 -25.636560054010431 132 101 72 255
-17.351812042295563 -10.050116364882754 -25.802646148026611 137 103 75 255
-16.619641876229025 -9.650235721567384 -26.310456442243918 150 116 88 255
-16.390988428207237 -9.038222932657348 -26.476626704875542 156 122 94 255
-16.078358818395969 -8.464135559477214 -26.699785865205200 155 120 92 255
-16.269438654170131 -7.671951382738939 -26.581267374820555 152 118 90 255
-16.376613457446098 -6.915513218596303 -26.519724916974695 147 113 85 255
-16.483834027397307 -6.158393948780343 -26.458207650871543 138 104 76 255
-16.339146322901286 -5.513089492765857 -26.567591133478146 124 93 64 255
-16.698415658056319 -4.642078741861908 -26.335251106168045 114 83 54 255
-17.057785771016995 -3.768736852762956 -26.102927968709253 101 73 45 255
-17.921325162687026 -2.663171435576160 -25.528842273541699 87 63 35 255
-18.533012577361319 -1.667759051115297 -25.125650076411574 74 53 25 255
-19.228885382205192 -0.629504617443658 -24.665500479521683 59 43 14 255
-37.915257681233470 -16.716373780093605 -10.654240176706764 127 105 71 255
-36.184965916680852 -16.565035921447262 -11.848235984884354 185 143 118 255
-35.123111441349693 -16.179066506153404 -12.585327234283824 192 147 124 255
-34.311867247831060 -15.707074802682982 -13.151103797487821 194 143 123 255
-33.500465410144670 -15.240492876327480 -13.716935770446923 145 96 76 255
-32.354411344304509 -14.905553518830402 -14.511346793119912 116 69 49 255
-22.283019334025369 -17.243631267521366 -21.413897696445360 184 145 123 255
-19.546149624540021 -17.571498437917512 -23.294288626536769 202 165 146 255
-18.732865845072411 -17.166449899796206 -23.860640619497531 197 161 142 255
-18.337760410542046 -16.602225600669342 -24.141348405511991 190 157 136 255
-17.607884633782248 -16.173390518040506 -24.650662527708846 183 151 130 255
-17.296291581550918 -15.582126257384587 -24.874311000926980 175 142 121 255
-17.152033283829184 -14.925536284486085 -24.983703671992572 166 134 111 255
-17.258863400860037 -14.168002448320564 -24.921682573591880 156 126 100 255
-17.282020718283064 -13.444130403542786 -24.916829006189516 147 118 91 255
-17.388917097681087 -12.685661572573522 -24.854846754065619 140 112 84 255
-17.412124758853849 -11.961381266341178 -24.850036721469337 132 103 74 255
-17.602826072210689 -11.166877975791479 -24.730940817564260 134 104 74 255
-17.039883589824882 -10.689285472911578 -25.126269802351004 138 107 78 255
-16.811855802756014 -10.072934257138812 -25.293015233055883 140 107 78 255
-16.500037845977175 -9.493987123465999 -25.516956202375184 146 113 84 255
-16.355716176413807 -8.844788495062474 -25.626613247592672 148 116 84 255
-16.127605601772188 -8.232979569276765 -25.793466733625991 149 116 88 255
-15.899468702302016 -7.622670197561035 -25.960357140673608 146 113 85 255
-15.755102932177948 -6.976888143724807 -26.070118012452980 140 106 78 255
-15.610729610321926 -6.332049433545265 -26.179913291420434 129 98 69 255
-15.382535110509906 -5.725652364930369 -26.346913776682896 118 87 58 255
-15.992547619402615 -4.742956075910300 -25.942232989101370 112 81 52 255
-16.770376274213731 -3.680209868885427 -25.423210519915898 99 71 44 255
-17.548393533440816 -2.612415668929543 -24.904187855918877 86 62 34 255
-17.907353328661543 -1.732510037683667 -24.671050854515414 72 54 25 255
-18.434132313211705 -0.772524260464152 -24.323574545846327 57 42 13 255
-36.188513394282865 -16.367694992294901 -10.886768587747753 152 120 86 255
-34.878679982939303 -16.072454439479813 -11.798658724665955 190 144 120 255
-34.152635326027848 -15.568700039007084 -12.309250731376181 187 135 114 255
-33.009227523671996 -15.226288409342573 -13.106599261206526 128 78 59 255
-31.031063341742424 -15.207087863215477 -14.477447883986144 127 85 63 255
-24.462114605668916 -16.951755612258793 -19.002372989823471 220 180 157 255
-19.561225361050305 -18.096992260704454 -22.380675063698703 202 165 143 255
-18.332402059292974 -17.849590970580380 -23.235875380062708 201 164 145 255
-17.771235045557631 -17.349112463058432 -23.632345788562333 197 161 142 255
-17.209963437380793 -16.852389006207403 -24.028860652778718 189 154 134 255
-16.648587735094338 -16.359414676358782 -24.425420318763969 180 148 127 255
-16.421161500896318 -15.736362234088816 -24.592601341644780 173 141 119 255
-16.277223175750379 -15.081160232535424 -24.702455546362671 165 135 109 255
-16.133268727401543 -14.426987475997308 -24.812337506781546 158 128 102 255
-16.072837961851747 -13.739571657176938 -24.864886299553518 150 120 92 255
-16.263053183699725 -12.949023458842333 -24.745370657574142 139 112 82 255
-16.286210407229277 -12.226935354425606 -24.740599764598386 134 107 77 255
-16.643649496438030 -11.364462482793215 -24.506384446542967 140 111 81 255
-16.332588734540195 -10.782516423918523 -24.731125996201655 141 110 81 255
-16.105063475966773 -10.167022857436521 -24.898534919699415 139 108 78 255
-15.793917860066358 -9.588938882497658 -25.123350392322976 139 109 75 255
-15.649926320004028 -8.940594639334776 -25.233456813774495 140 110 76 255
-15.673141753764639 -8.220360270265985 -25.228844195824365 141 110 81 255
-15.361912617658106 -7.646799028906941 -25.453765906908160 138 107 79 255
-15.134265598558841 -7.038302141357534 -25.621348422080104 131 100 72 255
-14.990227538496754 -6.394050410435113 -25.731587036936162 124 93 65 255
-15.013469011140842 -5.675713438937763 -25.727094792346065 117 87 59 255
-15.622305467758736 -4.692751489968018 -25.320942072588508 106 76 48 255
-16.231293503258314 -3.705835753697926 -24.914793986513615 95 68 40 255
-16.673094092702257 -2.791602609781236 -24.623425953436623 82 61 32 255
-17.031334230985351 -1.913073384734332 -24.389459660636476 70 51 24 255
-17.640738888899136 -0.915590994760450 -23.983338258049912 54 38 12 255
-35.215995180380901 -15.750546652134048 -10.607842887964324 165 146 108 255
-33.825484443938251 -15.492392535503910 -11.580777185675402 167 118 95 255
-31.935052819305156 -15.431226995328643 -12.899111515203828 110 62 42 255
-20.073837527464008 -18.434610612059771 -21.119125038833204 207 173 148 255
-17.598328944163995 -18.661672936751017 -22.840858154123083 203 167 144 255
-16.955093888039244 -18.192571770099093 -23.296381745030203 204 168 146 255
-16.645002216236605 -17.597172955646158 -23.521701706797074 198 163 141 255
-16.418182164194491 -16.970989296709647 -23.689489748004149 191 156 134 255
-16.274660171659718 -16.313204456093388 -23.799740797701276 183 151 128 255
-15.964435137711860 -15.723382428969316 -24.025154056521416 174 142 119 255
-15.737509288527178 -15.101946859622316 -24.193031146750229 166 135 110 255
-15.343829654354693 -14.550082405595688 -24.476082107792308 159 129 103 255
-15.200187272417310 -13.898050495810494 -24.586450729715892 153 123 95 255
-15.056529220200787 -13.247035481024270 -24.696847096313491 149 122 92 255
-14.996241922260936 -12.562219598376558 -24.749694607846237 147 120 90 255
-15.352930052604563 -11.702459897459931 -24.514673187404384 146 117 87 255
-15.459499018073132 -10.946508117984578 -24.452401394492568 143 113 83 255
-15.566106980456766 -10.189923687825612 -24.390148640096754 140 109 79 255
-15.172231041113747 -9.648053135060707 -24.673419773366874 139 109 75 255
-14.945149549935905 -9.036454263053315 -24.841560207371771 138 108 72 255
-15.051791470530958 -8.280631055816571 -24.779384926271604 137 106 77 255
-14.657794509190012 -7.744367034680508 -25.062766052405181 132 101 73 255
-14.764468166639062 -6.988833344496570 -25.000643596248892 125 94 66 255
-14.620792167188569 -6.344355385335234 -25.111321066933868 119 88 60 255
-14.894472585241715 -5.513237039007407 -24.934059626355463 111 81 53 255
-15.084750878604268 -4.718126802063935 -24.814410542854858 101 71 43 255
-15.609054403415286 -3.769543373479692 -24.464391103308543 90 65 37 255
-16.049992619287309 -2.855866680826907 -24.171978599331936 77 57 28 255
-16.825080919690294 -1.784906198230360 -23.649173848760540 65 48 21 255
-17.433324072132507 -0.786618188664235 -23.241573509084986 49 37 11 255
-33.414534268117734 -15.447148486321538 -10.909193592287124 156 135 100 255
-17.779595675399435 -19.121857669903022 -21.811570035756802 202 172 146 255
-16.805362802121039 -18.776968233655808 -22.499863322323250 203 169 146 255
-16.329759939529254 -18.244239606025488 -22.841579078041548 199 164 142 255
-15.355192581727948 -17.910661062414590 -23.529982162196831 198 163 141 255
-15.045668644660992 -17.320141289984690 -23.756233173453495 189 154 132 255
-15.318232796802846 -16.499387032281817 -23.578067318210657 185 150 128 255
-15.175005792694861 -15.844299873902244 -23.688809676057531 177 142 119 255
-15.031760657480760 -15.190249606171960 -23.799577652415394 169 138 110 255
-14.638930671550725 -14.639245725331676 -24.083723053643297 163 132 104 255
-14.412427226565256 -14.022336015553819 -24.252334432196989 154 124 96 255
-13.936270693173412 -13.510621213736314 -24.594338256350426 154 124 96 255
-13.543243981939185 -12.967263225723670 -24.878594339561346 151 121 93 255
-13.732716510442259 -12.180928132802393 -24.758352464093690 145 117 87 255
-14.088708898671712 -11.322715468029955 -24.522539351809428 141 112 82 255
-14.195068015773643 -10.569129571191652 -24.460116913595840 139 110 79 255
-14.134966119825492 -9.886698798356690 -24.513305218932175 136 107 73 255
-13.908351570194583 -9.277037944546038 -24.682115117509568 132 103 69 255
-14.014776852921386 -8.523134756428774 -24.619760072532500 129 100 70 255
-13.871414655839061 -7.878694855399289 -24.730828770825383 126 96 68 255
-14.061180945099011 -7.087292637278580 -24.610716322588814 119 89 61 255
-14.251006977979500 -6.294671450753981 -24.490621451244664 111 83 54 255
-14.690800632166884 -5.388262481424519 -24.197125715268356 104 77 48 255
-15.047397035231796 -4.516784199308191 -23.961446603641974 93 66 37 255
-15.487410563085263 -3.604916415328447 -23.667970415403488 83 60 33 255
-15.844210974312432 -2.728502159558815 -23.432315425323367 71 52 26 255
-16.534460434767539 -1.695327977190544 -22.965422442941701 59 44 18 255
-17.474919260070351 -0.541006931566045 -22.325087096943975 44 33 9 255
-18.123813065259981 -19.523120892809587 -20.662882209270464 212 177 155 255
-16.322342468599686 -19.490869972141496 -21.933516360151685 203 172 148 255
-15.847829525115117 -18.956584251368895 -22.276512555609713 205 171 147 255
-15.041360257812499 -18.555084653380590 -22.851486769607845 198 163 140 255
-14.400681919017302 -18.093648947958002 -23.310539259246326 194 159 136 255
-14.091814244420362 -17.504791641334904 -23.537681913903981 187 152 129 255
-14.363838618171684 -16.685666612374305 -23.358921748495590 181 147 124 255
-13.971921878888480 -16.132643025366065 -23.644106851144358 176 141 118 255
-13.994982781352661 -15.413577963908580 -23.639356710230714 169 138 110 255
-13.852023317447561 -14.762483783874771 -23.750616423575451 165 134 106 255
-13.709046109380949 -14.112414377598569 -23.861901673336433 159 128 100 255
-12.984801672120653 -13.705216266760061 -24.379209024442815 158 128 100 255
-12.343463387233697 -13.267992027947713 -24.838566083266699 153 123 95 255
-12.449482616101335 -12.519197661819931 -24.775944178750962 147 119 90 255
-12.970847553473874 -11.592974208290130 -24.423315351612700 141 114 84 255
-13.326195865539120 -10.734680112309817 -24.186699094696735 137 111 79 255
-13.432396771638480 -9.981831301371429 -24.124114507627382 131 105 70 255
-13.455548397212993 -9.264508937804493 -24.119557840461312 128 102 66 255
-13.561818608318305 -8.510631379682422 -24.057011524941885 123 96 66 255
-13.585023399950700 -7.792805693164922 -24.052497483647045 120 93 64 255
-13.691365592332431 -7.037868258190130 -23.989991316509418 113 87 57 255
-13.963995091332123 -6.207745234954260 -23.811471768104781 106 81 51 255
-14.153570038324006 -5.413379002702172 -23.690984287170636 99 74 44 255
-14.592626886879174 -4.504390951982074 -23.396454406106017 87 64 33 255
-15.031797600451540 -3.592534307905780 -23.101932714705299 78 59 31 255
-15.803715409197963 -2.524451499458536 -22.575326604428511 67 50 24 255
-16.243151643006854 -1.605745506604762 -22.280816579552834 54 41 15 255
-19.126467338963749 -19.679179750531588 -19.044387607253356 210 189 162 255
-17.163577344627697 -19.699422271965020 -20.436023599839160 207 172 152 255
-15.945289566285339 -19.445938767606378 -21.304017326473343 203 168 146 255
-14.561180568772130 -19.264799124167467 -22.288471015522447 199 165 140 255
-14.087542174883311 -18.736491884433065 -22.632830073520978 192 158 133 255
-13.531008635202511 -18.244071987776877 -23.035425097475411 189 155 130 255
-13.305619189449999 -17.623671529339958 -23.205257062613867 182 148 123 255
-13.245834995807485 -16.938452719938354 -23.258710279446348 175 141 116 255
-12.606236086916454 -16.488060646052034 -23.719614978158575 172 138 113 255
-12.463547218947383 -15.839479633569255 -23.831327162886652 168 137 109 255
-12.072296399270755 -15.293975273934763 -24.117687701124055 165 134 106 255
-12.343825411102017 -14.476837119686436 -23.938404949014057 162 131 103 255
-11.703908327661509 -14.038123682452152 -24.399456754334437 160 130 102 255
-11.395364239389266 -13.464363401801862 -24.627701651736174 155 125 97 255
-11.335415621976836 -12.787402943246988 -24.681334063702479 147 120 90 255
-11.855705824787947 -11.863339703357582 -24.327471632667454 140 113 83 255
-12.293219884355352 -10.971580069594921 -24.031826544335587 134 107 76 255
-12.647932370533567 -10.112927132344311 -23.794404507905199 127 101 66 255
-12.919817818898451 -9.288184022564494 -23.615211191914483 124 98 63 255
-13.025924701925675 -8.534601253236133 -23.552475850132879 120 93 63 255
-13.215005559735772 -7.743640168130781 -23.431533182758614 113 89 59 255
-13.238256731805080 -7.025446124723672 -23.427059609319031 106 83 52 255
-13.676292416773322 -6.120822343037929 -23.131464899600275 99 77 46 255
-13.616673077537030 -5.438525489295216 -23.185258323046270 93 72 41 255
-14.220819419091981 -4.454216863973613 -22.773222184885299 82 61 30 255
-14.908092565260375 -3.427886687943456 -22.302952910769960 73 56 27 255
-15.678519806549161 -2.358712723571756 -21.774446211798448 61 47 21 255
-16.034150893509832 -1.477547088402602 -21.537119461770260 49 38 13 255
-17.916415597156742 -19.947787450991569 -18.990121079992065 199 177 151 255
-16.453170491795049 -19.781061128544067 -20.036479503198052 199 163 144 255
-14.824410000812691 -19.687774472628021 -21.199728315339371 194 159 139 255
-13.608395828969606 -19.444638450045304 -22.071024040724893 191 156 132 255
-12.970507764401077 -18.982798455785598 -22.533520788140947 185 153 128 255
-12.663027490401703 -18.394585316644253 -22.762415246389082 182 150 125 255
-12.107564231783414 -17.907327365664258 -23.166578161363844 176 144 119 255
-11.965247145258672 -17.257774579392304 -23.278706666432385 172 140 115 255
-11.326952145601751 -16.810143484956782 -23.741357786481757 169 137 112 255
-11.019205441945701 -16.231794379588337 -23.970379358153963 166 136 110 255
-10.711404167445920 -15.655558459949788 -24.199431272654550 162 132 104 255
-10.982347825789702 -14.841400818425271 -24.019560358736300 160 130 102 255
-10.922582584649490 -14.163801305866201 -24.073390701840566 158 128 100 255
-10.697410567080425 -13.556334931779091 -24.244092776389493 154 125 95 255
-10.885761877394259 -12.774913534848167 -24.122687392480287 145 118 88 255
-11.322326994913425 -11.886217902617403 -23.826006765767403 138 113 82 255
-11.593539419693087 -11.066012768511044 -23.646188760620788 129 104 73 255
-11.864823186693457 -10.244089785326182 -23.466379574862657 124 99 68 255
-12.218925566467732 -9.384259610900230 -23.228145698502942 120 95 64 255
-12.738628827198227 -8.449251128853930 -22.873046853146178 116 91 60 255
-12.927401582567455 -7.657768178371597 -22.751697579337275 106 87 55 255
-13.281776649479525 -6.791090336347025 -22.513484342394150 101 82 50 255
-13.470680781908442 -5.996640044747679 -22.392160409725847 92 73 43 255
-13.494062040895443 -5.276032156234933 -22.387736263444822 87 69 39 255
-13.683065223855976 -4.479663009382634 -22.266446210556467 78 60 30 255
-14.451783801141886 -3.415522556322188 -21.736052482322890 70 54 25 255
-15.220685749732752 -2.346339245721452 -21.205652302771426 61 47 20 255
-15.575643846140025 -1.465188085234871 -20.967490973248374 47 38 11 255
-15.967646870802213 -20.498444534743157 -19.467187281848481 195 164 141 255
-14.177638573409723 -20.463058780742983 -20.751901853310727 193 159 136 255
-13.046753380329392 -20.184644148771056 -21.567762282465395 189 157 134 255
-12.410308677299383 -19.720981968098158 -22.031965825703566 183 151 128 255
-12.268460787370088 -19.067205870777428 -22.144480652723701 178 148 122 255
-11.631813697029656 -18.610537349888773 -22.608757581297567 176 145 119 255
-11.159982807798059 -18.092279022149768 -22.955826300861787 172 142 116 255
-11.017980732092269 -17.444376400212349 -23.068422349651115 168 138 112 255
-10.628490896253084 -16.897972071045430 -23.356926685207924 166 136 110 255
-10.156430466030116 -16.387982100547390 -23.704094247050563 162 134 108 255
-9.684279944659380 -15.881186282480215 -24.051298233957141 158 130 101 255
-9.872158441501654 -15.103221989403494 -23.929466480237210 157 128 100 255
-10.060087040576690 -14.324116984677929 -23.807643969265911 151 123 94 255
-10.248066329839077 -13.543864398150973 -23.685831111918759 147 119 89 255
-10.436096904803122 -12.762457215106878 -23.564028321744843 140 115 84 255
-10.624179368626301 -11.979888274788806 -23.442236015001299 134 109 78 255
-10.729755902247547 -11.231795901630420 -23.379097258474815 126 102 70 255
-11.083069583256815 -10.375319795421177 -23.140040184026191 119 95 64 255
-11.436471987056422 -9.516578193958210 -22.900988084327196 114 92 60 255
-11.872548460850282 -8.619106401055475 -22.603293706759814 110 88 56 255
-12.060952256623779 -7.828993420421213 -22.481550094714322 103 84 52 255
-12.662422766474492 -6.852684227924627 -22.066564217180286 97 78 46 255
-12.768371571771098 -6.096062147155308 -22.003491632974914 88 69 38 255
-12.956979658534095 -5.301217430180003 -21.881781971951284 82 65 35 255
-13.310902615579863 -4.429520347218698 -21.642774681506495 72 55 25 255
-14.326018086212798 -3.250857401373807 -20.934514346791758 66 52 22 255
-14.928138104640908 -2.257281974150303 -20.519533267570495 57 46 18 255
-15.530406288427741 -1.259737069111111 -20.104551857313368 45 37 9 255
-14.001738456700338 -21.774903179852032 -19.956665102228470 199 170 142 255
-13.367023601660492 -21.299952634181381 -20.422491684509652 193 159 136 255
-12.320893350835036 -20.987322373677429 -21.182501931157049 186 154 131 255
-11.768142719651223 -20.490501796655934 -21.589587706536577 186 151 129 255
-11.544379054433620 -19.868902180930519 -21.761381782621783 179 149 123 255
-11.402857204268628 -19.216503699182041 -21.874365192704602 175 145 119 255
-11.014436045190934 -18.663205622114432 -22.163875935021395 173 143 117 255
-10.132136113983563 -18.310279043908565 -22.806442601594739 169 139 113 255
-9.825822088986797 -17.730733400976646 -23.037186746287233 166 136 110 255
-9.354815128498075 -17.220292212677791 -23.385640833020034 164 134 108 255
-9.213023539775691 -16.578015529204251 -23.498759212440035 156 129 102 255
-9.153546066385900 -15.902743542109263 -23.553054723463703 152 125 96 255
-9.094065241195494 -15.227958817891320 -23.607368687956324 151 124 95 255
-9.446345598242374 -14.380807568288645 -23.367461908666286 149 122 93 255
-9.551626269673278 -13.635947552234654 -23.304105966986981 144 117 87 255
-9.821680586156759 -12.820254274216751 -23.123060019936503 136 111 80 255
-9.927045570363589 -12.073619530731989 -23.059726355783596 130 107 75 255
-10.114832571463580 -11.290706532211658 -22.937551381669238 123 100 68 255
-10.385068408153273 -10.470697030182620 -22.756530408258982 117 97 64 255
-10.737779946914429 -9.612772404352569 -22.516658788268785 113 93 60 255
-11.090580119389756 -8.752574991233942 -22.276791694059199 108 89 56 255
-11.443469592317371 -7.890096619221552 -22.036929573885175 103 84 51 255
-12.126175150627489 -6.877319893969315 -21.561620450951295 98 79 46 255
-12.479280394227260 -6.009172269459697 -21.321763020054760 87 71 38 255
-12.914926129682101 -5.101174509015650 -21.023045551382268 81 64 34 255
-13.350681561795511 -4.190319793255796 -20.724331639117537 73 56 26 255
-14.281347668248628 -3.048090666204558 -20.072403685152580 64 51 21 255
-14.717377628396747 -2.129869443687269 -19.773688618222053 54 44 16 255
-15.318488294006869 -1.131509854777377 -19.357232798859087 42 36 7 255
-13.050191976854876 -21.948367416843809 -19.740459075035631 196 163 139 255
-12.580977923812014 -21.412423910424863 -20.089954808244840 185 155 131 255
-11.044545842550463 -21.290572494825128 -21.207015149849383 187 153 128 255
-10.164553448276706 -20.923995675225967 -21.851812215095549 184 149 127 255
-9.941209405750499 -20.306207286647862 -22.024303961961181 178 148 122 255
-9.964160509030137 -19.592788671618166 -22.019679594996802 175 145 119 255
-9.822879920505244 -18.944721581811947 -22.133163451598506 172 142 116 255
-9.270926567605187 -18.462481193091620 -22.541915384755811 171 141 115 255
-8.718862893577324 -17.983994046146194 -22.950704582267463 164 134 108 255
-8.495278091673811 -17.375279352926100 -23.123318623196496 161 131 105 255
-8.600277065920096 -16.633090201305393 -23.059737018273779 155 128 101 255
-8.540977112156440 -15.958382667618551 -23.114279045351452 151 124 95 255
-8.399499780049638 -15.318466918497137 -23.227897018601084 148 121 92 255
-8.422365586074477 -14.610424346271898 -23.223416285856018 146 119 90 255
-8.609627393055916 -13.832627392699280 -23.100826921964028 139 112 82 255
-8.879138607539403 -13.018562599016676 -22.919182505255975 131 108 76 255
-9.148717747900179 -12.202796919029382 -22.737543455125035 126 103 71 255
-9.665016456235719 -11.278357923705713 -22.378709725981508 118 98 65 255
-9.934759488944280 -10.458357301353985 -22.197077543688664 112 93 60 255
-10.286806794561329 -9.600437424129652 -21.956381761681200 108 92 58 255
-10.392212099005548 -8.849643374145174 -21.892905109716679 105 89 55 255
-10.662157441760883 -8.024718566685692 -21.711295488527412 101 84 49 255
-11.425739509547753 -6.976004680082553 -21.175242750064342 96 80 46 255
-12.107229648918377 -5.959565987492908 -20.698255217467619 88 72 39 255
-12.624323823480950 -5.013752685237549 -20.339416783572119 81 66 35 255
-13.059257230345537 -4.102360337702251 -20.039657701529450 71 56 25 255
-13.741188387842868 -3.073834353609328 -19.562656558697569 61 50 20 255
-14.587892536015801 -1.964088562886602 -18.967482568786068 53 44 15 255
-15.681737166883607 -0.732856938785503 -18.195041682142261 39 34 5 255
-12.650683421416147 -22.628674008071769 -19.116747830300881 197 169 142 255
-11.854985897231188 -22.215143470565494 -19.704532553156298 187 157 133 255
-11.304842935398852 -21.713011575330157 -20.114608224158331 184 152 129 255
-9.771600515124703 -21.593966030361685 -21.235757484453416 180 149 123 255
-8.893430054607194 -21.230157115574130 -21.882944214729491 177 147 123 255
-8.342808918051048 -20.743691876755847 -22.293153495652888 172 145 118 255
-8.365666578636933 -20.034069601697098 -22.288589341080382 171 144 117 255
-8.716335284840397 -19.193678969226553 -22.046996089267822 169 142 115 255
-8.165535059062819 -18.713648971362957 -22.457281755196419 166 139 112 255
-7.860526853748041 -18.137687434938613 -22.689812892826325 158 131 104 255
-7.391507393307336 -17.630850272946063 -23.040900933167194 155 128 101 255
-7.988201829251864 -16.688223828360151 -22.621550635291726 151 125 98 255
-8.011073586916012 -15.980041073177190 -22.617070783393444 147 122 92 255
-7.787950318579760 -15.374732541661103 -22.790415712159415 145 120 90 255
-7.728810521584194 -14.701828481494459 -22.845240207911985 143 118 88 255
-7.833707079527755 -13.959701458053829 -22.781534377017920 136 111 80 255
-8.102692944430515 -13.146723614515025 -22.599288391168841 127 104 72 255
-8.371746039789173 -12.332045501568260 -22.417046937436112 120 100 67 255
-9.051098463509561 -11.337361299330368 -21.938415882444133 114 95 62 255
-9.402386611292968 -10.481978997331595 -21.696895673059799 108 92 58 255
-9.835825125112166 -9.588132719665211 -21.396095569560714 105 91 56 255
-10.023150511443419 -8.800886055073732 -21.273146562243312 101 88 52 255
-10.292609943447900 -7.975700091407347 -21.090921755280931 100 84 46 255
-10.726320551200217 -7.074743867002056 -20.790129382846857 96 80 44 255
-11.488533661380700 -6.021821896402145 -20.252182332521812 87 72 38 255
-12.168816712555412 -5.001441603616328 -19.773513752088917 81 66 35 255
-12.520794313044689 -4.127874754162548 -19.532005297822650 71 56 25 255
-13.119239205131976 -3.137702415646899 -19.112620938768430 61 50 20 255
-14.128499938145978 -1.951749397632170 -18.396755940677053 50 43 14 255
-15.384423664221117 -0.643214431293089 -17.502980561929377 36 31 2 255
-11.538594510563911 -22.862291960491390 -19.022987557556490 189 157 134 255
-10.499386228382917 -22.544201497829732 -19.791335284267319 181 150 127 255
-9.868638863346291 -22.076429809176275 -20.262419098019080 179 147 124 255
-9.074270709241517 -21.676212066468338 -20.852471541381021 177 146 122 255
-7.952723223081847 -21.408928843758659 -21.680437633721283 175 144 120 255
-7.157988695234565 -21.020590676900568 -22.270586688876449 172 142 116 255
-6.853713448317222 -20.443105758806894 -22.503956805407284 169 141 114 255
-7.040054638740799 -19.671608073400847 -22.380517203629296 166 138 111 255
-6.981075863483909 -18.997899060825986 -22.435504187033843 163 135 109 255
-6.922089843597035 -18.324703692284217 -22.490506016825378 158 130 103 255
-6.863097024715671 -17.652015920766843 -22.545522965448129 151 124 97 255
-7.213169655170390 -16.810963344760651 -22.303159201490928 148 122 95 255
-7.317854440122545 -16.069835089689548 -22.239236890175818 144 120 90 255
-7.340736932497038 -15.362428553315212 -22.234806384738334 140 117 86 255
-7.363631971342727 -14.654963917642974 -22.230388754443567 137 115 84 255
-7.386540041500723 -13.947434491478106 -22.225984290497735 131 108 76 255
-7.409461633291528 -13.239833460378051 -22.221593285187936 122 102 69 255
-7.677997724941292 -12.425971553981682 -22.038748055458910 117 99 63 255
-8.274103274707954 -11.467745172500685 -21.617942910524192 109 93 57 255
-8.788462270068152 -10.541576626502064 -21.256621529111499 105 91 54 255
-9.139155891519465 -9.684473683005137 -21.014283597414448 102 90 52 255
-9.571837828782833 -8.788624358249820 -20.712451544253639 99 86 49 255
-9.595070837795532 -8.073683533257693 -20.708106407313295 99 84 45 255
-9.945999102615417 -7.210554076344778 -20.465780007736299 95 79 43 255
-10.378943882485970 -6.307842053401387 -20.163955678350845 86 72 38 255
-11.139743538253981 -5.252055519805992 -19.624121442519566 80 65 34 255
-11.818774919337272 -4.229077203970164 -19.143778837607243 71 56 25 255
-12.497967060032352 -3.201610681227550 -18.663427458717791 61 50 20 255
-13.833029259205887 -1.862692300709512 -17.707009124653325 49 41 12 255
-15.168395130563397 -0.514932732615193 -16.750557368322632 34 30 1 255
-10.406023562000286 -23.815922386344837 -18.937222033501001 197 171 144 255
-8.553629351096362 -23.804614249930850 -20.305078582613589 184 152 129 255
-8.331968283210273 -23.184191613549459 -20.479536823085311 176 144 121 255
-7.702436349225962 -22.722141032446942 -20.952394624252065 174 142 119 255
-7.643788626042664 -22.043094587457929 -21.007544772590933 175 143 120 255
-6.850888563770582 -21.651580380336952 -21.599823193286511 173 141 118 255
-6.057822108805937 -21.265463448028271 -22.192145585688223 171 141 115 255
-5.835789087812856 -20.657743955184472 -22.366731734366880 167 137 111 255
-6.184973008825949 -19.822745946571260 -22.123545976244543 163 133 107 255
-6.126148994562612 -19.150406703541407 -22.178788603821886 160 130 104 255
-6.230569326880186 -18.412105855366534 -22.114669296528405 157 127 101 255
-6.253382314125787 -17.706740727478561 -22.110247267805676 151 121 95 255
-6.766067257090725 -16.798669662204915 -21.747688100003444 145 119 92 255
-6.952258749098718 -16.023505163119253 -21.623892533626872 142 118 90 255
-6.975174503758154 -15.315845392509019 -21.619491557785892 133 112 81 255
-6.834762505209511 -14.677304380587231 -21.734495520981881 133 114 81 255
-6.939363561833034 -13.935204356798664 -21.670424195252764 124 108 74 255
-7.125682293014307 -13.157364239561844 -21.546662373052385 115 101 64 255
-7.393745490215508 -12.342966396736315 -21.363205359848678 111 97 58 255
-7.825284854809127 -11.455523863263878 -21.060345406311939 107 93 54 255
-8.093498991069112 -10.637164593498056 -20.876891878155817 103 89 50 255
-8.280058218766783 -9.853292957749105 -20.753148620158782 100 86 47 255
-8.711861604078052 -8.958792441374996 -20.450288789578991 98 84 45 255
-8.898548764149524 -8.171723573856170 -20.326555928505030 95 81 43 255
-9.494031607160878 -7.198345752896955 -19.904274775992207 90 76 39 255
-9.680866602534252 -6.407505976496751 -19.780550389641007 84 70 37 255
-10.440119407741889 -5.352511677930224 -19.238833118297009 76 62 33 255
-11.281324307285701 -4.254666130412858 -18.637386267905953 68 54 25 255
-12.286292594733510 -3.075044376952491 -17.916487726464766 59 48 18 255
-13.700456784849933 -1.696890408406844 -16.896970338052171 48 39 10 255
-10.171205627834098 -24.432365241321193 -18.196041191243779 211 187 161 255
-7.672051623174696 -24.658471876668642 -20.047835491264948 190 159 136 255
-7.288158298484063 -24.100221073092271 -20.342735895558974 184 149 127 255
-7.229725511825535 -23.420359585912877 -20.398114977148083 180 145 123 255
-7.334069880310835 -22.678346928010782 -20.333729129317277 178 143 121 255
-6.868617943027004 -22.157159784471645 -20.688578867972865 172 137 115 255
-5.996010152447582 -21.798677909688124 -21.342916672829233 170 135 113 255
-5.286058476875212 -21.381808665237841 -21.877513999261339 167 137 111 255
-5.064531978206389 -20.775196621853809 -22.052780190475488 164 134 108 255
-5.168712538955589 -20.039380915661795 -21.988478634787072 159 129 103 255
-5.354365699844749 -19.270033033852371 -21.864284887138268 159 129 103 255
-5.295696897888035 -18.599307026200236 -21.919795018030356 155 125 99 255
-5.562876214669529 -17.795039169997139 -21.735711140270553 149 121 94 255
-5.911590656678641 -16.955330526135697 -21.491724093834279 143 117 90 255
-6.260385401986241 -16.113417127214035 -21.247734391576927 139 115 87 255
-6.364790030191244 -15.372260696043853 -21.183463068983741 132 111 80 255
-6.224726196434403 -14.734285454264793 -21.298925397735445 129 110 77 255
-6.410670280847881 -13.957874577635437 -21.174764929625667 121 105 71 255
-6.596661554783566 -13.180312272755401 -21.050609591940599 114 100 61 255
-7.108801995796227 -12.259977798782998 -20.686805507585888 109 95 56 255
-7.539526697509615 -11.371989347821270 -20.382909137203995 106 92 53 255
-7.807266938904007 -10.553093790342217 -20.198842567649052 101 87 48 255
-7.748867093630167 -9.877333439434835 -20.254452862715738 99 85 46 255
-8.016706314884630 -9.056068198895048 -20.070399162744394 96 82 43 255
-8.366182727257268 -8.196310745334614 -19.826427354759772 92 78 40 255
-9.205213940441752 -7.112114797328431 -19.222916198386628 88 74 37 255
-9.473328940094888 -6.283449195063014 -19.038861324404678 82 68 34 255
-10.149492338593177 -5.265188986439540 -18.555178217728439 75 61 32 255
-10.907418758332085 -4.204614499464569 -18.011555792924241 66 52 24 255
-12.155202471502861 -2.910365920477105 -17.108340829314926 54 45 16 255
-13.566514277486760 -1.531073587255889 -16.085230505206368 41 34 5 255
-10.178773555686035 -24.960440336886350 -17.273229451625724 211 189 160 255
-7.604081246433964 -25.206960169224814 -19.191672182206389 190 160 139 255
-7.221157237039563 -24.646019027968507 -19.487650751580787 190 153 134 255
-6.513327618567047 -24.211070990914905 -20.024042752120067 182 147 125 255
-6.455062802447571 -23.532305181675369 -20.079681151973347 176 141 119 255
-6.234339659871011 -22.916807684428221 -20.255532026250222 172 137 115 255
-5.363713951905538 -22.555956100416424 -20.912219825789037 168 133 111 255
-4.655384072368292 -22.137253481401558 -21.448744884575007 168 133 111 255
-4.028153246293016 -21.691241490726398 -21.925202935486567 165 133 108 255
-4.375888783162992 -20.860295916662935 -21.680407651640735 164 134 108 255
-4.886235853046855 -19.961762500654515 -21.315389573403138 161 131 105 255
-5.071592911381572 -19.191878314971419 -21.190803442349647 158 128 102 255
-4.769286415749576 -18.620371960245365 -21.426894443308242 154 124 98 255
-4.548211963412086 -18.017477310708671 -21.602894191697828 150 120 94 255
-4.977510253631436 -17.145867182917570 -21.297987598582864 144 118 91 255
-5.406905796373934 -16.271512659993022 -20.993074341219710 138 114 86 255
-5.592440467543014 -15.497389385616813 -20.868511914127538 130 109 78 255
-5.534035830066841 -14.825921482043398 -20.924315469929439 126 107 74 255
-5.882310006089227 -13.980591838363054 -20.679521142426040 118 102 68 255
-6.230665812591042 -13.133030570777507 -20.434724559313764 115 99 62 255
-6.823167666501149 -12.177006293518815 -20.009549050667914 111 96 57 255
-7.171714603113685 -11.324149125548985 -19.764743902247289 105 91 52 255
-7.194855833157220 -10.612831973983958 -19.760453029265619 102 88 49 255
-7.136629361599660 -9.937634151639642 -19.816304605550869 98 85 46 255
-7.648127799787687 -9.007446003516350 -19.451246429388561 94 82 42 255
-8.322543441751463 -8.000379724826786 -18.965913674663199 90 77 38 255
-9.078522310777146 -6.951834141653833 -18.420432386795397 85 73 35 255
-9.427593934672416 -6.084791323894791 -18.175620087469781 79 66 33 255
-9.939602183915554 -5.140303033056455 -17.810530983950457 73 61 31 255
-10.614600624251096 -4.116736893790119 -17.325155799924460 62 51 22 255
-11.941299431914729 -2.783786551226072 -16.358634598319924 52 42 15 255
-13.268298757558739 -1.442008187868552 -15.392076670812258 38 33 4 255
-7.534239574982081 -25.758164694623432 -18.333312459599966 201 174 150 255
-6.666181939370858 -25.376217575377908 -18.992208480424068 194 161 142 255
-6.122041038896384 -24.878033365332115 -19.409916541912281 187 152 132 255
-6.063991894194260 -24.198722942254904 -19.465797337414017 177 142 120 255
-5.762799177915667 -23.613247543503306 -19.702622364443556 171 135 113 255
-5.623646596924431 -22.967222761981873 -19.818842081219401 169 134 112 255
-4.998097719377711 -22.512077973964509 -20.296963760785587 169 134 112 255
-4.210275046402359 -22.125060350410990 -20.895752431643075 169 134 112 255
-3.908755621015928 -21.550409761329391 -21.132674347716545 167 135 110 255
-4.093697297100249 -20.783260716386181 -21.007699619354668 166 136 110 255
-4.440873372593472 -19.949594825739212 -20.762083738491327 162 132 106 255
-4.463707268124097 -19.245677202962426 -20.757754836445713 161 131 105 255
-4.080980583222185 -18.707993904546456 -21.055057680172354 154 124 98 255
-4.022664272932076 -18.038892342033435 -21.111080678811049 149 121 94 255
-3.964339037085153 -17.370293747170294 -21.167115942151099 141 115 88 255
-4.230565219509373 -16.565943890454434 -20.981845319986775 135 111 83 255
-4.496853465304582 -15.759923773982536 -20.796574209768494 127 106 75 255
-4.925519304602972 -14.883022316096913 -20.490637113755724 122 103 70 255
-5.110784260746129 -14.107973455811674 -20.365696986720025 115 99 65 255
-5.458445296182475 -13.261489066959825 -20.120088097384098 112 96 58 255
-5.643819997941961 -12.483591567720467 -19.995151973472076 108 93 54 255
-6.154012275517857 -11.561797613915942 -19.628862282675328 102 88 49 255
-6.258314702100648 -10.816434887697383 -19.564268907130696 100 86 47 255
-6.525067866959773 -9.997985867863434 -19.378997996347209 95 83 43 255
-7.116763327306813 -9.031833521862481 -18.952351635505494 91 79 39 255
-7.952279438715806 -7.951489507465013 -18.344656636884054 88 76 37 255
-8.625512406839192 -6.939684004994689 -17.857636118131978 84 72 34 255
-8.892673180795498 -6.109945462513465 -17.672347156720122 75 63 29 255
-9.647428390483810 -5.052991664525791 -17.124956963213634 65 54 24 255
-10.321094927843717 -4.028866208341327 -16.637902791749525 58 47 17 255
-11.726367807263102 -2.657203743059426 -15.607651626717256 47 40 12 255
-13.213239107637548 -1.237784879732857 -14.517004293942051 33 29 2 255
-8.028327691888535 -26.103869028037792 -17.049147425916175 205 182 154 255
-6.515680162069884 -25.955868083318606 -18.194513294338179 206 175 155 255
-5.811168667401915 -25.515298444346669 -18.734762538376970 200 167 148 255
-5.834200729872379 -24.804610518589300 -18.730365378851616 190 153 135 255
-5.452916887756174 -24.248080014341213 -19.028584259780473 181 145 123 255
-4.909804445574167 -23.756462332364464 -19.447873491202188 174 138 116 255
-4.204811183769891 -23.331372175964319 -19.988243200046639 172 136 114 255
-3.742336224180860 -22.816241623187850 -20.347068758111021 173 137 115 255
-3.603357732664847 -22.176728835508982 -20.463806753404100 173 137 115 255
-3.626165579503635 -21.473941411756869 -20.459497973674360 167 135 110 255
-3.891729254429919 -20.673807339774513 -20.273600761339964 165 135 109 255
-3.914576065735673 -19.970189795014022 -20.269301815446624 162 132 106 255
-3.775561572987726 -19.332526473747251 -20.386080961426927 159 129 103 255
-3.474633513542841 -18.762431535491771 -20.623948247498959 152 122 96 255
-3.659352743039904 -17.993306950474022 -20.498605756876657 145 116 89 255
-3.601233819445440 -17.324455088730744 -20.554885321300731 136 110 83 255
-3.786013334714454 -16.553900341004393 -20.429551279112417 130 106 78 255
-3.808880791044515 -15.850889189755151 -20.425306097981036 122 101 70 255
-4.317678091924364 -14.940181160357469 -20.057799583162193 117 98 65 255
-4.583603772563180 -14.130799728108130 -19.871922496451361 109 93 59 255
-4.930596605402798 -13.284580692745735 -19.625496613016963 107 91 53 255
-5.034630775450893 -12.542375365440350 -19.560716835070764 103 88 49 255
-5.219715391429020 -11.763858362777825 -19.435391933983738 100 86 47 255
-5.323815758000734 -11.020127090814441 -19.370623495180723 97 83 44 255
-5.752103848944870 -10.130844899532946 -19.063642996242407 91 79 39 255
-6.342589105954403 -9.165756981151063 -18.635544046291017 87 76 36 255
-7.338496670717490 -8.012926859797858 -17.904643579814291 85 73 34 255
-8.253563150888539 -6.890524238816312 -17.234274996759524 82 70 32 255
-8.682388227835702 -5.985898667130016 -16.927248881741292 73 62 28 255
-9.597818211008502 -4.852948744163598 -16.256841953555579 61 50 20 255
-10.189087101176483 -3.865301622141274 -15.828668622865962 55 44 14 255
-11.429306438357884 -2.568739266719675 -14.915958102006584 42 35 9 255
-13.318689347973844 -0.956755280658626 -13.518672946140299 29 25 0 255
-7.734851073519394 -26.031946032116906 -16.362670623558643 208 177 152 255
-5.983503739116429 -25.973564901326128 -17.694300276521687 208 177 158 255
-5.119205031677950 -25.593897611505113 -18.357967322735874 209 173 157 255
-4.658138482256106 -25.067394990999915 -18.718013097520014 196 161 142 255
-4.035584267961980 -24.605819854125727 -19.199553039240584 190 151 134 255
-3.654999325277856 -24.055281142921686 -19.498917400391065 179 142 123 255
-3.274331005964342 -23.507457103038519 -19.798304267763058 175 138 119 255
-3.377895929152032 -22.772495521360653 -19.733278280947985 175 138 119 255
-3.400755188081547 -22.068909190227473 -19.728996232444416 174 139 117 255
-3.423619736665955 -21.365321476171374 -19.724720684772450 170 135 115 255
-3.284998502252336 -20.726629019600480 -19.841940144053979 166 134 112 255
-2.823330190636284 -20.219888307358147 -20.202156200562285 161 129 106 255
-2.684615902264966 -19.584404701604228 -20.319409089890456 156 126 102 255
-2.707417246527854 -18.883454548034720 -20.315177505731810 144 117 90 255
-3.214910625553955 -17.981287159954320 -19.946449051274925 138 111 84 255
-3.076199858952350 -17.346252288699588 -20.063727136822422 132 106 79 255
-3.179856945661612 -16.610041055359787 -19.998757539387327 127 104 73 255
-3.283539762092943 -15.873240451329707 -19.933792523085089 120 100 67 255
-3.710512734912641 -14.997398281828126 -19.625803564312605 114 96 61 255
-3.895108200572992 -14.223437077521723 -19.500083007046442 106 91 54 255
-4.241415436361763 -13.378022644261918 -19.252843567197544 103 88 49 255
-4.506960437490989 -12.565792388432769 -19.066361806468962 99 85 47 255
-4.934270926286928 -11.680473374657183 -18.758351928878767 96 83 45 255
-4.876519807282989 -11.008134986120780 -18.814926170683549 92 79 44 255
-5.546581914318807 -10.010145875775706 -18.324611489115313 85 75 39 255
-5.974163522117237 -9.117234738934627 -18.016585755259882 81 71 35 255
-6.806277941634391 -8.037640256211006 -17.404703688354516 77 70 33 255
-7.638581362147391 -6.952516165539720 -16.792799567544449 76 68 31 255
