ply
format ascii 1.0
element vertex 646
property float x
property float y
property float z
property uchar red
property uchar green
property uchar blue
property uchar alpha
end_header
-30.578018793633987 -19.865356897537026 -4.519387552366950 184 136 116 255
-30.692059421669143 -18.779785446311280 -4.564428317655157 176 124 103 255
-30.865670069719528 -17.771057987496818 -4.644880093040285 167 115 94 255
-31.040298753906086 -16.760604281233071 -4.725869460328283 157 102 82 255
-31.331998278040231 -15.907356335456370 -4.876573870950125 144 89 69 255
-31.508404764577165 -14.893891513368004 -4.958496636818325 133 79 55 255
-32.032403089343603 -14.358194686062404 -5.247634899297452 126 72 46 255
-32.440584499222297 -13.663174060162874 -5.467707404144306 115 63 39 255
-32.848738033095543 -12.968210758284783 -5.687749399896873 127 75 53 255
-33.314231228188788 -12.353892902171935 -5.941993986475268 148 96 73 255
-33.664971059120887 -11.578441886223487 -6.127743762890702 118 70 48 255
-33.901752187751441 -10.640505217379427 -6.245426235963933 94 46 24 255
-34.481121938590945 -10.188858600083876 -6.567622061190292 110 62 42 255
-36.082751523143372 -11.205433189895587 -7.500427352364369 182 135 117 255
-38.189169633845012 -12.966921544261709 -8.735109729239312 199 152 134 255
-40.344230610728147 -14.823864747511038 -9.999303975782908 200 153 137 255
-42.265336165106163 -16.366107055930115 -11.124124952686117 204 155 140 255
-43.785146106107788 -17.343777722249115 -12.009436781538582 202 150 139 255
-44.344664826190126 -16.926008578930407 -12.320809530678105 195 142 134 255
-45.407798578714136 -17.255152400821515 -12.933425001827658 98 48 41 255
-46.411855720180142 -17.506633329656779 -13.510862138156213 152 103 97 255
-47.636140370108961 -18.096215467831655 -14.220231122493928 156 110 104 255
-48.188686823794995 -17.690378316115812 -14.527750320590258 172 127 122 255
-49.073556785178340 -17.788311378602799 -15.034246045911971 198 153 147 255
-49.789911995783655 -17.638390453140119 -15.439946235446811 199 152 145 255
-50.559955587193059 -17.575337993768812 -15.877871159523494 193 145 136 255
-51.107689868266846 -17.177762578545497 -16.182689197418924 184 132 120 255
-51.544680254694214 -16.612236253408696 -16.421159585164418 171 117 105 255
-52.146006529743744 -16.301713637640432 -16.758118653149623 152 100 89 255
-52.582134831639706 -15.737693979042234 -16.996063365117209 140 91 84 255
-53.290998763825428 -15.600638462386030 -17.397552168525934 106 68 59 255
-53.235868917351837 -14.268730319804945 -17.340814587846509 49 28 15 255
-52.693939583017311 -12.161326195782522 -16.991823151628708 34 24 11 255
-52.969495181295002 -11.336003858452329 -17.133137446887559 24 21 8 255
-55.029750301919535 -13.354662680651927 -18.345765619931228 9 10 0 255
-57.297594841848621 -15.732934894771603 -19.683522768771269 1 3 0 255
-59.610044951162337 -18.213535042278693 -21.048617138095636 0 3 0 255
-57.297615924366283 -13.238126793536424 -19.635723657419106 0 4 0 255
-55.266151136414692 -8.675687688070809 -18.390785540347721 0 4 0 255
-60.402735838712005 -13.301160698170406 -21.405625443416099 0 4 0 255
-55.248644725731111 -0.865556208079454 -18.229872376893923 0 6 0 255
26.165805558759843 -21.468992301506631 26.705199655017282 204 176 147 255
23.062543944848812 -23.323925247162720 24.912755200598497 206 170 148 255
18.782143265927147 -25.137870209730039 22.453076044696047 206 171 149 255
14.208287667292637 -28.593436892909097 19.798781638101872 215 180 158 255
12.643122989049402 -28.962528483948404 18.904351468607814 217 182 160 255
10.952759376131411 -29.475355650156445 17.936404476125176 218 183 161 255
9.461860875138228 -29.792403931458125 17.084958933740523 217 182 160 255
8.039948106718242 -30.048435057401548 16.273678208478060 217 181 159 255
7.460703458519021 -29.419231389823466 15.955636800607635 217 179 158 255
6.431459544349764 -29.273048284341883 15.373990872630472 218 177 157 255
5.083492482073297 -29.476481464670940 14.605507920207387 215 174 154 255
4.252197110639287 -29.131927859510341 14.139531153167070 212 171 151 255
2.846811200700017 -29.416032484905060 13.337055442797535 211 170 152 255
1.764708272720753 -29.358260073910088 12.723836122963178 211 168 151 255
0.494223388502121 -29.515109626887352 12.000046151375329 210 167 149 255
-0.518417670508228 -29.397123923755828 11.427237578789573 209 166 147 255
-1.401696559777406 -29.142465376167479 10.930149451873959 211 166 147 255
-2.219721300568636 -28.820441497659658 10.471223171572078 211 166 146 255
-2.846537121574130 -28.288588558926222 10.124359307622157 211 166 147 255
-3.787693600446062 -28.113817289657533 9.593026292919191 211 166 147 255
-4.600819419144415 -27.800107894099000 9.136698838613157 209 166 147 255
-6.102833334079776 -28.276521088037697 8.275991979195751 209 166 147 255
-7.099084887007848 -28.186378750852953 7.711920239467389 212 170 150 255
-8.155378887398086 -28.172458617195389 7.112469523011953 215 172 155 255
-9.021797018126051 -27.946442342188618 6.624366800590550 215 172 155 255
-10.508753639515987 -28.448465753583548 5.771733842528107 213 170 153 255
-11.556315693577886 -28.449394709457067 5.176961135134917 215 172 155 255
-12.415199739439714 -28.236189247435817 4.692892713059706 216 173 156 255
-13.519548336931791 -28.318881202593616 4.064491573875671 212 170 153 255
-14.806054363502568 -28.626800475331265 3.328886274090323 211 169 153 255
-15.965603699036365 -28.793957551669536 2.667714728874031 217 176 161 255
-17.060445325334030 -28.892825226645414 2.044420409758686 221 181 169 255
-18.397575443721706 -29.293000341311711 1.278509003199986 226 188 175 255
-19.302349792924389 -29.180098652511020 0.766667231757339 227 191 179 255
-19.960715680442348 -28.772899190623036 0.399655196280776 225 189 175 255
-20.557029955940806 -28.292889245490500 0.069090730234379 223 187 172 255
-20.970112195709561 -27.589475414689701 -0.153700132105740 222 186 170 255
-21.565097890893412 -27.111724938344821 -0.483552588074176 223 187 171 255
-22.098697822681004 -26.560031448005844 -0.777314543987956 223 187 173 255
-23.296018138025119 -26.841323913896133 -1.461871445982780 222 187 172 255
-23.947493393672659 -26.445852065948003 -1.825176593356346 220 187 172 255
-24.718102460645866 -26.204459646900233 -2.258702438569003 219 183 169 255
-24.947104684069330 -25.279086762924010 -2.373261006131713 215 179 167 255
-25.655744822674080 -24.964747540419040 -2.770376846893910 213 177 163 255
-25.885157836346536 -24.038678421435122 -2.885151825547098 212 175 160 255
-26.651693611698732 -23.804228721564328 -3.316470511517991 214 173 159 255
-27.059789603833309 -23.109313235340068 -3.536560244238530 212 170 156 255
-27.764501741599389 -22.801672900865299 -3.931541671617424 210 167 151 255
-28.171830590789597 -22.108070630055295 -4.151206833679922 203 159 143 255
-28.756317766788925 -21.648217248259272 -4.475365993779292 199 153 137 255
-29.222088274627907 -21.033579258872010 -4.729521350563061 191 145 126 255
-29.452326448440317 -20.106130907162992 -4.844700727014938 186 138 118 255
-29.448619905801564 -18.863169330591631 -4.821759443977001 180 129 110 255
-29.680883950463624 -17.932283021005759 -4.938012952571967 171 119 98 255
-30.205943727320971 -17.395180483066014 -5.227092859409765 165 109 89 255
-30.497328599638621 -16.542106785573395 -5.378195251871006 156 99 80 255
-30.789204551401355 -15.688204436263163 -5.529550602146486 144 86 67 255
-30.849523240586734 -14.514726221423984 -5.544068515060928 139 82 59 255
-31.374438009216135 -13.977901645955399 -5.833021482493933 134 78 53 255
-31.898793716257813 -13.442037958546450 -6.121658961480634 131 76 54 255
-32.480209151014606 -12.987492207627213 -6.444040609084780 147 92 72 255
-32.888353101091184 -12.292593527939687 -6.664001594925907 154 101 79 255
-33.296473406671481 -11.597745602504119 -6.883933355564068 114 63 42 255
-33.876233496728702 -11.146049686420270 -7.205373469938593 147 96 75 255
-35.254418925898591 -11.833382252312475 -7.999202290325229 188 139 120 255
-37.425487635811152 -13.669178976546476 -9.262433246551140 191 142 125 255
-39.304237007581975 -15.110398518214822 -10.353066773300029 195 146 129 255
-40.949342464944920 -16.235598825630973 -11.305732125564575 192 145 129 255
-42.079589803561561 -16.631284752687350 -11.953833341523477 206 157 142 255
-43.262828457657832 -17.115218594331054 -12.633481157695741 204 152 141 255
-43.710517956946802 -16.531555855285546 -12.877592467977649 191 139 128 255
-44.775750899931410 -16.859516969024696 -13.487584556163540 150 100 93 255
-45.893851748225785 -17.275937096569351 -14.129055191314535 139 90 83 255
-47.232128023688034 -18.031332539800673 -14.901196376511137 172 125 119 255
-47.952475405411718 -17.875790567643946 -15.307201671610400 200 155 150 255
-49.005068492346425 -18.225329748012996 -15.910291212470156 205 158 154 255
-49.721483906143817 -18.076513503090155 -16.314128420364014 205 158 152 255
-50.104101090041524 -17.425292279252403 -16.519993066525416 202 153 146 255
-50.707700811120759 -17.111674442116623 -16.856959717824225 191 141 130 255
-51.144945396502379 -16.545937847760001 -17.095217708031015 180 128 115 255
-52.186690630276274 -16.914028830395154 -17.692331576498177 159 107 94 255
-52.676858980411055 -16.436678142713788 -17.962063678094765 138 88 78 255
-53.604229314756623 -16.642624456166345 -18.491463161529822 94 55 44 255
-53.546560826339629 -15.313487893895513 -18.435792172716759 36 11 2 255
-53.001019349253681 -13.208913741314007 -18.090066861423921 22 8 0 255
-52.351384983219447 -10.924680210586189 -17.682182170363291 20 15 3 255
-54.741092562617979 -13.459266272647938 -19.080826599943464 9 10 0 255
-56.796767162181169 -15.491849325717567 -20.281368360277270 3 5 0 255
-56.417945984902104 -13.638879687594681 -20.034379752055131 1 5 0 255
-58.732230382880260 -16.123468762249786 -21.389296009607293 0 4 0 255
-57.051408817618380 -5.782826043114085 -20.255431431073106 0 4 0 255
25.657070781339257 -21.141879994790514 25.294945945059425 204 172 148 255
22.817572860633419 -22.739196331353526 23.667883330560642 201 169 146 255
17.697857018451771 -26.707127431927319 20.717449394834489 204 172 149 255
14.817094876482912 -28.412800517634082 19.065383991032320 210 178 155 255
12.728188387526927 -29.322806640431338 17.872433338330723 213 181 158 255
11.556391867970717 -29.293096336864323 17.211503212221714 216 184 161 255
10.387610185536033 -29.268504457084788 16.552174972315896 217 183 162 255
9.545641417257031 -28.907055110346732 16.082450407920533 216 179 160 255
8.705355287533848 -28.548457317724711 15.613611821904314 215 177 158 255
7.544284427101104 -28.536953083160256 14.958375326886710 216 175 157 255
5.613902391034600 -29.359465278263542 13.856120021166092 214 173 155 255
4.588908658999372 -29.222310648695725 13.279578609000623 211 170 152 255
3.694582983904581 -28.950310038656625 12.778838843337226 212 171 153 255
2.418436681579180 -29.100139116483064 12.056109225904635 213 170 153 255
0.762863024266608 -29.675872693239455 11.112679669516595 214 171 154 255
-0.569097174162636 -29.909305958702504 10.357136558996118 212 169 150 255
-1.198065046802441 -29.374441738613257 10.010137811351044 213 168 149 255
-2.206728781127396 -29.265026273835986 9.442296634129946 213 168 149 255
-2.959730867900561 -28.876272367066576 9.023023793279435 212 167 148 255
-4.090303797508028 -28.916585930245873 8.384054850450923 212 167 148 255
-4.461500865345016 -28.105948198155289 8.186720172132809 210 167 148 255
-5.839250953322761 -28.440020638840679 7.403716018586522 210 167 148 255
-7.087405046262887 -28.637426431025119 6.695942976725405 213 170 151 255
-8.081496029328633 -28.552774364456980 6.135880265379512 214 171 154 255
-8.198119767825176 -27.460925756574682 6.086496806304879 216 173 156 255
-9.563333167962838 -27.816316255790980 5.310207150529834 216 173 156 255
-10.862252190074940 -28.105919294885041 4.572336594972867 218 175 158 255
-12.157378223896444 -28.401975169975060 3.836502282632779 218 175 158 255
-13.014928860057267 -28.192459159306310 3.355380815881873 216 174 156 255
-14.241565504540489 -28.426461411071074 2.659143300022848 214 173 155 255
-14.909343566557283 -28.004079718150820 2.288382018771784 212 173 156 255
-16.006986055767243 -28.100390662106520 1.667051300381416 214 177 159 255
-17.101638785444123 -28.201789025280902 1.047327311186251 218 181 165 255
-18.193303349546966 -28.308272531659270 0.429209879605338 225 189 175 255
-18.853764540351079 -27.898337100535116 0.062374114943907 225 189 175 255
-19.696219562181653 -27.714501594906636 -0.410644879629444 223 187 171 255
-20.414933049439639 -27.384037360586916 -0.811579081086805 219 184 167 255
-21.314583489370960 -27.281473483030311 -1.318125345065212 218 182 167 255
-21.726895749491689 -26.579411986007472 -1.540436270474558 215 179 167 255
-22.562724139924910 -26.406855951202090 -2.009888551631860 216 181 168 255
-23.094738222557453 -25.858299848516964 -2.302109153120355 219 186 171 255
-23.987641682338136 -25.767223758336371 -2.805018485469361 221 185 173 255
-24.217104816856619 -24.840517755770179 -2.920686476719595 216 180 168 255
-24.867177946999504 -24.448267318677949 -3.281926214127807 211 175 163 255
-25.276733489955831 -23.750904050058580 -3.502744097573327 210 172 159 255
-25.984820582106266 -23.438538289773248 -3.897941742548682 211 169 155 255
-26.393601412021383 -22.742499024915901 -4.118334273422718 207 165 150 255
-26.980687884381297 -22.278844829660329 -4.442913410295660 204 161 145 255
-27.270322778149989 -21.428360009902377 -4.593685985756096 197 153 136 255
-27.915568940563020 -21.044345846818004 -4.952296120067047 191 146 127 255
-28.382538122079211 -20.427905349818673 -5.206723265094055 186 141 121 255
-28.731346347717675 -19.655340421572276 -5.392064220433127 183 136 116 255
-28.727618736613380 -18.411077724258405 -5.371210828136640 176 126 106 255
-29.077658950540950 -17.636426319766599 -5.557198333580217 169 116 98 255
-29.603505957255436 -17.098417893685024 -5.846020383659877 166 109 90 255
-29.953596460595719 -16.323693911392297 -6.032014510747388 161 103 85 255
-30.187385431477253 -15.389681915775611 -6.149921030933896 159 98 80 255
-30.596326773049952 -14.693428544237207 -6.370307150004692 156 95 75 255
-31.121234099914716 -14.157049876835458 -6.658575868839364 150 92 70 255
-31.587714106855913 -13.541503092183433 -6.912643837185172 149 92 72 255
-31.996165320214061 -12.846110157422572 -7.132725061801651 158 103 83 255
-32.635004328061456 -12.473088856570257 -7.487750056364135 150 95 75 255
-33.445177492936494 -12.344329130475501 -7.943193559720996 161 109 88 255
-34.654857232212663 -12.785964996534517 -8.632820291178973 194 142 121 255
-36.547311202879513 -14.208979857269526 -9.722787202658225 187 136 117 255
-38.832411991526925 -16.214069063785587 -11.043241272310169 174 123 106 255
-40.482407712911737 -17.335293492061680 -11.991711775217624 195 145 128 255
-41.899338062479700 -18.138726007285300 -12.803762626766684 190 141 126 255
-42.517995564415259 -17.800140900571762 -13.147792630158392 171 122 108 255
-43.248686477405897 -17.628130021360562 -13.557579583555366 183 131 120 255
-43.695713527767339 -17.045824287286052 -13.800974115549508 169 117 106 255
-44.761594466226853 -17.375073655900934 -14.407560439347520 155 105 96 255
-45.487401833402060 -17.211417372834376 -14.814652765791507 169 119 111 255
-46.659786369357420 -17.716669648433822 -15.483994320835194 199 152 146 255
-47.604934009967963 -17.894210769669769 -16.020050739297488 204 156 152 255
-48.658964092908718 -18.243691805708124 -16.620164537665175 212 164 160 255
-49.376100650298667 -18.094855836802253 -17.022493549904397 209 160 156 255
-49.925197107390574 -17.696177708369362 -17.326135641262866 205 155 150 255
-50.473522716964169 -17.298828576117728 -17.629336290987027 195 147 137 255
-50.910626197094416 -16.733555061091863 -17.867168354721429 181 130 119 255
-51.788254910050654 -16.847493018603330 -18.363989656275294 168 115 102 255
-52.498648371369114 -16.710220666888404 -18.762554384580625 136 86 73 255
-53.207491509266390 -16.575605501513763 -19.160255911070166 108 63 54 255
-53.313099202673101 -15.502887060581656 -19.203114570898933 64 35 24 255
-52.547000049711500 -13.055901981724958 -18.732928899315468 24 6 0 255
-52.548581213755511 -11.803037767087289 -18.714250247844049 13 5 0 255
-55.321492989397541 -14.943043211954205 -20.326880940689520 9 8 0 255
-55.807670415173021 -14.473022242528657 -20.593622446084083 6 8 0 255
-56.671642947130522 -14.610358920663998 -21.082851725985734 3 7 0 255
-57.209859561216831 -14.230430642914655 -21.380275461152479 0 4 0 255
-58.338858582421750 -14.809836171243489 -22.025786456768358 0 4 0 255
-55.923877831227486 -9.632183524935726 -20.582905554957904 0 3 0 255
-55.716606132599708 -8.020468581997022 -20.440597065994666 0 5 0 255
19.959983184108950 -26.113219652538959 20.904171311272961 199 169 144 255
18.574489207630023 -26.258487791934300 20.124457067516204 205 175 151 255
15.099620613570522 -28.569657686242465 18.142247111939355 208 176 153 255
13.595465311580739 -28.870563955735406 17.293751082772019 212 180 156 255
12.030512030762367 -29.246792653997886 16.410075877098848 215 185 161 255
11.315335613920240 -28.744753358278189 16.015406273815103 215 183 161 255
10.276912422616903 -28.586603329732668 15.434562456781194 215 178 158 255
9.499956005209270 -28.158203616616760 15.004167363640221 213 176 156 255
8.078284707972529 -28.420623546163313 14.202402483643553 213 175 155 255
5.822451170362939 -29.587865975458385 12.919999023031835 212 172 153 255
4.796747261767024 -29.451320069772237 12.345929141485726 210 169 151 255
3.773522946936083 -29.318984336500733 11.773177467750145 214 172 154 255
2.880939509113176 -29.051362193535482 11.275593922332774 216 173 155 255
0.903188051222372 -29.976609213302709 10.152539264361593 217 173 156 255
-0.621391836064475 -30.421449928029233 9.290423066395533 214 171 153 255
-1.313501753437578 -29.958566302340500 8.908001072190785 215 170 151 255
-2.131563088383785 -29.638932793883583 8.452906078363739 214 169 150 255
-2.821114105912841 -29.180387963569103 8.071834980175083 213 168 149 255
-3.952502529989175 -29.221526631360916 7.435902097079705 213 168 149 255
-4.575681905539511 -28.697117615028418 7.092964722328333 213 167 149 255
-5.702123575339584 -28.746662665528220 6.459672869340977 211 168 149 255
-6.574022532695182 -28.514176775763787 5.973109977884604 214 171 152 255
-6.816460466797793 -27.564884580917635 5.849671438022483 218 175 158 255
-7.310091683176807 -26.903312299561776 5.581287522394490 221 178 161 255
-8.303270390628654 -26.822020148061995 5.024553195735152 221 180 162 255
-10.229290242403152 -27.835246245015554 3.929223996404929 219 178 160 255
-11.713313958064447 -28.349045913813598 3.088821431512400 219 176 159 255
-12.882306672317526 -28.504952762782835 2.430140982054695 216 174 157 255
-13.924127614883446 -28.519673975487052 1.844770378237158 213 173 153 255
-14.468633294399410 -27.950304646340300 1.546531689550335 211 173 154 255
-15.629442362564021 -28.120133020948145 0.892243115486593 212 173 156 255
-16.479204589877128 -27.925286890540065 0.417532105374875 215 178 160 255
-17.634167377358693 -28.105063274719441 -0.233614784337689 220 184 168 255
-18.356825132394164 -27.768916268438204 -0.635053249768248 222 186 172 255
-19.445052114465170 -27.883460879152437 -1.247850696820450 224 188 174 255
-20.225153586467030 -27.628358726303333 -1.682642542494435 220 184 170 255
-21.125389197430934 -27.526419003844694 -2.186959851056002 216 180 166 255
-21.172750008746021 -26.372655712499636 -2.198179352438359 212 176 165 255
-21.767313495348986 -25.896892473414766 -2.525812731713444 213 177 167 255
-22.119022925639882 -25.119204733525805 -2.713004992935211 217 184 169 255
-23.195329957139165 -25.254041341377643 -3.319382661561377 219 185 173 255
-23.666322882244884 -24.630966876909781 -3.575637939036824 218 182 170 255
-24.257193837608014 -24.161493358099733 -3.901276777941376 213 177 165 255
-24.727272751617164 -23.539978116680970 -4.157034688181540 210 172 159 255
-25.496215023916363 -23.303880234997507 -4.585804947306443 203 163 148 255
-26.144104003913668 -22.916186272262394 -4.944552162425339 199 157 141 255
-26.731307657613968 -22.452966131113783 -5.268199674974625 196 153 137 255
-26.842141328093334 -21.370000935916323 -5.315993024063658 188 143 127 255
-27.310095119990677 -20.752118843970578 -5.570582162588053 185 140 121 255
-27.600206622978760 -19.900479311953035 -5.722150536202690 184 139 120 255
-28.186018244500502 -19.439645428218427 -6.045022392334999 185 138 118 255
-28.240785244747201 -18.273305368837981 -6.060181687266990 176 128 108 255
-28.649771176285327 -17.576989691548704 -6.280570464120729 173 121 100 255
-29.176009593105249 -17.038749906400597 -6.568920375286297 173 118 98 255
-29.701679127712652 -16.501485141589114 -6.856953569091161 175 117 99 255
-29.934865785391651 -15.567948896302397 -6.975398641792694 175 113 95 255
-30.285311061905958 -14.792479458932860 -7.161806021100460 169 108 89 255
-30.810343580024977 -14.256321388089361 -7.449461174986425 161 102 81 255
-31.392802934475554 -13.801248494265735 -7.770442424997441 153 94 76 255
-31.974440367327958 -13.347583624781350 -8.090967158602538 167 109 90 255
-32.786149746344762 -13.217614648575676 -8.545030535449740 151 95 75 255
-34.056712260747332 -13.737225993374693 -9.265489836663093 194 141 121 255
-36.012796710106642 -15.235898022293838 -10.384064827063042 195 143 122 255
-37.503117840526670 -16.096773363800452 -11.232490776998816 142 89 71 255
-39.560352237690353 -17.780948445591918 -12.410331075235206 187 136 119 255
-41.096350870153032 -18.742923461903445 -13.285734898853747 193 142 125 255
-42.285473232534883 -19.222390167618073 -13.959838854025307 195 146 132 255
-42.902903785706769 -18.886714492109576 -14.301919408284945 171 122 108 255
-43.179272324108382 -18.058634091300178 -14.445829121003115 183 131 118 255
-43.682304237137259 -17.560055497469222 -14.721436507643617 185 133 122 255
-44.297612947672349 -17.228030283321118 -15.062314108832055 186 135 126 255
-45.024409258086052 -17.063902158311947 -15.468036546590355 193 144 136 255
-46.142597010743856 -17.485362880551833 -16.101407329634654 196 149 143 255
-47.369373868567124 -18.079654735415602 -16.798062249228011 195 147 143 255
-48.424577787237894 -18.429526135997378 -17.395057762866145 209 161 157 255
-49.142172263826239 -18.281119011672786 -17.795736080342039 209 160 156 255
-49.746978825447201 -17.967057693383254 -18.130823246261684 206 156 152 255
-50.239792771884794 -17.485989092837116 -18.400746340487345 202 153 146 255
-50.676755956236690 -16.921177801306271 -18.638152093829561 184 131 123 255
-51.279125249593307 -16.611314813288800 -18.971849308633836 172 116 105 255
-51.935550789985001 -16.388282953357873 -19.337044732159853 150 97 85 255
-52.480788977691788 -15.996875130151295 -19.637506382591866 122 75 66 255
-52.805999407223538 -15.264703888418154 -19.809789854054230 107 72 63 255
-52.639340675973529 -13.760358406396676 -19.695424317775732 41 23 12 255
-53.566446725658892 -13.970789136643020 -20.218346774863676 15 5 0 255
-54.817488810155027 -14.702801922926000 -20.930180632663379 10 7 0 255
-55.032851265498664 -13.800036799809732 -21.038354054327016 5 7 0 255
-53.299394718714524 -9.776774930794033 -20.010039385385156 1 5 0 255
-55.790276669077144 -12.511428517343631 -21.445028940057966 0 3 0 255
-56.330761140418787 -12.128271820603629 -21.742681323927087 0 3 0 255
-54.666327681551508 -8.166427391049666 -20.753823246670436 0 3 0 255
-54.299101655743726 -6.288363286823483 -20.521488129565341 0 6 0 255
20.380405694539917 -26.135562608558445 20.041928465732695 199 169 143 255
18.336549351258981 -26.953211135146660 18.891020842616712 201 171 147 255
16.299175334080957 -27.781878686934050 17.743578996870525 204 172 149 255
14.595276142032645 -28.283052286525390 16.786223949069097 208 178 152 255
12.635462578413666 -29.064690672842914 15.682608466734564 212 182 158 255
11.919375081231436 -28.561930241218306 15.288751143396837 215 182 160 255
10.554446660413618 -28.744940249093986 14.524402523712240 213 178 156 255
9.971723305856102 -28.111119946962788 14.206537156096005 214 178 156 255
8.548090739160784 -28.373203853820485 13.408430691761581 213 175 154 255
6.676338577940015 -29.125654863299474 12.354242845742561 211 172 152 255
5.455193717192770 -29.195319229161470 11.671461184815854 213 172 152 255
4.623328688052396 -28.853461634571630 11.210933336627306 216 173 154 255
3.151139092913269 -29.211873023015301 10.384501939093198 217 174 155 255
1.619222798652856 -29.647632053136334 9.523784730570526 218 175 156 255
-0.227760769679179 -30.442194342913353 8.482852330004789 219 174 155 255
-0.920380933997450 -29.979274009794267 8.101461740392637 216 171 152 255
-1.866529088263434 -29.800885826116769 7.575103641133893 213 168 150 255
-2.683395937540439 -29.484504304265670 7.122565238821494 211 165 149 255
-3.625391199106019 -29.313169606398958 6.598418320698528 215 168 152 255
-4.565178228780127 -29.145586587487543 6.075448896079990 216 169 153 255
-5.502757850109305 -28.981754243979339 5.553657146990105 213 167 151 255
-6.375126479277014 -28.749893579039963 5.069078376082217 213 170 153 255
-6.868324970369855 -28.089305549109099 4.801316276805579 219 178 158 255
-7.486655146677549 -27.573760676946392 4.461946890830745 225 187 166 255
-8.354533541001246 -27.349526059347596 3.979758292352429 222 186 164 255
-9.532841918956791 -27.491993742932550 3.319859443057140 220 183 161 255
-10.832568685732980 -27.785827422216471 2.590355526450836 220 181 161 255
-11.817462180587086 -27.720445293406186 2.040918488742790 219 177 158 255
-13.048193323044615 -27.952692106632668 1.350663759344812 217 174 157 255
-13.841799874772420 -27.675839051229190 0.910544672681482 215 174 156 255
-15.066412632268481 -27.918495109512037 0.223575062722688 213 171 155 255
-15.609048735089885 -27.352740970205616 -0.072977632619953 213 171 156 255
-16.704988769708393 -27.456370755493339 -0.686450462994316 214 175 160 255
-17.613702921082819 -27.341621516166555 -1.192784248664793 219 180 165 255
-18.887907593136362 -27.678880528291018 -1.908577720010769 222 185 169 255
-19.608002976832068 -27.348122576315433 -2.307023659926656 220 183 167 255
-20.570766550551554 -27.320392785396223 -2.844574533889144 213 177 162 255
-20.861366740363252 -26.467547888947877 -2.996992458248599 212 176 164 255
-21.395432347022194 -25.916374632739888 -3.288943673057361 215 179 169 255
-21.807666979914416 -25.214532729743723 -3.511075490988077 218 186 173 255
-22.582752394384357 -24.969195668327842 -3.941240879300551 223 191 178 255
-23.175126759573573 -24.497796113146819 -4.266695051958905 220 187 173 255
-23.706424879985036 -23.951337138996848 -4.557151003415939 215 178 165 255
-24.297222845516160 -23.482624312815943 -4.881751244086303 210 169 157 255
-25.007081884446649 -23.169298037473141 -5.274675083849147 206 161 146 255
-25.715561512446953 -22.858322668209723 -5.666851835223710 200 154 139 255
-26.303279480662638 -22.394860902214219 -5.989781007768983 193 147 131 255
-26.473232030957746 -21.389347098680531 -6.072994559659932 189 142 125 255
-27.000756004513278 -20.849329547414072 -6.361391973918501 187 140 122 255
-27.053337944779400 -19.685561023550406 -6.377177292523413 190 143 124 255
-27.699089755146019 -19.302355139227700 -6.733439103264971 189 141 119 255
-27.871489263608254 -18.292692663637069 -6.817943955081034 183 135 113 255
-28.162699039347359 -17.438847056506916 -6.970632058359456 181 130 108 255
-28.689461521442126 -16.900150612868003 -7.258580448009667 183 129 108 255
-29.274289238094553 -16.441647227800871 -7.579893114006438 182 125 105 255
-29.858285454107715 -15.984566043795525 -7.900747449276480 178 117 96 255
-30.091229867080955 -15.050900073867808 -8.019913238297761 170 109 88 255
-30.790838935668972 -14.755088295311026 -8.407214021431372 159 98 79 255
-31.372882390221349 -14.301353982441100 -8.726981202009000 154 93 74 255
-32.128025973640717 -14.090053489449872 -9.146267514501460 160 99 81 255
-33.286452055671674 -14.445472787916003 -9.797449423536534 192 133 115 255
-35.191650531947431 -15.857076833232554 -10.878131659326073 197 141 124 255
-37.147538076159236 -17.361433440998894 -11.988201407032037 193 136 119 255
-38.636707650408511 -18.228043693432255 -12.830080635343677 126 69 52 255
-39.662330999471124 -18.451508821509577 -13.405476513701075 189 136 118 255
-41.085308615064804 -19.251786577447859 -14.209573819928906 200 149 130 255
-42.275321735040023 -19.732525498328386 -14.879779058454631 205 158 140 255
-43.006285845084818 -19.562465166149707 -15.285920312168116 174 127 111 255
-43.281372146021027 -18.736208212981865 -15.429703711598890 175 126 112 255
-43.783598103373407 -18.239428288762213 -15.704207142851075 178 128 119 255
-44.454860485604712 -17.992003495402798 -16.076035697082602 150 101 94 255
-44.955635034370090 -17.497719941263682 -16.349717310533904 133 86 80 255
-45.793433103329903 -17.503920559321415 -16.817503531861490 165 118 112 255
-46.909755497551203 -17.931157115753962 -17.445786834512333 161 116 111 255
-47.966662202955888 -18.280519230495997 -18.039947667188827 206 161 155 255
-48.741105253922342 -18.215578703843391 -18.471447157284075 202 157 151 255
-49.402257204061755 -17.985446562730147 -18.837703156854005 201 154 145 255
-50.006511001768416 -17.673156529129216 -19.171188968147305 198 149 141 255
-50.665197138926231 -17.447252481252065 -19.536069209097590 185 135 125 255
-51.101254846023863 -16.884222617216494 -19.772610492116911 169 117 104 255
-51.702682551055574 -16.576791526509652 -20.104498990295312 157 105 92 255
-51.972670244478451 -15.759405653645274 -20.245235832109927 128 83 72 255
-52.298160111524396 -15.026587026086304 -20.417939366538803 104 66 58 255
-52.514343821006520 -14.121798739457489 -20.527536575198454 65 46 32 255
-53.059402427736046 -13.731366279482245 -20.826850069127318 37 23 10 255
-54.749075460215636 -15.152102613725901 -21.786781053636204 16 11 0 255
-53.276746145043290 -11.571804398508220 -20.921665483107148 8 9 0 255
-52.410501879212831 -8.929122666454901 -20.406075082259051 1 5 0 255
-52.254274958809987 -7.405188903853457 -20.300200595191427 0 4 0 255
-54.261243857379412 -9.360043943597873 -21.443531231370613 0 4 0 255
-54.751706947330206 -8.883643233725451 -21.711142673474683 0 4 0 255
-57.445367604066831 -11.996949592412676 -23.251634669740994 0 3 0 255
-55.677647435187652 -7.845480924183477 -22.214542640208947 0 4 0 255
-53.454623230339479 -1.605214511535678 -20.897565442199038 0 4 0 255
20.537214495806154 -26.426013564056859 19.030456468244608 196 166 138 255
18.688338924812655 -27.042672964276591 17.997440660030378 199 167 142 255
16.648190874571156 -27.871398181713744 16.856010083185339 202 170 147 255
15.335227782664788 -27.966486083068304 16.125909426429331 204 172 147 255
13.110420017642468 -29.018519733248553 14.879602523637345 210 177 154 255
11.610663308894743 -29.333285326474140 14.043479290411057 214 180 159 255
10.310609996315748 -29.450309127547058 13.320266916273738 213 178 156 255
9.793932078971437 -28.750125512073708 13.040447810817128 213 177 155 255
8.629079693446016 -28.738822260450604 12.393597940294171 212 174 153 255
6.820046496122558 -29.423197131229841 11.381866826084746 211 171 151 255
5.145860835948127 -29.978655751477447 10.446327354459342 214 173 153 255
4.121349289570645 -29.847765671796708 9.878592927313463 216 173 154 255
2.842035909837108 -30.000027488306330 9.166442632503248 217 174 155 255
1.566265252331931 -30.158310266127103 8.456184635823973 218 175 156 255
0.165927903285848 -30.462989244156972 7.675237911597634 218 173 154 255
-0.527202550249484 -30.000032536381866 7.294879339298276 212 167 148 255
-1.474339478374645 -29.821583113299823 6.770535464929935 208 163 144 255
-2.037333891682835 -29.221685227109248 6.463824318327255 205 160 141 255
-2.980849129585550 -29.049385307694848 5.941406025326359 215 170 151 255
-3.858766142633129 -28.809518244722341 5.456098332087123 214 169 150 255
-4.861254829207695 -28.716041265886929 4.900102941543821 213 170 151 255
-5.671898865714354 -28.411451831105126 4.452798010527275 214 173 153 255
-6.480868093504483 -28.109707254185196 4.006385255457289 219 181 160 255
-7.602455830623768 -28.171924825749272 3.382630920035382 224 188 166 255
-8.407414218821231 -27.876996702049809 2.938360364537914 221 186 164 255
-9.398479640684428 -27.802936623817089 2.388470836538445 218 182 160 255
-10.199696643326661 -27.514367774385079 1.946199758279590 216 180 158 255
-11.061571225365100 -27.301764952613439 1.469460374897324 215 175 155 255
-12.356876922971850 -27.605922508292394 0.746730185228273 216 173 156 255
-13.276018079717318 -27.475055202337217 0.237343766956187 214 173 155 255
-14.502611530361804 -27.716947483100796 -0.446597599581978 214 173 155 255
-15.045913327351428 -27.150499210849262 -0.742819354171672 214 172 156 255
-16.513582713348484 -27.698914078105446 -1.563777377570602 215 176 159 255
-17.545948119727001 -27.733750703332760 -2.137745567668162 220 181 166 255
-18.698391676022737 -27.922632384619277 -2.779972886743408 225 186 169 255
-19.112378525888829 -27.217854036628580 -3.002975468506378 222 185 167 255
-19.709700870497926 -26.738666106392827 -3.330097706521514 215 178 163 255
-20.306160750086235 -26.260945747711361 -3.656756464902784 215 177 166 255
-21.023499381682910 -25.935908992624604 -4.052103248009288 218 182 170 255
-21.617973478155449 -25.461568984143810 -4.377692764749071 221 187 175 255
-22.211589174799911 -24.988690754091522 -4.702819221294078 225 191 179 255
-22.925293619470864 -24.669842178387569 -5.096206369486779 223 187 173 255
-23.456591696637474 -24.123821518515570 -5.385974204602491 216 178 165 255
-24.228133358074047 -23.885747613474337 -5.812299092114827 211 169 157 255
-24.937953015832449 -23.573517247011665 -6.203586269626115 206 161 146 255
-25.466561981118218 -23.032080406193927 -6.491896407286987 201 155 140 255
-25.815152333147097 -22.259408079501668 -6.677871007828813 196 150 134 255
-25.925236721228544 -21.175835571198888 -6.728217137548711 191 144 127 255
-26.572513599237340 -20.790855761916987 -7.084009222844429 191 144 126 255
-26.624534892041254 -19.626903377673614 -7.101279837075623 191 144 126 255
-27.211636610180477 -19.165140025967673 -7.422857571685057 189 141 119 255
-27.324695208183584 -18.076520812728944 -7.474779692186587 185 137 115 255
-27.734121309894164 -17.379540462278385 -7.695272617343278 184 134 112 255
-28.202390157031829 -16.761625700559648 -7.949240616884893 185 133 111 255
-28.787861272227730 -16.302659565876667 -8.269906627567806 184 128 108 255
-29.606987664387674 -16.162860577300364 -8.723573942966198 179 121 97 255
-29.780840469534013 -15.150009193495436 -8.809983954868272 169 111 87 255
-30.480933681351758 -14.854398260057252 -9.195936060152093 154 96 76 255
-31.179673235469210 -14.561099205598964 -9.581147388391287 144 86 66 255
-32.225622332161805 -14.752121333483757 -10.164100831592862 146 87 71 255
-33.790290449933849 -15.673188186659900 -11.042545228855033 211 153 137 255
-35.696626668611458 -17.088009499467830 -12.115747621512284 196 140 125 255
-37.538375915192631 -18.433557463068269 -13.152360016185781 189 133 118 255
-38.567589032574432 -18.653102995049153 -13.726248372231822 141 85 70 255
-39.479013086835977 -18.714714365705362 -14.233098297659126 181 128 112 255
-40.502647710061439 -18.943775217138011 -14.803952800167437 192 141 124 255
-41.523365128529576 -19.177811993115938 -15.373220777687862 186 140 121 255
-42.484130959817179 -19.334686815319372 -15.908391378140777 169 122 106 255
-42.873198033879845 -18.672497367710804 -16.117711266311815 147 98 84 255
-43.262260649036051 -18.010327363854486 -16.327010142159395 171 121 112 255
-43.934526956593373 -17.762210390751648 -16.697782788961774 160 111 104 255
-44.209910877920663 -16.935125111628366 -16.842231541739011 144 97 91 255
-44.936843218351868 -16.773202861928837 -17.244200143185822 144 99 93 255
-45.549708312644384 -16.447015103763164 -17.581127708113314 160 116 110 255
-47.115447929995184 -17.545628959631529 -18.461722366951605 140 97 91 255
-48.171826805517270 -17.898292694362908 -19.051825808096382 199 155 149 255
-49.057506204432883 -18.003869177146328 -19.544592786562518 181 137 128 255
-49.550809982630255 -17.522809867624744 -19.813455825749372 186 138 128 255
-49.988023143743902 -16.958021663248871 -20.050291794232905 177 127 116 255
-50.480450609971655 -16.478484940392946 -20.318634527210804 165 115 102 255
-50.972378792557834 -15.999814144884624 -20.586683285631153 154 106 92 255
-51.463811025172703 -15.522004015087646 -20.854439215743952 125 81 72 255
-51.844637670838750 -14.874041171539545 -21.059009409648070 66 33 22 255
-52.280428029096441 -14.311757904658123 -21.294949054088221 55 37 23 255
-52.825581598987270 -13.921776508590995 -21.593351637285650 39 24 11 255
-52.659406994875638 -12.412764404997318 -21.485279993468509 23 17 2 255
-54.513461237501787 -14.096108269995227 -22.531663969129255 12 11 0 255
-53.858224794585425 -11.806630458562807 -22.143970189897573 4 6 0 255
-53.533650917294125 -10.029646814838713 -21.945100244947071 1 5 0 255
-52.454736778267431 -7.027640486350492 -21.314770833171451 0 4 0 255
-54.730977664921568 -9.426170632796925 -22.602799826823542 0 3 0 255
-55.382023863766705 -9.214516641125954 -22.961611901362289 0 3 0 255
-56.569167282145401 -9.882536942568265 -23.627095060576778 0 4 0 255
18.974042442757451 -27.199404799270894 17.067324530200921 194 162 136 255
16.931253469800026 -28.028414835892733 15.931977779339178 194 162 139 255
15.748243906579148 -27.988479019037101 15.278924743862575 202 169 144 255
14.109715152025075 -28.429078627031657 14.370146600900313 210 174 152 255
12.214580034729579 -29.150545649212063 13.317217142890613 213 177 155 255
10.651583606898242 -29.540271541005410 12.450557644227899 210 174 152 255
10.069781467092156 -28.908890882978767 12.134556640789697 209 173 151 255
9.293679746636030 -28.485019394209701 11.709447217476850 207 169 148 255
7.546406689218713 -29.099291908283362 10.739037872824440 208 167 147 255
5.675130554755754 -29.861312943936213 9.698860171238820 213 170 151 255
4.455524488369662 -29.938408367505616 9.024461898565193 215 174 154 255
3.110316160474071 -30.160531373536713 8.279436253272124 215 174 154 255
2.219065290575713 -29.899440212785663 7.789263021278572 215 172 153 255
0.623847195768178 -30.413653109962297 6.903627392887429 212 169 150 255
0.122196331690162 -29.739209502969345 6.632150520049180 202 159 140 255
-0.698645239101751 -29.418525008681854 6.181339311457023 198 154 135 255
-1.198932903877648 -28.746386298102465 5.910571887142638 190 147 128 255
-2.208009214033979 -28.643529655949266 5.353909464430799 210 167 148 255
-3.214610892120703 -28.544878305713269 4.798568176472770 213 170 151 255
-4.155362335113949 -28.378891910193317 4.280164036564685 215 172 153 255
-5.410124895486092 -28.575482808740986 3.585216217867242 214 176 155 255
-6.787574945329396 -28.922066472044577 2.821215877097245 216 180 158 255
-7.783092411784025 -28.842258299682868 2.271803288877535 218 183 161 255
-8.336222868148269 -28.259545487880501 1.971021847631704 216 181 159 255
-8.826030335546562 -27.605197545040255 1.705819877643492 216 181 159 255
-9.628393144549364 -27.315906758052449 1.264860805504597 215 180 158 255
-10.553980045542090 -27.175697182076163 0.754563248673946 215 176 155 255
-11.788940024819482 -27.405962506656067 0.070223103205223 215 172 153 255
-12.709465031314551 -27.274362278190893 -0.437360491453433 213 172 152 255
-13.938039596677385 -27.515490688746866 -1.118272860330023 213 172 153 255
-14.605840965507781 -27.096396204178433 -1.483823065668318 214 173 155 255
-16.013919278542147 -27.570224834659399 -2.265870052286402 215 177 158 255
-16.862818188978309 -27.381118203375621 -2.733411936400074 220 180 163 255
-18.140424978637611 -27.718194847052132 -3.442230477374963 225 184 168 255
-18.493450583302263 -26.937810889226142 -3.630846978347989 221 182 165 255
-19.091689020681372 -26.457699778697815 -3.957463473337668 215 176 161 255
-19.689064623360736 -25.979056806745291 -4.283616387418519 215 176 164 255
-20.712504598211950 -26.031098620663073 -4.849620158902724 217 180 168 255
-21.550659718358503 -25.860276141732726 -5.311384509278739 220 185 172 255
-22.083273914318653 -25.312451764640628 -5.601175364198966 222 185 173 255
-22.615295638716674 -24.765636723930186 -5.890645968910093 221 182 169 255
-23.086266359162977 -24.143325012385731 -6.145751020462356 215 175 162 255
-23.858550268724400 -23.905214014255534 -6.570549939781344 209 169 155 255
-24.328211041660296 -23.285135594582869 -6.824944313593548 206 163 147 255
-24.617360773887157 -22.434068564688516 -6.977666531453906 203 159 143 255
-24.966914537883127 -21.659603298062706 -7.164400025988286 199 153 137 255
-25.376477056550613 -20.962413050183414 -7.384931356541202 196 151 134 255
-26.143984785355656 -20.732445576806413 -7.807137904167234 196 150 131 255
-26.254979847293384 -19.646389220046274 -7.859440302310617 193 146 128 255
-26.783061042717094 -19.106305710458173 -8.146751979157642 189 142 121 255
-27.073487144890038 -18.253087346841824 -8.300127856037179 179 132 112 255
-27.600946564129856 -17.714071693938422 -8.587089944419063 182 132 111 255
-28.068828248369897 -17.097055599886573 -8.840473259316212 179 127 106 255
-28.477530650325406 -16.401361200825420 -9.060491699281798 180 124 104 255
-29.179899081783361 -16.102889491526724 -9.446079493409002 178 120 95 255
-29.705081645957534 -15.567773091878450 -9.731778843149868 169 111 88 255
-30.288177289326768 -15.113502883866715 -10.050141719138878 154 96 74 255
-30.695412619368540 -14.420332445922639 -10.269328450746997 137 78 60 255
-31.626531836029926 -14.450185114346198 -10.784007389566639 153 94 77 255
-33.426455457547263 -15.692450864754392 -11.788847560089224 203 145 131 255
-35.393859714237152 -17.187895546786251 -12.888329587052027 197 141 126 255
-37.007209922748729 -18.209505391631637 -13.788213110244101 195 139 124 255
-38.211201435555466 -18.672001650173570 -14.457227000055994 163 107 92 255
-39.238819937986761 -18.896472255621632 -15.026785818893273 138 86 69 255
-39.976415617651753 -18.717534788016962 -15.432711276933063 185 135 118 255
-40.769702164856085 -18.623228956506296 -15.870099589178238 182 136 117 255
-41.503973411897817 -18.449970316068914 -16.274204038812343 179 132 116 255
-42.407725610080462 -18.526487884529928 -16.774023696178546 167 118 104 255
-42.910849951852271 -18.029034043154411 -17.047667805496133 199 149 140 255
-43.810766103229440 -18.112103171250283 -17.545388112555315 189 140 133 255
-44.142023507308608 -17.368968655993285 -17.721979011975634 108 61 55 255
-44.869022248565329 -17.208145560459343 -18.122080081035477 164 119 113 255
-45.143529172639006 -16.382218558661634 -18.266582001796039 188 145 139 255
-46.318288896558954 -16.894589259901437 -18.919677275746892 81 38 31 255
-47.433263942538048 -17.329318956250233 -19.539071102363621 188 145 138 255
-48.544821466636307 -17.769878174245832 -20.156605995275356 183 139 129 255
-49.262111797802049 -17.625644203970239 -20.551381084504271 174 126 116 255
-49.810727119893699 -17.230288397546161 -20.850833616850394 169 119 108 255
-50.080715170360719 -16.412136620152125 -20.992772263221312 160 112 100 255
-50.462139547165037 -15.763149786284373 -21.197674490145872 146 104 90 255
-50.788287760022229 -15.028852326608273 -21.371294844271716 94 60 47 255
-51.225086699877437 -14.465057347853303 -21.607455411920327 55 28 16 255
-51.331398388396224 -13.387328960957461 -21.656677754000853 44 29 15 255
-51.933276878470849 -13.080822606666743 -21.986152171461953 31 21 6 255
-52.698482207696230 -13.034570229197413 -22.408025341267717 16 13 0 255
-53.516534093560210 -13.077796118051026 -22.859822268466900 8 9 0 255
-54.441554413423432 -13.297790992151192 -23.372179468908158 5 7 0 255
-53.406206115388756 -10.395731735583524 -22.775144662801537 1 5 0 255
-52.052289932882019 -6.959465273169258 -21.997564079981387 0 3 0 255
-52.059861262696216 -5.691120688820376 -21.990406515781459 0 3 0 255
-54.120826166159503 -7.745338351919486 -23.145687911384826 0 4 0 255
19.391373265731744 -27.221699089841991 16.211603982456381 192 164 135 255
16.489088838227502 -28.927473341677285 14.605633272590907 194 161 139 255
15.306461951005616 -28.890401091200630 13.956259636860594 200 164 141 255
13.864351560522294 -29.130089586611632 13.162427492263987 207 170 148 255
12.164356168000694 -29.649259500334580 12.224996894012378 207 171 149 255
11.384524619985001 -29.220089722282864 11.799529204883726 207 171 149 255
11.127911015814760 -28.244599694408492 11.665212449935424 209 171 150 255
10.480030909595968 -27.680784020278622 11.313121386844003 210 169 149 255
8.598815368901768 -28.430284145880648 10.274498339904881 209 168 148 255
6.269761282973576 -29.674775929552965 8.986455191569476 214 171 152 255
4.854209172645284 -29.959592516636803 8.206795467299727 215 174 154 255
3.700971962012829 -29.972446977237098 7.573085529511829 216 175 155 255
2.744025642031119 -29.780570172847973 7.048595540977118 216 175 155 255
1.403529765215040 -30.013503319824423 6.310485211497038 201 158 139 255
0.708447788310053 -29.548890550388194 5.931691625902673 189 146 127 255
-0.049514624835012 -29.156851018694027 5.517846957290033 127 85 65 255
-0.614379987381852 -28.554645721024031 5.211506123613560 104 61 42 255
-1.561201610311741 -28.379963539766464 4.692404325421407 192 149 130 255
-2.378556143985548 -28.066421325308141 4.245364877205390 214 171 152 255
-3.511714349717096 -28.113391471129262 3.622365463096287 215 174 154 255
-4.705231309173371 -28.237228584301420 2.965674537446674 215 177 156 255
-6.211631663496092 -28.726549332913464 2.134596313156862 216 180 158 255
-7.397947887823733 -28.862631880808323 1.481763454046217 216 181 159 255
-8.077278098461392 -28.424773390612302 1.111357850832945 216 181 159 255
-8.378473579475582 -27.552875620338085 0.951638455798786 218 183 161 255
-9.181717025430913 -27.263314764049625 0.512134918500479 217 181 159 255
-10.358690802256461 -27.415281453875025 -0.135697785251551 216 177 157 255
-11.844573923654337 -27.939498325066381 -0.955775427981692 215 172 153 255
-12.827458306962370 -27.882989024037784 -1.495569133012737 210 169 149 255
-14.429569308799813 -28.568587992437472 -2.380603605473880 213 172 152 255
-15.158058319297083 -28.226641149944726 -2.778702669357017 216 175 157 255
-16.504185972639192 -28.629506308788251 -3.521186579137691 218 180 161 255
-17.043238536738471 -28.071166180318869 -3.813746829309508 223 181 165 255
-17.889883237677935 -27.887320476107504 -4.277839642010946 226 184 168 255
-18.119540140936039 -26.957551259079708 -4.397903697756036 220 178 162 255
-18.595417578119537 -26.327128001066114 -4.655272303049856 214 173 157 255
-19.254685662261721 -25.923384193864393 -5.014932931969568 215 175 163 255
-20.157262571529628 -25.823943344031250 -5.510329571718387 217 178 167 255
-20.935701912127712 -25.576577748824604 -5.936521598793632 220 182 169 255
-21.529955587645958 -25.103885734646951 -6.259994009851468 222 182 170 255
-22.244775142498099 -24.785198986929231 -6.650747044724397 220 178 164 255
-22.715891660984880 -24.162881094155352 -6.905550619162128 214 172 158 255
-23.307577037643199 -23.694564091210481 -7.227635331427990 208 169 154 255
-23.596835623060429 -22.842960341784561 -7.380967936981079 208 166 150 255
-23.886565668293059 -21.990556223089754 -7.534550968121749 208 165 149 255
-24.416969326922441 -21.446943501691038 -7.822447028693958 204 161 144 255
-25.066625135477494 -21.059574367143682 -8.176913211783059 202 156 140 255
-25.834741392257115 -20.829796782697827 -8.597522804959453 202 157 138 255
-26.183645297059655 -20.056294937854432 -8.784130625641680 198 153 134 255
-26.651806644603454 -19.439028745765313 -9.037309729710941 192 145 125 255
-27.119655849295128 -18.822298182235130 -9.290314048076723 179 132 112 255
