ply
format ascii 1.0
element vertex 646
property float x
property float y
property float z
property uchar red
property uchar green
property uchar blue
property uchar alpha
end_header
-11.592350766301479 -26.955667855960002 -18.944821978034469 223 187 171 255
-12.281325573192618 -26.635979194971441 -18.298740490864958 223 187 170 255
-13.016029021937754 -26.390161828706823 -17.598617952387912 222 185 167 255
-13.513212515240326 -25.791301275125875 -17.175571833186723 216 179 161 255
-14.574138863192502 -26.051335172897438 -16.092426221667324 211 175 161 255
-15.256347282597602 -25.744084360464512 -15.451585020331891 213 177 163 255
-15.983800109548866 -25.511596545686274 -14.757079263079277 216 180 166 255
-17.082762816140871 -25.859651654427324 -13.625859319082167 218 182 168 255
-17.991842670283916 -25.925027370770380 -12.716197273762560 219 183 169 255
-18.666079621096571 -25.632434527302735 -12.081534243550664 220 181 168 255
-19.153592799151056 -25.051349199322175 -11.665976853755524 221 182 167 255
-19.686717863488241 -24.544351398348709 -11.196470331413650 216 177 162 255
-20.449308546518949 -24.405212865923318 -10.456135101795439 214 175 160 255
-21.118014534907275 -24.122789418591765 -9.825757873798665 221 179 163 255
-21.556129599633607 -23.474573528783623 -9.467079289609984 221 180 164 255
-21.948235516613124 -22.752997157097099 -9.162654540178011 220 183 167 255
-22.750388154452963 -22.699074735115033 -8.373062746270534 224 187 171 255
-23.550283505216527 -22.649304908961540 -7.585222179268698 226 189 173 255
-24.075962612824753 -22.155997622604218 -7.121485480057203 221 184 168 255
-24.420019205739578 -21.364811612578166 -6.872895180274782 216 179 163 255
-25.034751647073477 -21.023676134778384 -6.302947706374880 213 174 159 255
-25.378421647111480 -20.233199808207587 -6.054655931259674 203 166 150 255
-25.453210565622271 -18.989368480241069 -6.126326387771712 196 161 142 255
-25.350740969014311 -17.439628073236833 -6.409755598763155 189 154 135 255
-25.473865325239387 -16.264873649491648 -6.425363714314159 181 144 126 255
-25.509416169184647 -14.935221884021473 -6.546031582652063 169 128 110 255
-26.034771754146561 -14.442505424713374 -6.082541854397448 160 118 96 255
-25.984256330313542 -12.955182865284598 -6.307099523243039 147 103 79 255
-26.333137354411065 -12.155115567387497 -6.054760751985327 161 117 92 255
-27.166138652952810 -12.202445076629004 -5.222678279460212 179 135 110 255
-28.128278997085772 -12.486208626948724 -4.234731073668399 189 144 121 255
-28.649683921976958 -12.000764822208311 -3.774310815511342 194 149 128 255
-29.170303012500881 -11.516768127995448 -3.314501567470415 202 154 134 255
-29.603115624488282 -10.878304120364419 -2.959934157883737 199 151 131 255
-30.512921377139321 -11.100353611856121 -2.031157293366419 203 154 134 255
-31.073615690165809 -10.700639589231429 -1.521703283469208 206 153 135 255
-31.762734526693123 -10.538675478638055 -0.856940178661290 205 152 134 255
-32.105887882559927 -9.749158791742218 -0.609057749774962 200 149 132 255
-32.492138935794287 -9.038360697991124 -0.309182157460043 190 137 121 255
-32.578838561736205 -7.772624073933116 -0.371617834640517 171 120 101 255
-32.624516559842505 -6.424352661171099 -0.484438843033615 154 103 84 255
-32.799714678619807 -5.311815861678724 -0.441100971481802 133 83 66 255
-32.679110339034366 -3.637442104752779 -0.757164328854458 110 65 50 255
-32.138331961736924 -1.156024991047047 -1.584793203531575 80 54 39 255
-9.530361776544993 -27.092598932879952 -22.270816684616932 203 181 148 255
-10.795146574202249 -27.602869393157704 -20.949029807660253 208 171 152 255
-11.533583020448589 -27.347514773644320 -20.243536316347331 215 176 159 255
-12.270235058585570 -27.095439444531962 -19.539424055955038 216 177 160 255
-13.382711316782263 -27.413010164517033 -18.392506679935906 218 180 162 255
-13.879425825680357 -26.814183527091075 -17.969056102164586 216 179 163 255
-14.469488750840554 -26.358883660175707 -17.435373267943504 213 177 161 255
-15.292680126971106 -26.262853654802655 -16.626304167449405 211 175 161 255
-15.833314293502610 -25.740849978769006 -16.149867235258512 208 172 158 255
-16.559512395183503 -25.507989598284041 -15.453849923542407 209 173 159 255
-17.469817279100482 -25.566954513637512 -14.539383970526472 215 179 165 255
-18.470071469789673 -25.775702990620459 -13.517326211876849 219 183 169 255
-18.819882476523389 -24.974218015983297 -13.264537692753805 220 182 169 255
-19.538718685689588 -24.754893946480308 -12.574225398085446 220 182 169 255
-20.163804473687577 -24.392776005185198 -11.994451079289746 219 181 167 255
-20.925193635270261 -24.252797094066636 -11.252220104843104 221 183 167 255
-21.638820445420578 -24.043052993314319 -10.565946117843112 223 184 169 255
-22.122560294203168 -23.468066865891871 -10.152535281497450 223 184 168 255
-22.696740943650667 -23.041961050445707 -9.631152188275820 224 187 171 255
-23.360635622048846 -22.766073362768253 -9.002361432962545 225 188 172 255
-24.068259236497283 -22.567370217852670 -8.320742226091681 226 189 173 255
-24.774111803145274 -22.371925182835980 -7.640497034543188 223 184 169 255
-25.388161939147324 -22.030102500325029 -7.069278385969227 218 179 164 255
-25.911137763614477 -21.540562236938086 -6.606520975016622 213 174 159 255
-26.119897194778332 -20.525650751496386 -6.519851993741668 206 167 152 255
-26.150943172898735 -19.207142581805584 -6.646662406334997 200 164 146 255
-26.228388350687823 -17.960905374204629 -6.718571584105860 191 156 137 255
-26.351869949744952 -16.787607020844177 -6.735861447498166 183 146 127 255
-26.388156288703158 -15.459452496453849 -6.858600793217875 171 130 112 255
-26.735492230309916 -14.662496747594247 -6.607710205571408 160 118 96 255
-26.862765257648704 -13.482219994460564 -6.622055361330069 150 106 83 255
-27.430691562756635 -13.067615101098653 -6.105519985364936 161 117 92 255
-28.085197293590824 -12.809000145626356 -5.484013688738798 180 136 111 255
-28.825558281218804 -12.707708180600946 -4.758099070095255 190 144 121 255
-29.302539680879960 -12.145150921373613 -4.349927573519807 199 152 132 255
-29.865863273449833 -11.739020822255753 -3.836969944817497 205 157 137 255
-30.644771489044103 -11.724455637855385 -3.062255944846413 202 154 134 255
-31.378245700484399 -11.635843908188008 -2.341694397995326 205 152 134 255
-31.765087893560860 -10.923854859567911 -2.041264281105327 199 146 128 255
-32.280754830722486 -10.447774054535557 -1.584189914088711 196 142 124 255
-32.581451067126750 -9.579001887976688 -1.388398364811763 193 141 123 255
-32.925297870042527 -8.788482867059884 -1.140231343366821 180 129 110 255
-32.885963260525983 -7.284187054313804 -1.359447605748159 159 110 90 255
-33.061378699049726 -6.172993646702650 -1.317556982946826 136 88 70 255
-33.110889457774391 -4.820522580649708 -1.430047467240172 110 67 50 255
-32.824409644330558 -2.825090165418771 -1.954406592351290 88 57 39 255
-10.433322905060805 -26.200224234958739 -22.777940133290286 201 178 148 255
-11.645485647656244 -26.643294581577493 -21.509971100117923 205 174 148 255
-12.806297884712365 -27.023570643004007 -20.301085747255740 212 175 154 255
-13.587044811546832 -26.844953534507169 -19.541031044488165 213 172 156 255
-14.225094945115671 -26.457065517394028 -18.949418780715860 212 175 159 255
-14.674774299258473 -25.786669772824354 -18.580928936230890 211 175 159 255
-15.124129082504339 -25.116866708717453 -18.212686806434164 214 176 165 255
-15.200956129438680 -23.874297319536112 -18.287421357950365 213 175 164 255
-15.697037902824093 -23.275784171343730 -17.863673274334900 209 171 160 255
-17.581027577121631 -24.841820585999216 -15.785789220717589 210 172 161 255
-18.949393430958679 -25.626560699287666 -14.319639976152359 213 175 164 255
-19.437826577113071 -25.042114565369559 -13.901822341165825 217 181 167 255
-19.558348427831305 -23.876405665998391 -13.923396335075608 220 184 170 255
-20.458796023972752 -23.949340540232043 -13.012718026799206 222 184 171 255
-21.265144566208448 -23.880862126295540 -12.213533393971318 224 187 171 255
-22.023677409020678 -23.743086067621789 -11.470689556450679 225 188 172 255
-22.780192564631449 -23.609021392226339 -10.729410658513075 226 187 172 255
-23.444067468767344 -23.330858827145931 -10.098492819728449 227 188 173 255
-24.287174194778515 -23.352019033140550 -9.251545117618178 227 188 173 255
-24.902434786174808 -23.006027540903403 -8.677587235592398 230 188 174 255
-25.561357579266030 -22.736974561659082 -8.050510817788251 226 184 170 255
-25.904963716318150 -21.947158632931774 -7.802771842984754 222 178 165 255
-26.293445547502586 -21.232047882649283 -7.500972016134938 219 175 162 255
-26.369762025480895 -19.990373753441986 -7.576061883531793 213 170 156 255
-26.625557762721911 -19.047568223787550 -7.434930872494192 204 165 148 255
-26.926352433014131 -18.179241663662509 -7.239643868724073 193 154 137 255
-27.271783647949860 -17.386061374531835 -6.990482607606452 184 144 127 255
-27.308684639455294 -16.059627071763600 -7.115387806225840 172 129 112 255
-27.479393158791225 -14.958821021450916 -7.078750931830029 160 118 97 255
-27.826679527466780 -14.162225569627338 -6.828148247051530 149 105 82 255
-28.217880175679312 -13.442106832856496 -6.524233255122937 158 113 90 255
-28.565400078771972 -12.645082495443376 -6.273450071998525 177 131 108 255
-29.087081991838147 -12.156716504380597 -5.810578531118864 187 139 119 255
-29.781476290072135 -11.979677541661374 -5.136745022269736 196 148 128 255
-30.690387797558913 -12.194325218457521 -4.200275868275185 204 153 135 255
-31.294408318206820 -11.869021640512130 -3.635047632771602 203 152 135 255
-31.854151211307624 -11.467912346595199 -3.123415975417316 202 149 132 255
-32.241306579204718 -10.755249286631596 -2.822652161864426 197 141 126 255
-32.713949445079152 -10.199850516900767 -2.417083800765170 190 133 118 255
-32.972808213390977 -9.251419451480331 -2.273585115048462 184 130 111 255
-33.189812380831086 -8.222723405214850 -2.181801559365169 170 118 99 255
-33.280509417402214 -6.954595481756485 -2.245736005246130 147 100 81 255
-33.457425018647115 -5.842387136786556 -2.204298908541830 115 71 57 255
-33.424669263676265 -4.329577019378007 -2.421737523265506 94 59 48 255
-32.973824847038259 -2.013251800517025 -3.155950433349858 21 4 1 255
-11.149664717539110 -25.025601154082096 -23.510054297905754 194 181 140 255
-12.075595869033066 -25.047517558546076 -22.575769943046112 205 169 142 255
-13.186057435354940 -25.357521448880846 -21.419965917986019 209 170 150 255
-14.199388604690427 -25.532428702662031 -20.378693327304688 216 171 158 255
-14.836845843933645 -25.143684866076143 -19.785736693910991 213 175 162 255
-15.287176044905095 -24.471621896579222 -19.416306339540142 214 175 163 255
-15.644509351240231 -23.656853754927340 -19.158196546176498 217 179 167 255
-16.094432803850111 -22.985529304903878 -18.789072712602461 217 179 167 255
-17.419800702256168 -23.684624688790450 -17.368589134179757 213 175 162 255
-19.751608425945193 -25.983837972105022 -14.736362513626375 212 175 161 255
-19.872324157389841 -24.819895938619055 -14.759754511377395 214 178 164 255
-20.177332640799960 -23.944481190015409 -14.561813616321842 218 182 167 255
-20.391532002009171 -22.922335128573224 -14.473494662998320 222 186 171 255
-21.834753885929928 -23.875300950671203 -12.902820179140747 228 190 176 255
-22.818667820705798 -24.104313812055437 -11.884359110952062 228 191 175 255
-23.527888855011554 -23.897311911683062 -11.196532069162316 227 190 174 255
-24.235335995775756 -23.693572928381542 -10.510080853744853 227 190 174 255
-24.941010315585999 -23.493095144142558 -9.825004869102827 229 190 175 255
-25.644912929692680 -23.295876762371307 -9.141303486445935 231 189 175 255
-26.033732079139213 -22.580050061128077 -8.839153526987729 218 174 161 255
-26.377840027639593 -21.789581266572327 -8.591275784609536 174 130 117 255
-26.677600901286837 -20.923800255063156 -8.397387522992830 158 112 99 255
-26.888983112205352 -19.906815837718739 -8.311234772333904 205 161 146 255
-27.101262951431465 -18.888177737746787 -8.224383435748791 207 166 150 255
-27.535208572208688 -18.246219956716686 -7.867630536922064 194 153 137 255
-27.704648055605674 -17.149495840320753 -7.833597918541955 185 143 127 255
-28.050875248839077 -16.355119529006714 -7.584067822656550 172 129 112 255
-27.959372485109441 -14.797067949401196 -7.869986083458826 161 119 97 255
-28.350829362149739 -14.076377397418952 -7.565779197456351 151 107 84 255
-28.524478282135334 -12.971903662572970 -7.528475505571947 156 111 88 255
-29.090121084763183 -12.558352399199237 -7.010794395126823 175 128 106 255
-29.524813675556231 -11.915020611591217 -6.653462127658941 183 135 115 255
-30.304689635238219 -11.891836508319045 -5.871658264615633 191 142 123 255
-30.996200005976760 -11.717427767425789 -5.197582383085233 198 147 130 255
-31.514183657152387 -11.234668993295458 -4.736471121315731 200 147 131 255
-32.074208757720271 -10.831467604585555 -4.223162488089656 198 144 129 255
-32.505104799288972 -10.195134216200302 -3.868788707147246 192 137 121 255
-32.935705690282077 -9.559346782865333 -3.514646673332891 182 124 110 255
-32.941404669149563 -8.136270192287157 -3.685987050355891 175 120 105 255
-33.160927713765176 -7.104314850414340 -3.593523449780605 157 105 90 255
-33.339148914388687 -5.991445994157004 -3.552687578690012 128 83 69 255
-33.518530700654765 -4.876444232911638 -3.510953310621289 100 59 52 255
-33.237318393814064 -2.882910245021947 -4.041968069123385 37 11 9 255
-32.918068622027135 -0.802454054204816 -4.622074860582671 9 0 0 255
-11.355836924765782 -23.072728124312562 -24.861796513732912 200 181 144 255
-12.793359623508763 -23.871061455010476 -23.307506604984013 206 171 145 255
-13.853362553832113 -24.111730545813145 -22.205552458804220 217 171 157 255
-14.538763629650958 -23.789363551902795 -21.553666681038720 218 174 161 255
-15.407696041200353 -23.755445421109982 -20.679667619356877 215 176 161 255
-15.858797330708001 -23.081492477391407 -20.309202035563885 216 178 164 255
-17.092000708563717 -23.629612882728281 -18.993146946353022 216 178 165 255
-18.045328756290701 -23.753474657189486 -18.013806457744920 216 179 163 255
-19.499267703554182 -24.678132263062309 -16.426852557193882 214 177 160 255
-20.125645550364197 -24.307811898532009 -15.840675881290338 212 176 160 255
-20.295333674690426 -23.212411520147356 -15.808101404901151 213 177 161 255
-20.965756901100974 -22.917579183838598 -15.167817806551710 220 184 168 255
-22.268803755605290 -23.650261897471012 -13.757721822436366 226 189 173 255
-23.612097058449791 -24.465432539480901 -12.296476579713101 228 191 175 255
-24.364511798857535 -24.332812994115670 -11.552726121061767 228 191 175 255
-24.890243944143663 -23.834591950902876 -11.084483896323434 229 193 177 255
-25.594421495677352 -23.634187507902595 -10.398084725257036 231 194 178 255
-26.252136594483375 -23.362733910067533 -9.767660556325353 231 191 175 255
-26.551765411959337 -22.497840058453619 -9.574471910658900 186 143 127 255
-26.762908045539319 -21.482678202115608 -9.489785913281167 144 98 83 255
-27.152257056222169 -20.765774177692577 -9.187129805115973 125 78 62 255
-27.497327696446831 -19.973800612265734 -8.938751984152304 141 94 78 255
-27.622142398602165 -18.804394244732293 -8.960888587055678 174 127 111 255
-27.748339443525879 -17.632441592999868 -8.981949721922547 190 147 130 255
-28.182822902708921 -16.989024791326869 -8.624344273178309 183 140 123 255
-28.485828950258991 -16.117903662829235 -8.428522199194163 167 126 108 255
-28.527643350700316 -14.788128038410832 -8.554896914627250 156 114 90 255
-28.571326870610022 -13.454910981737214 -8.679818836188758 151 107 83 255
-28.877037201789705 -12.578810996364041 -8.481895090848155 160 114 91 255
-29.356121500747776 -12.009869342822981 -8.069760099579383 174 127 104 255
-29.877777151432412 -11.519139895786623 -7.604673336683732 181 130 109 255
-30.828614315294942 -11.804137490150509 -6.607364298095888 182 131 112 255
-31.476117593839547 -11.551481114041621 -5.984872899400955 189 136 120 255
-31.822826767621564 -10.756494596960067 -5.735225147993077 191 140 122 255
-32.297623866244948 -10.195455333295627 -5.326430564688195 189 139 121 255
-32.984450135930103 -10.026998081904026 -4.653517799169322 182 131 113 255
-33.118426803415900 -8.840734974216218 -4.668544579950549 172 118 103 255
-33.211529147076618 -7.573139298652535 -4.735208005692073 162 109 97 255
-33.517027920148877 -6.697450361287508 -4.537468649965632 138 89 78 255
-33.949052588911627 -6.058586351740757 -4.181798104109760 104 65 57 255
-33.794053325326047 -4.308245660652119 -4.560494070339132 51 26 15 255
-12.408948373381975 -22.385574256856501 -25.203650967231368 192 179 143 255
-13.978459506162125 -23.401326786247012 -23.478518823406830 206 170 149 255
-14.987410503396404 -23.574492588544217 -22.431560841042511 217 176 160 255
-16.223512847109646 -24.110539221349029 -21.107008374820907 215 176 159 255
-16.995588277760930 -23.938709544758410 -20.345185585524320 215 178 161 255
-17.765638480206491 -23.770602788422821 -19.584931421063771 215 178 162 255
-18.487949888880109 -23.534163364202044 -18.881984019947964 215 178 162 255
-19.254073422956935 -23.373275485533753 -18.124771776000898 212 176 159 255
-19.654401128224180 -22.636095621836773 -17.813525059557037 208 171 153 255
-20.326750054360360 -22.335408096243469 -17.169603816645520 208 171 153 255
-21.268937194176289 -22.475233135287340 -16.194705613457501 213 176 158 255
-22.884750088358373 -23.718133021798707 -14.393126078999273 217 182 163 255
-24.448950011032252 -24.899836473214833 -12.651867407871606 224 189 170 255
-25.333789489162569 -24.989017021802738 -11.741741120061334 227 192 173 255
-25.813189427283277 -24.418674176750841 -11.328600660816903 229 192 174 255
-26.381274692922972 -23.997488893685897 -10.806113319035148 231 192 175 255
-26.859312270777195 -23.429648654579410 -10.394026412865173 232 190 174 255
-26.937365853967208 -22.192239479171405 -10.474684243033010 203 159 142 255
-27.105560529980153 -21.101307945767388 -10.444864091072048 147 101 85 255
-27.583862022794790 -20.532974674583613 -10.032565462956910 122 75 59 255
-28.017589909963704 -19.890484556510160 -9.675116740382350 134 88 72 255
-28.012041872028931 -18.494545192380826 -9.861158516785110 160 114 98 255
-28.183703140987291 -17.397223497717391 -9.828637008618159 183 140 123 255
-28.618430641338023 -16.752889255190979 -9.470407959282454 179 136 119 255
-28.965781287105727 -15.956984118839841 -9.220504906761988 165 124 106 255
-28.618709571690914 -13.940058055978170 -9.833642049678502 154 112 88 255
-28.751888826482627 -12.757362078364707 -9.851234237458470 148 104 81 255
-29.188647105073414 -12.109288182939906 -9.491426211389665 157 111 88 255
-29.969496020292240 -12.077472194821837 -8.702525310204493 168 122 99 255
-30.619320343605835 -11.818226806422615 -8.076083500748382 174 123 102 255
-31.267633168815024 -11.561766442408270 -7.450818416902933 174 122 103 255
-31.658314363418157 -10.842311608545515 -7.147036025907255 180 127 111 255
-31.878672867051705 -9.811558171822810 -7.056463051684858 182 129 113 255
-32.694176202597475 -9.872173267170012 -6.220432221930196 180 127 111 255
-33.422559602388702 -9.780747637549297 -5.492530670669481 170 118 104 255
-33.347085412878641 -8.201116156430544 -5.773343126209198 160 108 95 255
-33.358382518947309 -6.774173944474427 -5.946303429818130 144 96 86 255
-33.875350606697708 -6.290892798201497 -5.483764038890456 118 78 68 255
-34.433387701717862 -5.888224882816104 -4.969102159867532 77 49 38 255
-13.185028781802430 -21.273128760761523 -25.883906104447476 200 188 152 255
-15.023424726632754 -22.719591632333163 -23.817824662901074 213 179 156 255
-16.211756692837582 -23.180990743846365 -22.544696032612137 212 176 156 255
-16.800895036907150 -22.719516092508115 -22.004430112525142 213 176 157 255
-17.982382108686522 -23.193506570697451 -20.736611103919614 212 173 157 255
-18.340209378229304 -22.378638724987695 -20.478868003368490 210 173 155 255
-19.651673906380267 -23.080867367829683 -19.048366330104784 209 172 154 255
-19.418604658002380 -21.327840548551933 -19.517029006863851 209 170 153 255
-19.911427217566654 -20.731964755892818 -19.092696353546842 210 168 152 255
-20.268564606045800 -19.918344051293332 -18.835468084608124 203 164 147 255
-21.479314943155373 -20.494281962830684 -17.524329550426643 206 167 150 255
-23.984740507556523 -23.206244492762494 -14.610977438810124 217 181 163 255
-25.361792861371242 -24.099403386410472 -13.088382241631791 224 188 170 255
-26.332442282859148 -24.338137931677352 -12.066604023648807 226 190 171 255
-26.944396056983891 -23.990462823620874 -11.488011989827811 224 187 169 255
-27.599375859576497 -23.719420529089660 -10.855426760416236 227 189 170 255
-27.545765515527364 -22.259353556131856 -11.102372503681693 225 184 165 255
-27.891136520756362 -21.467373149796060 -10.854267515575259 195 151 133 255
-28.192727680122346 -20.600142783521875 -10.660736928169143 166 121 104 255
-28.450902944556788 -19.656992474996230 -10.521497973345504 168 122 106 255
-28.447490382527491 -18.260344437670739 -10.708867659737166 194 148 132 255
-28.707702725410201 -17.313439467982562 -10.568041671950198 184 141 124 255
-29.098967181464843 -16.592806172409695 -10.263709014384801 175 132 115 255
-29.143409698114738 -15.263897495455240 -10.393330050218765 158 116 98 255
-29.146496868660108 -13.855275492375370 -10.575641606068814 149 105 82 255
-29.281001509537418 -12.672253319542790 -10.594163305466708 150 105 82 255
-29.975650572428208 -12.484016484793472 -9.910186687065760 156 110 87 255
-30.368519453856180 -11.760429239059533 -9.604607088834598 158 111 89 255
-31.145983104756141 -11.731429658006334 -8.815170432738199 161 113 91 255
-31.452403163400106 -10.855303972246588 -8.617882520078780 160 110 89 255
-31.716749048807856 -9.900791121143982 -8.473846302661315 158 110 89 255
-32.278402271607291 -9.489870145380877 -7.954895232672470 160 111 91 255
-32.965801924547691 -9.314996503106840 -7.276567705456671 160 107 91 255
-33.777862845601931 -9.378169181558690 -6.439708084969311 154 102 88 255
-33.537083311359908 -7.483431167892803 -6.934863554861806 125 76 63 255
-33.802604601596670 -6.526769493869494 -6.789927958974999 109 77 65 255
-34.068800572796192 -5.568869587386246 -6.644471661651437 63 41 29 255
-34.585589163176280 -5.084721430735840 -6.180961759191490 10 0 0 255
-33.897179157482014 -2.299752648598769 -7.250071287633290 4 1 0 255
-14.331168850666074 -20.727396931808812 -26.113280079777070 199 178 144 255
-15.519751945387554 -21.181953572782277 -24.834042212543267 204 174 149 255
-16.795279154711608 -21.787392471778048 -23.445437805619491 210 174 154 255
-18.066109513681170 -22.401474647482075 -22.060479824941808 213 173 156 255
-18.742880965369267 -22.088032616999612 -21.408846269726922 212 172 155 255
-19.463328116737074 -21.849653839053417 -20.702368446233919 209 170 153 255
-19.866343698873976 -21.107330511185125 -20.388852225964598 209 167 151 255
-19.909504024614449 -19.783686654901373 -20.522161771289348 205 163 147 255
-20.492728943887101 -19.331489505211437 -19.984999429796773 200 158 142 255
-21.566924352613626 -19.685649620160120 -18.836418590358790 193 151 135 255
-23.038874829831826 -20.706828203794942 -17.190657177148154 194 152 136 255
-24.326981456663731 -21.444558548770829 -15.771353924852434 202 162 145 255
-26.053819272297147 -22.929351158328501 -13.802133437524674 217 180 161 255
-26.755688395777327 -22.725150382945372 -13.110069678043146 221 183 164 255
-27.632279563153475 -22.821191869415543 -12.198636769706269 218 180 159 255
-27.714091448493605 -21.581836484458051 -12.280983706699800 219 178 158 255
-28.192455275127713 -21.011718177011232 -11.867088370101271 214 171 152 255
-28.932822557425737 -20.892112859023968 -11.124203985671414 205 159 143 255
-29.147512401307267 -19.874551759514929 -11.040590955090835 203 157 141 255
-28.840882712130707 -17.951007781686258 -11.612858989686686 193 147 131 255
-29.189010747865865 -17.154213293458696 -11.362854094429537 182 136 120 255
-29.364207000455622 -16.053874242148197 -11.330821226885462 167 121 105 255
-29.195303264168899 -14.343198776175768 -11.733361487030862 153 107 91 255
-29.244647554759183 -13.008115125545942 -11.861814563464662 142 97 74 255
-29.596253309513060 -12.204913066397893 -11.609102515186606 145 100 77 255
-30.247582678552448 -11.938267867575433 -10.977200293476585 148 102 79 255
-30.854726184798665 -11.597493128058659 -10.400533676207345 145 99 76 255
-31.630801660937976 -11.567631335295914 -9.609007552303808 144 96 74 255
-31.853052773283451 -10.536142496475236 -9.519511978881127 140 93 71 255
-31.949283869836364 -9.270221619450638 -9.590635881392330 132 87 64 255
-32.342466212341293 -8.545966482148145 -9.284728525302398 127 81 61 255
-33.030064708895765 -8.368047223630526 -8.603762670224341 115 65 48 255
-33.380343836825318 -7.567305373140073 -8.352098087154587 110 62 48 255
-33.396203447737378 -6.138399778766484 -8.527479044819131 96 58 45 255
-33.622711276589712 -5.099089777263600 -8.434690024045096 35 21 11 255
-33.497982718906741 -1.907394820922946 -8.990621998738959 1 1 0 255
-33.770276635494469 -0.939283702231933 -8.841368119616590 0 1 0 255
-34.744033071810719 -1.322942354236886 -7.791796819777772 1 0 0 255
-35.426655844685513 -1.154228357022191 -7.114739125587136 2 1 0 255
-36.909298415231831 -1.067138901944190 -5.606734205897993 15 15 5 255
-15.066226974657354 -19.540789284725179 -26.851680979078481 207 182 154 255
-16.522574861077771 -20.426641766525421 -25.230995541626612 215 180 158 255
-18.018522374639275 -21.394695253325722 -23.558293693555811 220 180 162 255
-18.695926757603218 -21.077773595462673 -22.904022965074091 219 176 160 255
-19.236717084608102 -20.547033585348970 -22.419633005576202 215 173 157 255
-19.686889579341312 -19.872901811324795 -22.048138386806642 211 168 151 255
-20.450214528743913 -19.707996376840214 -21.284600914980189 205 162 145 255
-20.943550622737661 -19.109495812037466 -20.858312525650121 200 157 140 255
-21.614480690737935 -18.804467122230392 -20.209048471037448 202 156 140 255
-22.328294677237011 -18.575592496158805 -19.505215358290883 200 155 139 255
-22.641654246611779 -17.687986504266092 -19.303735665848251 195 148 132 255
-23.087948843708716 -17.020963954085346 -18.935226653583470 185 143 124 255
-24.282862890524740 -17.612556888959347 -17.623880559591640 199 157 137 255
-26.176286419040423 -19.399918325926052 -15.429885232621075 212 168 149 255
-27.228950962616238 -19.788075364458138 -14.292806092828499 212 169 147 255
-28.146832812229377 -19.959045051584667 -13.324186976565585 207 162 141 255
-29.323162140045383 -20.584862950089246 -12.027292258234695 205 158 140 255
-29.539163093171226 -19.566266309481477 -11.943937939422909 196 149 133 255
-29.236113353182191 -17.641937520226065 -12.518805872203416 186 139 123 255
-29.196112779803201 -16.163980511415360 -12.761817986641375 171 124 108 255
-29.115374905034287 -14.605908015832227 -13.057722278359449 154 106 90 255
-29.123161352629040 -13.195076116482852 -13.242353104363133 144 96 81 255
-29.047366321455314 -11.627896612041383 -13.534409750212916 135 89 66 255
-29.444131893941261 -10.896931625306991 -13.225613110242563 132 86 63 255
-30.181659609707509 -10.779499563419250 -12.482103998676820 131 85 62 255
-30.662294112961263 -10.204354276618233 -12.065659367695389 130 84 61 255
-31.481276825954495 -10.247189988394837 -11.216381791179941 123 77 54 255
-31.748649980437023 -9.289115734066115 -11.071858013845258 117 69 48 255
-31.974568407093869 -8.252251207170787 -10.980788013460398 106 58 39 255
-31.991398351391013 -6.824769390418965 -11.158390621710481 99 53 35 255
-32.219738681580111 -5.783449334126487 -11.065441591915942 99 52 38 255
-32.532505846173621 -4.896923149363431 -10.864412219627866 86 50 38 255
-32.554242786986208 -3.460412855358129 -11.038206659066731 34 15 6 255
-33.283880254973951 -3.357543338642699 -10.300862755891814 7 1 0 255
-33.183622307905580 -1.680300101220212 -10.633177181174034 3 1 0 255
-35.279901555613264 -1.232071133922091 -8.535663531776265 1 3 0 255
-36.763543647255176 -1.136672749162926 -7.020885629525793 7 9 0 255
-38.213988625649222 -2.498868603352378 -5.341205462765629 7 9 0 255
-39.455370861054405 -3.470404803304916 -3.930182558294860 10 10 0 255
-38.750985825471616 -0.578734405201658 -5.050555450547165 5 5 0 255
-39.746103779434520 -1.072993083103881 -3.958340896986755 8 6 0 255
-40.496439728413293 -1.087235256602639 -3.183773487482824 9 6 0 255
-16.618983971986665 -19.638972925384081 -26.570695637716796 219 185 164 255
-18.066713991934535 -20.532093400247504 -24.948737417412701 221 181 162 255
-19.014250590854658 -20.643964536058689 -23.952899312732853 218 178 161 255
-19.375927576673746 -19.822818957978029 -23.692915165995061 220 173 158 255
-20.140194322320099 -19.653131679771974 -22.925820501980127 213 171 155 255
-21.036217950488265 -19.705087381645029 -21.991583634057008 205 163 147 255
-22.062908369905870 -19.980694953670849 -20.891053524160640 201 158 141 255
-22.465213363376051 -19.239467841245812 -20.577892987844876 197 151 135 255
-22.911667710801538 -18.571693704252368 -20.208835769813589 194 149 130 255
-22.740282686905118 -16.875024908524608 -20.622053322962330 188 142 123 255
-23.407726097176777 -16.574088479974762 -19.973341930193982 186 138 116 255
-23.766574642605065 -15.758104313939555 -19.715513277443023 183 135 115 255
-24.519293049847221 -15.609648028615936 -18.957365149074207 180 132 113 255
-25.400869341277655 -15.688179773006368 -18.034334954153337 176 127 110 255
-27.584794272407919 -18.011255657601993 -15.451796998186182 186 137 120 255
-28.110208497210493 -17.507576725765290 -14.978200076556874 188 139 122 255
-28.980910977474821 -17.606135139289592 -14.063627004745854 182 133 116 255
-28.425263086726403 -15.224204427958568 -14.969654632956036 166 117 100 255
-28.649207975000820 -14.192347493123691 -14.881392130786367 145 96 79 255
-29.388826596478964 -14.068010842969073 -14.133426181783364 132 83 66 255
-29.399231082038852 -12.655579366893988 -14.319007609122792 123 74 57 255
-29.283775610740662 -11.010631950985839 -14.667133412086230 119 68 47 255
-29.511437310558506 -9.971924969839591 -14.575975827422894 120 72 50 255
-29.952072819205597 -9.314835556333776 -14.211414529320223 124 76 54 255
-30.434696191608083 -8.735188990779761 -13.792645977903135 113 68 46 255
-30.748082384593516 -7.848146754575140 -13.591713605750442 107 62 41 255
-31.440358731251649 -7.656239724183422 -12.902129569150446 109 64 44 255
-31.418053527234235 -6.149279861009830 -13.134704352021458 112 65 49 255
-31.899831233565237 -5.571201273065185 -12.716603238278537 113 68 53 255
-31.880792762719523 -4.058229213834693 -12.946641261362288 97 57 47 255
-31.988821054138072 -2.775553533603215 -13.013199144882037 43 15 10 255
-31.601106753467548 -0.548637288071689 -13.723947489314213 9 0 0 255
-35.134375659207336 -1.314448906138068 -9.961933393969844 4 5 0 255
-36.347460833345252 -2.175455509377684 -8.587172791252897 2 5 0 255
-37.718576743905231 -3.364514517854047 -7.003308008967480 5 7 1 255
-38.474808754998605 -3.364441664818173 -6.220951334633128 4 6 0 255
-39.674147242811557 -4.250799362420196 -4.856913154695889 2 4 0 255
-39.657753083023238 -2.733028065393626 -5.084960263388780 1 2 0 255
-40.005915978127064 -1.936807603068189 -4.835519863146601 0 2 0 255
-42.553736925684362 -1.112949247809524 -2.314444422970325 13 16 1 255
-16.359793099121532 -18.279839483886349 -28.370312541259693 215 188 157 255
-18.299324106915265 -19.956996393964630 -26.117017370750233 217 187 159 255
-19.827610344598099 -21.001952716997181 -24.380639317357321 215 181 159 255
-20.188939649875692 -20.181721545728578 -24.121179631248879 217 176 156 255
-20.773054581705139 -19.723172274719047 -23.578956393818004 216 173 157 255
-21.622540752590851 -19.702276192636504 -22.698953862732225 209 166 150 255
-22.513803275710899 -19.758834835014170 -21.764558498050718 202 157 141 255
-22.695733700502529 -18.651377854822613 -21.732186717378966 193 146 130 255
-23.098997313481107 -17.908280963500658 -21.418183972296674 185 137 121 255
-23.633938706438983 -17.385865775063763 -20.936074442778590 180 131 115 255
-23.905285618953997 -16.422509995921587 -20.790348347310783 182 129 110 255
-24.177280729089233 -15.457954712161609 -20.644112834367775 183 131 111 255
-24.493480499666816 -14.566382343585872 -20.441596320559711 183 132 111 255
-25.201001202953563 -14.343709942679652 -19.737663090674289 180 128 108 255
-26.123320411446201 -14.497442219160689 -18.757190006265603 166 115 95 255
-27.258624372429807 -15.030922035208249 -17.501589951976484 156 104 85 255
-27.571376260030263 -14.145689874027227 -17.301745879460441 148 96 79 255
-27.712736125894310 -12.958505570464581 -17.322781063947929 136 85 67 255
-28.069625464672356 -12.146380908237091 -17.066709006250534 127 76 58 255
-29.195448075182043 -12.697325320294965 -15.818485375542252 124 73 55 255
-29.976386012865760 -12.648240124328396 -15.013659473248197 122 70 53 255
-29.820801750392320 -10.927126148981159 -15.418903502715210 119 67 46 255
-30.134103442317837 -10.040875322915781 -15.218626191062441 116 65 44 255
-30.447823290181248 -9.153854754574354 -15.018024019308655 107 59 37 255
-30.635648493394910 -8.035490761094763 -14.981020848576719 107 61 40 255
-30.824619245725160 -6.915017615881510 -14.943127323326337 105 60 39 255
-31.307778457270473 -6.333551017150228 -14.523169722148054 109 66 45 255
-31.748652638534821 -5.675562368426426 -14.157996709425447 111 69 52 255
-32.105984153561678 -4.862633967737679 -13.901590604425451 109 70 56 255
-32.421999949203041 -3.971398344524573 -13.699215242336322 53 23 14 255
-32.117741877795197 -1.906491041092579 -14.307669146832211 13 0 0 255
-36.503279972762613 -4.327398504007988 -9.406598901614586 0 1 0 255
-35.387344468076634 -0.669326339464874 -11.084225323044251 2 5 0 255
-38.005856250446953 -2.794200557710155 -8.061815329874776 0 4 0 255
-39.650439163021531 -4.551513755699830 -6.103738115430531 2 4 0 255
-39.836912458138471 -3.435723524217337 -6.067864170846633 0 2 0 255
-39.662994051697183 -1.594044490653573 -6.509328128529575 0 2 0 255
-42.573025483747770 -1.483126824361705 -3.500602961187781 9 9 0 255
-43.196422238881425 -1.261162841967291 -2.884156174567352 11 14 1 255
-18.758778623888304 -19.740858232010311 -27.003782054258835 219 187 156 255
-20.728551573051362 -21.503685817996171 -24.692989199823899 220 180 157 255
-20.955919141580409 -20.468359110111919 -24.604691589262586 217 178 157 255
-21.450189666216744 -19.865644077592862 -24.175365092646672 217 174 157 255
-22.386040082551489 -19.989959615628209 -23.180200648387910 210 167 150 255
-22.922057779792141 -19.464375229780842 -22.696153792329454 201 155 139 255
-22.885626681723153 -17.990674933749432 -22.946429325696641 190 143 127 255
-23.377752497082611 -17.391882053135589 -22.518745080676638 182 133 118 255
-24.044233876209603 -17.088093633352912 -21.866495867029386 172 120 105 255
-24.491137800613444 -16.418545368546376 -21.496211975036488 171 114 96 255
-24.459354548191556 -14.936254802820088 -21.742844669771074 171 114 95 255
-24.993683217251686 -14.413746565098961 -21.260079392117206 172 115 96 255
-25.310979733820119 -13.520789030909242 -21.057298264819110 168 111 91 255
-26.103056325056627 -13.447765403856295 -20.240635377758224 154 97 77 255
-26.763868505078989 -13.154397678396663 -19.592776423926665 143 88 67 255
-27.423154941724761 -12.863839139372715 -18.946103352530798 142 87 67 255
-27.525013323384343 -11.597486560701213 -19.022057364413683 146 91 71 255
-28.054901993915848 -11.083142929861481 -18.542733539365202 145 90 70 255
-29.051714423599606 -11.403215361424657 -17.455650183604462 138 83 63 255
-29.875476177495671 -11.425871374850630 -16.592108852839999 134 79 59 255
-30.273970317668443 -10.691424759190056 -16.281691522813901 131 79 58 255
-30.588083257806318 -9.804318894454781 -16.081375644675745 120 69 48 255
-30.902614431801993 -8.916443114887585 -15.880734818908138 103 55 35 255
-31.301396643277798 -8.181468309835168 -15.570095629857803 84 37 17 255
-31.449346714701136 -6.984256519092895 -15.587961067897140 81 36 15 255
-32.015427270464471 -6.557303848404189 -15.058264352912715 82 40 21 255
-32.331161757747282 -5.667219456267048 -14.856694665982786 83 44 27 255
-32.813052407116118 -5.087261388406944 -14.436956337640282 71 38 23 255
-32.798660143184833 -3.572911583793370 -14.670035669585701 18 2 0 255
-33.322114561876987 -3.070447667387327 -14.195743469566992 4 1 0 255
-33.023379887567785 -1.001541354780102 -14.805624198592909 0 3 0 255
-33.752445933745662 -0.890582163277884 -14.060250439963880 1 0 0 255
-35.367476234992125 -0.995868757330015 -12.358560590117179 0 2 0 255
-38.094371847512576 -1.825635319074195 -9.391515078761159 0 3 0 255
-39.654175802796175 -3.419500528165429 -7.533168966887104 0 2 0 255
-40.043886795957178 -2.701332234341635 -7.229677384863209 0 2 0 255
-39.953743716885526 -1.018501507605436 -7.566213727981250 0 2 0 255
-40.863076055890019 -1.345823425084859 -6.569560712656482 0 2 0 255
-42.246173037277941 -2.649051157076428 -4.937642041202935 0 2 0 255
-42.751501503591243 -2.180104937032354 -4.477572013709022 1 1 0 255
-43.216580421871512 -1.631264253887252 -4.071052384077547 5 5 0 255
-43.917450462129196 -1.572394555253254 -3.347756374625703 8 11 0 255
-18.863599226108448 -18.951466779626486 -28.349703425922115 180 154 118 255
-20.739373633144425 -20.567062172584741 -26.145103816579649 223 182 157 255
-21.367556275751184 -20.177873663633477 -25.543114725018398 220 180 158 255
-21.862002935553846 -19.573999221481273 -25.112877218950501 215 174 153 255
-22.708086269049602 -19.551788794664418 -24.228493587150695 209 167 146 255
-22.805289722876125 -18.296560004244668 -24.310432307607044 199 155 134 255
-22.991674458978423 -17.184396917802502 -24.277838244662320 190 143 125 255
-23.484823905467863 -16.582881170859139 -23.848581443981772 180 130 114 255
-24.108031201025909 -16.202814592732665 -23.250423619935788 168 116 100 255
-24.686528043754549 -15.751425907529125 -22.709616179306920 167 108 90 255
-24.874288713740356 -14.636700693291573 -22.675926005323561 164 105 87 255
-25.538136721075631 -14.335434306125393 -22.023567011525131 162 104 84 255
-25.554605005048671 -12.921520537279747 -22.213410416714424 155 97 77 255
-26.346017454929580 -12.846297374622225 -21.394091377907955 151 93 71 255
-27.263621012521668 -12.999654072278162 -20.408887190940959 149 92 73 255
-27.964778703591548 -12.783329872814022 -19.704924347477601 143 86 67 255
-28.366160771446999 -12.043466105994895 -19.392169755766702 145 88 69 255
-28.555211750306967 -10.926337855079282 -19.357451356614348 169 112 93 255
-29.380366324420635 -10.942636127049354 -18.489311254562921 173 116 97 255
-30.034193605556084 -10.659819251329651 -17.844740332186632 174 117 98 255
-30.644413537889818 -10.303653141269962 -17.256666020973057 165 113 92 255
-31.211390289557414 -9.873467097270066 -16.724805089793051 152 100 82 255
-31.777335598954721 -9.445183299532005 -16.193748778030169 140 89 70 255
-32.258797408497969 -8.865168492507337 -15.773559270255362 123 76 57 255
-32.531683808831730 -7.900970370234575 -15.628483238298259 106 61 42 255
-32.763749052308185 -6.858290134352927 -15.537735504267175 89 45 26 255
-33.079450531722500 -5.968907570725150 -15.336785700195264 68 29 12 255
-33.354333744245565 -5.001038769456443 -15.190163057342829 57 24 9 255
-33.177530705407662 -3.174732449471378 -15.643195677363394 23 6 1 255
-33.168062879709765 -1.654904386948942 -15.875773937949077 5 1 0 255
-34.591819520878715 -2.873786044184271 -14.203461518887792 0 2 0 255
-38.749956658100785 -1.973564791838271 -9.972952892657077 0 3 0 255
-40.103936564520893 -3.167388404190433 -8.377577626038601 0 2 0 255
-41.531928010398701 -4.532256314580707 -6.679504908435888 2 4 0 255
-43.351581792994409 -6.712485215295601 -4.451076546449997 1 3 0 255
-44.448360942014034 -7.458053592887296 -3.191247024795274 1 3 0 255
-43.286120833355213 -3.605061430248384 -4.975191440019046 1 3 0 255
-43.158561335657566 -1.841842733079261 -5.367453973212008 1 1 0 255
-44.016969028038147 -2.104458142733847 -4.428507912098667 2 2 0 255
-20.401829077561814 -19.055984197848204 -28.061086952006008 161 139 102 255
-21.384311792649299 -19.238657935162109 -26.998341450330031 213 181 150 255
-21.880025602456385 -18.631613260574738 -26.566343039734363 210 174 147 255
-22.199826021365652 -17.735376837093384 -26.362849786770539 204 166 140 255
-22.913465162854465 -17.493416762189668 -25.646724569181117 195 153 129 255
-23.450950002502850 -16.962710152487773 -25.159293287219583 189 143 122 255
-23.857208092244974 -16.213803398722007 -24.842688287546110 178 130 110 255
-24.350089245020627 -15.611939100982795 -24.412859031262940 166 115 95 255
-25.188252042578796 -15.600498378656368 -23.531096671724498 165 108 88 255
-25.549708405946660 -14.780794148078883 -23.272243528898088 161 104 84 255
-25.911328892062329 -13.960781907785503 -23.013257419341215 156 99 80 255
-25.630099906209523 -12.025313642589992 -23.598080867891809 138 81 62 255
-26.207599089122311 -11.574167869114120 -23.056571320736111 123 66 47 255
-27.423440146327835 -12.246779329099752 -21.674757461422132 164 107 90 255
-28.337077830582388 -12.402912368793949 -20.688440734474995 146 89 72 255
-28.908669961711951 -11.962646975790250 -20.151526482544853 163 106 89 255
-29.563749180344814 -11.675210485574155 -19.503837007423613 200 143 126 255
-30.048739406669796 -11.087853248514307 -19.080120897226095 193 136 119 255
-30.827325564159366 -11.032838645925779 -18.267612853461600 171 114 97 255
-31.477968003976827 -10.753579321739096 -17.623379465245250 154 98 81 255
-32.335992221561412 -10.858860455851698 -16.703254236044756 146 93 75 255
-32.858024401764339 -10.356586881611435 -16.227816575617425 137 86 67 255
-33.296193028518815 -9.702178165907299 -15.863447316451726 125 77 60 255
-33.568389891747216 -8.740262060620580 -15.719845717034104 116 69 51 255
-33.676065458962029 -7.468165210761924 -15.795881839184460 109 64 46 255
-33.908900025187052 -6.425450254788132 -15.705816967790156 97 57 39 255
-34.306863569083873 -5.691802859923087 -15.395647315466391 75 42 27 255
-34.377297133830552 -4.335004483286127 -15.523573274941270 31 7 1 255
-34.531235388677942 -3.131010025727448 -15.540717213224980 9 0 0 255
-35.256272105449142 -3.021376909880530 -14.792827606726689 4 1 0 255
-35.735894338955575 -2.443954152202878 -14.373331013962940 2 0 0 255
-35.689113368996004 -0.843157722384149 -14.661193452335567 3 0 0 255
-36.895205409392076 -1.687156734096448 -13.264167849047936 1 1 0 255
-38.611259257782933 -2.051212674590261 -11.401185111155201 1 4 0 255
-39.205265106367591 -1.723075218372742 -10.824021873421259 0 2 0 255
-40.395760590912289 -2.595862841831149 -9.439185749729091 0 2 0 255
-42.932160274154853 -6.202050311197979 -6.228395898299198 2 4 0 255
-43.780169069484089 -4.945688997266359 -5.521951865237099 0 1 0 255
-43.455803645672887 -2.783127948536389 -6.186215299383463 1 2 0 255
-44.770897992309443 -0.972678592383545 -5.070252645530530 0 3 0 255
-20.265168880365593 -16.425758157568112 -29.951477942077020 149 148 96 255
-20.371385605440963 -15.158917429048984 -30.031030321476607 193 178 136 255
-20.741097854461486 -14.324312150904518 -29.766038036353820 191 166 132 255
-22.503801685675114 -15.817715718076727 -27.673116424815817 187 154 124 255
-23.521028569221954 -16.084398906416254 -26.555517953966984 179 137 111 255
-23.885525646331985 -15.259382135423323 -26.294566525595229 173 128 104 255
-24.422834861376316 -14.727778619525623 -25.806140619624870 165 115 94 255
-25.561920507178627 -15.228793849405150 -24.523962306247057 165 110 89 255
-26.053002568154795 -14.629397396357177 -24.094748461152335 159 105 84 255
-26.115526723995742 -13.290041008916148 -24.231490928823234 153 99 79 255
-26.009195336370965 -11.649963792491747 -24.592611551150640 135 81 62 255
-26.629170428431905 -11.271937753748716 -23.993341041646545 112 57 39 255
-27.672227143575185 -11.643958887817689 -22.832374687890194 106 50 33 255
-28.626950159039495 -11.872820481353614 -21.786641920557315 190 133 116 255
-29.578456664877649 -12.107609935976143 -20.743414418704759 180 123 106 255
-30.821266349937190 -12.876382774906403 -19.310784884366797 177 120 103 255
-31.681593615576446 -12.973259185762856 -18.385009438753286 169 112 95 255
-32.246368166360583 -12.543984654649222 -17.851946602943968 165 108 91 255
-32.893532105543898 -12.268826219932180 -17.208281456124951 161 105 88 255
-33.747134112185734 -12.378102219955252 -16.287749058539333 157 104 86 255
-34.432135542211427 -12.186193523130214 -15.591401810701882 152 101 84 255
-34.784591250837025 -11.383331304899968 -15.339794768034750 153 104 87 255
-35.095999393726089 -10.503142146311461 -15.143376378948716 145 98 80 255
-34.996755037319446 -8.849988393890214 -15.498962704349253 131 86 67 255
-35.228245361409790 -7.811132879105458 -15.411225948332884 110 69 51 255
-35.542377487496566 -6.925932605009336 -15.212694295407232 89 56 38 255
-36.142156638606707 -6.585151456925644 -14.629176942606875 56 29 15 255
-35.643804330349610 -4.137763892065152 -15.527782489896254 17 0 0 255
-36.041802908230380 -3.403973868793855 -15.217513190065546 7 1 0 255
-36.722437520891503 -3.220156408360424 -14.524607402027726 5 0 0 255
-37.401336174912558 -3.039547303921495 -13.833062123381467 5 0 0 255
-37.195368119204886 -1.124182411700190 -14.341452953642147 4 0 0 255
-40.135309484821448 -0.906301738482853 -11.261377880893434 0 2 0 255
-41.868703075963822 -1.382816016982360 -9.353736421090616 1 2 0 255
-42.809612849287873 -1.790282458450747 -8.295704512128282 1 2 0 255
-43.707943422991278 -2.123256516746324 -7.294065181745225 3 4 0 255
-22.755513714712293 -12.329601168310887 -29.294276173710728 152 122 91 255
-23.683930570777392 -12.449457243518225 -28.288068899516702 157 113 90 255
-25.166444683313671 -13.532024971040130 -26.544011976134243 161 111 88 255
-25.916391275253602 -13.370358139969369 -25.771042031620709 160 109 88 255
-26.238217859440510 -12.471619681956895 -25.567112728392630 152 101 80 255
-26.432982240447672 -11.349222905818266 -25.532820972206565 139 88 67 255
-27.052565843973298 -10.969973513068851 -24.932052602345493 112 61 42 255
-28.051093681162968 -11.265813744565662 -23.824101521889077 74 19 3 255
-29.425302563133926 -12.242761626307583 -22.211513188943684 112 59 48 255
-31.171930522812318 -13.906832977154238 -20.096832151310366 199 145 129 255
-32.491901502740518 -14.831139040005155 -18.550054668355585 197 139 125 255
-33.096494961668157 -14.479517897751350 -17.960963806362770 188 130 116 255
-33.658169119941675 -14.054387338052607 -17.428860579236044 184 126 111 255
-34.301855610399173 -13.783329762835763 -16.785764623729534 177 125 104 255
-35.233840063351039 -14.049214636002375 -15.753216352149110 172 121 100 255
-35.791092388266520 -13.632239776584640 -15.224563205234375 168 117 96 255
-35.894554485473236 -12.372885107201057 -15.308494522075421 165 114 95 255
-36.163804754498500 -11.418427223422952 -15.169067632944405 158 110 90 255
-36.270045461451332 -10.153954623706454 -15.250837446239558 151 103 84 255
-36.459515003100648 -9.041315825916513 -15.220669591771809 138 94 76 255
-37.138264909355030 -8.858271520647520 -14.526728743042554 120 83 64 255
-37.653044616805801 -8.366985981902957 -14.054735668336775 105 75 57 255
-37.964867843499519 -7.486698753339965 -13.858612172371863 75 48 35 255
-37.833653010874826 -5.744209768850396 -14.266692725001263 62 35 25 255
-38.107474694975394 -4.781359899016309 -14.123735758494320 58 35 28 255
-38.502196322754742 -4.053534393623067 -13.815949526904035 25 8 6 255
-38.737058625659699 -3.009891033570000 -13.726908747157552 27 13 11 255
-38.773677417236996 -1.568559375094310 -13.910065935141034 12 0 0 255
-41.853438862180766 -1.690596255400521 -10.614959233515719 2 5 0 255
-43.614042850847568 -2.260583833244141 -8.654235088064155 7 10 3 255
