ply
format ascii 1.0
element vertex 651
property float x
property float y
property float z
property uchar red
property uchar green
property uchar blue
property uchar alpha
end_header
51.890707291849523 -10.206522540941080 -10.132322434410781 166 118 104 255
52.101189554060653 -9.652395877380400 -9.517331025466916 169 123 108 255
52.175662241945759 -8.472231766265196 -9.451220734180225 167 123 106 255
52.267713712547504 -7.368060705711741 -9.314989679946251 162 119 102 255
52.292859035210626 -5.946486447109521 -9.450257527551884 149 110 90 255
52.352616244516867 -4.679051846597304 -9.446724964010770 133 99 77 255
52.295862519129059 -2.853814162359924 -9.916732159869753 118 94 67 255
52.240652536846412 -1.022448323747483 -10.382632905160136 86 82 52 255
48.537973168191471 -13.909597425663549 -17.727470695045270 185 138 118 255
49.108890060749161 -14.858780440139014 -15.701888553255628 184 132 118 255
49.375486875860119 -14.523283505303795 -14.870905845709956 184 131 115 255
49.712334231310095 -14.495509283081674 -13.762500512751700 183 132 115 255
50.030532389085323 -14.395178680952711 -12.726391588624494 187 131 118 255
50.242275630716890 -13.837605757793739 -12.109335081431112 177 128 111 255
50.366089999690288 -12.895848147367644 -11.839372408085325 171 122 105 255
50.525192513730062 -12.107316362067849 -11.430274282513722 167 120 102 255
50.736687244537819 -11.550795973509537 -10.813933415243440 164 119 100 255
50.947957190009987 -10.995210426331880 -10.198225640048264 168 123 104 255
51.141683433873823 -10.362651899694583 -9.651850321352867 170 122 108 255
51.318032053849265 -9.652457789076834 -9.174362929060891 175 127 113 255
51.442746047584905 -8.707272796044009 -8.902126107207323 170 126 109 255
51.533476526898070 -7.603679759308420 -8.765551643699354 162 121 103 255
51.607655927870525 -6.419142370058694 -8.695643583747795 146 110 89 255
51.631355501448638 -4.994984407542233 -8.827876629088252 130 99 76 255
51.520105626837022 -2.933087395015548 -9.499976051753976 110 90 62 255
51.359911862552622 -0.625401788139811 -10.370072318309383 76 73 42 255
48.122908135015791 -15.502455733633553 -15.908778543323905 181 134 116 255
48.553540186083765 -15.848319069171083 -14.448200559315524 180 131 114 255
48.730676800948160 -15.134747564923515 -13.968410944013414 182 133 116 255
48.997501597381486 -14.802939234855359 -13.140619378318036 185 134 117 255
49.281649601186842 -14.549957517000053 -12.244890689574561 182 131 114 255
49.458135382368098 -13.838998994497729 -11.766856624523484 174 125 108 255
49.599054022311662 -12.974099258720145 -11.427193140149456 170 123 105 255
49.775625573258878 -12.262818949573926 -10.948946374519267 167 120 102 255
49.987523841436939 -11.706478130308142 -10.333004840149158 169 122 104 255
50.181583210717747 -11.073412176568212 -9.786417132418137 169 124 105 255
50.340411209275558 -10.285076843066349 -9.377310747733702 170 123 108 255
50.569360765917921 -9.808760393774207 -8.694253234682321 174 128 115 255
50.675837331767681 -8.785560186108398 -8.490055950394492 169 125 110 255
50.782752388684059 -7.760646244290598 -8.284714517910032 156 119 100 255
50.768729579767268 -6.182679500680933 -8.554087702313637 138 107 84 255
50.738629947785540 -4.520930328981535 -8.888075873106544 124 99 73 255
50.606467679429883 -2.378722744674462 -9.624654199709596 102 86 57 255
46.933312752700715 -15.317407529223658 -16.886578765337191 180 133 115 255
47.588876342210739 -16.564761682737100 -14.584627785802525 180 133 115 255
47.857519662238388 -16.230274921543611 -13.755752521045764 182 133 116 255
48.052661088389442 -15.593678447811698 -13.206918819126855 183 134 117 255
48.229495272839586 -14.881273007979331 -12.727905177840427 186 135 118 255
48.442560467676657 -14.322003771525459 -12.110268177388406 182 131 114 255
48.601183089127218 -13.533410491431624 -11.700820861797354 174 125 110 255
48.795930962872532 -12.898391202759143 -11.153046360235948 170 123 107 255
49.062398038538220 -12.572659561240357 -10.330056054000067 168 121 105 255
49.220875970453150 -11.784687160300621 -9.921032070891357 169 122 106 255
49.361604537326642 -10.918693854381104 -9.580346352261870 171 125 109 255
49.502545771312143 -10.051874720984074 -9.239110130427321 174 126 112 255
49.767891451003990 -9.730771643363425 -8.419249124411522 173 127 114 255
49.944254781530049 -9.020432610271030 -7.941651068954371 166 124 108 255
50.032457865633560 -7.917552743407128 -7.804094895187973 153 116 97 255
50.015745457516573 -6.340089343459596 -8.072212060953376 134 104 82 255
49.930149229723185 -4.441994469389670 -8.607929753304660 121 96 70 255
49.758859450668950 -2.141446218885790 -9.477028090972652 93 76 48 255
45.530447310383536 -14.311718632609029 -18.635967791801221 182 135 115 255
46.474469927453498 -16.678491078003901 -15.280680617913362 182 133 116 255
46.930887734494661 -17.097025675627521 -13.752338034216137 181 134 116 255
47.181857297530868 -16.687885994494138 -12.994632385160713 182 133 116 255
47.395425533678917 -16.128435871881095 -12.377158587765024 183 134 117 255
47.535089578525913 -15.264769182555142 -12.037734486420419 183 133 116 255
47.693316015951126 -14.476798579943647 -11.628555634590754 179 129 112 255
47.888249559890667 -13.841915706713394 -11.081009341088219 172 123 108 255
48.083059224430215 -13.207536526768479 -10.533802439162571 171 124 108 255
48.277746856203763 -12.573659481480689 -9.986934788342779 169 122 106 255
48.436028325424445 -11.785497430770363 -9.577631878096469 170 123 107 255
48.630586897041795 -11.152179193484073 -9.031145961811575 172 126 110 255
48.770928156362061 -10.285858349216483 -8.689948673015039 174 128 113 255
49.019357102519535 -9.887031941619910 -7.939189590852834 169 123 108 255
49.106026679092579 -8.785557476693214 -7.801841886744569 164 123 105 255
49.193241940592813 -7.681932126720426 -7.663055280605761 147 111 92 255
49.174114890355398 -6.103870447287818 -7.929176647613929 130 101 77 255
49.120673016692976 -4.363144244978514 -8.327235524587422 115 90 63 255
48.962423801651042 -2.141814137237702 -9.126057879868000 80 65 36 255
45.146512153977028 -15.969892664511775 -16.746752614294138 178 133 114 255
45.740538851420752 -16.907969390924848 -14.726356282786384 182 134 116 255
46.087497213384566 -16.872940306272397 -13.618239350645780 183 134 117 255
46.395920054270135 -16.690296900757744 -12.651878044403503 183 134 117 255
46.647428717385864 -16.282668532550986 -11.895756973426728 184 135 118 255
46.786555263512611 -15.419269234865283 -11.556219761582526 183 134 117 255
46.963080280300133 -14.708030550672561 -11.077978477171712 179 130 113 255
47.139588145306249 -13.996857762982785 -10.599781006676892 172 123 108 255
47.316080639791210 -13.285749464656533 -10.121627294221128 171 124 108 255
47.474124298312987 -12.497555906022171 -9.712150487940818 171 124 108 255
47.632265586560024 -11.708983277261439 -9.302420997678468 172 125 109 255
47.882136121771921 -11.307973772775597 -8.550753371845872 173 127 111 255
48.058476305716653 -10.597548226908287 -8.073069405105258 174 128 113 255
48.253027168344460 -9.965208091828003 -7.527387302511158 166 123 107 255
48.302169016219537 -8.707367788619422 -7.525186811200371 163 122 104 255
48.388288759663467 -7.603436555468306 -7.385466239322142 146 112 89 255
48.348586654125796 -5.946526451963223 -7.717485006746443 127 99 74 255
48.256204609953144 -4.047651951488376 -8.248339397625841 104 80 52 255
48.003976772335349 -1.430050575695418 -9.380502334708638 71 58 28 255
44.037401359554110 -16.170218574090825 -17.373814162782907 179 134 113 255
44.676652416366920 -17.251347889510612 -15.212049463328015 183 136 119 255
44.988371764182133 -17.061992139684861 -14.242188453405845 186 137 120 255
45.280242986271162 -16.800214250845556 -13.343989450811904 185 136 119 255
45.609434941088125 -16.692757798559228 -12.308824418582589 185 136 119 255
45.899836026253823 -16.436853699565518 -11.414567342319515 184 135 118 255
46.095101381041744 -15.802449674420757 -10.867623205598562 183 134 117 255
46.196053063782855 -14.786239086180814 -10.665769458052438 179 130 113 255
46.410117702006673 -14.228434005142589 -10.049964247914261 171 122 108 255
46.549037145175760 -13.363960950116621 -9.709410593677887 170 122 108 255
46.688160860101505 -12.498671190925336 -9.368308759130031 172 124 110 255
46.846108894422102 -11.709907584568441 -8.958301238911304 173 125 111 255
47.115537009735547 -11.386151933910071 -8.138785396697187 173 127 112 255
47.310374031107131 -10.753519088082669 -7.593039213701530 172 126 111 255
47.468186331972788 -9.965374481961106 -7.183459040686671 166 123 107 255
47.478906149468642 -8.551044397912506 -7.315747305731264 161 122 103 255
47.527296740358182 -7.289695816740760 -7.310179427288773 145 111 89 255
47.485000090452829 -5.631990011033423 -7.639927338564121 124 96 71 255
47.298131146201186 -3.337966496521744 -8.504734090594098 95 72 43 255
47.022546761910803 -0.639657800938437 -9.699528393825886 69 59 28 255
42.533259573783297 -14.881048066256483 -19.401377262895608 179 140 114 255
43.570239147499024 -17.447966296955997 -15.837723049985840 184 135 118 255
44.000886416090196 -17.705749716436003 -14.448211782423414 187 137 120 255
44.159209613833866 -16.914622377504486 -14.036483383000331 187 138 121 255
44.491255057819430 -16.803146134415897 -12.999769180303190 186 139 121 255
44.803161065566457 -16.619492312339815 -12.034738055795145 184 137 119 255
45.133461385968545 -16.514994629787338 -11.002708143261401 183 136 118 255
45.252442807700007 -15.575689446880347 -10.731768246978248 180 133 115 255
45.390806421573018 -14.711571084563275 -10.391162258654020 173 126 108 255
45.605449519152515 -14.153277094794305 -9.775312494164439 170 123 107 255
45.781926465245022 -13.442172544800769 -9.297152213975579 170 123 107 255
45.939477614398783 -12.654034027255904 -8.887414715084361 172 125 108 255
46.115980542396770 -11.942839364509069 -8.409196090908210 171 125 109 255
46.330074341029260 -11.386787989422686 -7.794858815358538 173 127 111 255
46.543939808988412 -10.831678484774073 -7.181158238717813 169 125 108 255
46.682811184729246 -9.965586169028029 -6.839236042455184 164 121 102 255
46.747346238879842 -8.785866945440944 -6.767315265988628 159 121 100 255
46.719620120680304 -7.211456014241605 -7.031108656610485 143 107 85 255
46.544870656154529 -5.003125944654926 -7.830419977389028 119 92 67 255
46.298304779162791 -2.471037314342652 -8.892923424475981 86 67 40 255
42.222035364627430 -16.752787437130451 -17.302302071157612 182 137 118 255
42.893951554745698 -17.901354218168251 -15.072722886849959 184 135 120 255
43.288134338151536 -18.009730481592840 -13.824772664909204 185 138 120 255
43.465641183011343 -17.294593118132269 -13.343918712772251 186 139 121 255
43.799368115877328 -17.183797593839017 -12.308812657060173 186 139 121 255
44.054288423468137 -16.773589097517458 -11.552679606491580 183 136 118 255
44.328168180686973 -16.441191481531177 -10.728786977872829 181 134 116 255
44.485276706625697 -15.653903885269841 -10.319477762584654 179 132 114 255
44.545912236379749 -14.484173429747727 -10.253390441463353 173 126 108 255
44.799759810690887 -14.078219343990355 -9.500107628837128 169 122 104 255
44.937934892392164 -13.212964579423613 -9.158444954530495 169 122 104 255
45.172053642896117 -12.732273869526807 -8.474984912951612 171 125 106 255
45.329455921028455 -11.943787157932121 -8.064867004844530 172 127 108 255
45.525032869700226 -11.309956227725621 -7.518590370685246 173 128 109 255
45.739474177296771 -10.754364460605871 -6.904849105526807 169 126 107 255
45.877969802584261 -9.887888311572340 -6.562375984643012 158 117 97 255
45.922302508746327 -8.629707093742866 -6.556903787863490 154 117 96 255
45.873293942840576 -6.976516630107199 -6.886211742780944 135 101 79 255
45.656703124683816 -4.610545430647278 -7.816934177875055 113 87 62 255
45.423695620636352 -2.156545104142879 -8.808549518422382 75 59 31 255
41.662293721004872 -17.653218699035051 -16.116091543947533 185 138 121 255
42.299686718124875 -18.653898109964473 -14.030536738102313 186 137 123 255
42.656237089979840 -18.613845625952962 -12.924230315686629 186 140 124 255
42.833362067065281 -17.900242555617012 -12.444407369131682 189 143 124 255
43.109301967957336 -17.564261591960758 -11.618833154769874 189 142 124 255
43.345240029455340 -17.079102105715208 -10.932809808212625 185 138 120 255
43.561165387487762 -16.519390187537226 -10.316585016712764 179 132 114 255
43.737639189993601 -15.808293308332054 -9.838429123653697 178 131 113 255
43.835891381945046 -14.791707192477077 -9.634586636562062 172 125 107 255
44.051532070785441 -14.233094600400420 -9.019093688121330 173 126 108 255
44.208613769845030 -13.444940058631175 -8.609051082316370 173 126 108 255
44.423945645137920 -12.887567630832280 -7.994391398526687 174 129 110 255
44.600381303499844 -12.176600161164771 -7.516318775154758 174 129 110 255
44.776803688392064 -11.465698208964227 -7.038292063512387 174 129 110 255
44.953214642437828 -10.754860109539891 -6.560311032952370 170 127 108 255
45.052946859900885 -9.732355222566753 -6.352495580869601 160 121 100 255
45.095770640510040 -8.473692050437393 -6.345686841113434 150 115 93 255
45.005947665566069 -6.663397314038207 -6.807488191960232 129 98 75 255
44.822634104228598 -4.454031888713814 -7.600619231313118 107 84 58 255
44.584549023373398 -1.999918212660873 -8.588984109127210 65 53 23 255
41.168368397865507 -18.776934828482410 -14.723769804470379 188 142 126 255
41.608760842320393 -19.031897890496680 -13.337985546419787 190 141 127 255
42.007466490783386 -19.142586267074392 -12.094758658880579 189 143 127 255
42.244448963953531 -18.656089565894064 -11.408279140102337 192 146 128 255
42.421055007394031 -17.944539504831994 -10.929830812154421 191 144 126 255
42.577681896939623 -17.157361562800702 -10.520312813242981 188 141 123 255
42.754289237989809 -16.445744637347502 -10.041810014596734 185 138 120 255
42.911029946965272 -15.658056983281568 -9.631941394015968 183 136 118 255
43.028282070442017 -14.717270178380488 -9.358701513111924 178 131 113 255
43.224772944952932 -14.081580433813855 -8.811456371806315 177 131 112 255
43.362100268709355 -13.215982243600365 -8.468982728777917 176 131 112 255
43.636993886199804 -12.888762797556154 -7.650001264705651 175 130 111 255
43.833049197663186 -12.254825010913180 -7.103933691917263 172 129 110 255
44.009466807106023 -11.543927021296639 -6.625907287259480 170 127 108 255
44.108033523694317 -10.522343101825612 -6.418128609901657 168 129 108 255
44.168216972115331 -9.343245227052819 -6.344016092783733 159 123 101 255
44.209697236926559 -8.083438950359607 -6.335427066925320 143 111 88 255
44.136161486139997 -6.350520723256665 -6.727448404746355 122 95 71 255
43.890871890123407 -3.904821222071462 -7.718290276979047 96 79 51 255
43.628797265881786 -1.370704359177353 -8.769475097049025 58 50 19 255
39.867510000442849 -18.309630312327158 -15.974548301814565 183 142 118 255
40.496841982559715 -19.228775278274497 -13.960450380447895 188 142 126 255
40.919648195124125 -19.409714227122606 -12.646409993452096 193 144 129 255
41.300401012008237 -19.445987205515451 -11.474375581006854 196 147 132 255
41.436442310669406 -18.583869054668696 -11.133979391259544 194 147 129 255
41.613161048435074 -17.871869649050723 -10.655229648528490 191 144 126 255
41.749472822609576 -17.008586994299662 -10.314038908328740 189 142 124 255
41.986650349789215 -16.524006863237958 -9.629265102400439 187 140 122 255
42.123074569664865 -15.660217124113672 -9.287725058789732 184 137 119 255
42.279719442805444 -14.871963323524653 -8.877328817855670 180 133 115 255
42.456422549129655 -14.159905303047907 -8.398520899515205 178 133 114 255
42.653021543091938 -13.524702688064650 -7.851745691293701 178 133 114 255
42.849492800836359 -12.890012014982062 -7.305314296054632 175 131 112 255
43.045838078157814 -12.255831741118442 -6.759226530034795 172 129 110 255
43.222307121424961 -11.544716893306827 -6.281052823314525 169 126 107 255
43.359368297137067 -10.678341592073934 -5.937771269598983 163 124 104 255
43.359137559044484 -9.265964267343719 -6.064865882714258 151 116 94 255
43.399057198112928 -8.005894945289128 -6.055089145709985 135 105 81 255
43.244399586418027 -5.959564402932870 -6.713070704415685 117 92 67 255
42.974721072552228 -3.434543922420403 -7.767048213198336 91 78 48 255
38.119546902946439 -16.294395679381125 -18.689019923909001 179 149 113 255
39.172549589624623 -18.686351579541082 -15.278431859854237 189 145 122 255
39.682695819443580 -19.158504896529962 -13.683945857422316 193 147 130 255
40.087825129774586 -19.263924251900136 -12.440356643446677 198 149 132 255
40.491716954485540 -19.374277235808535 -11.200076756005217 198 149 132 255
40.627397424783680 -18.511756513187692 -10.859123427491539 196 149 131 255
40.783748356717354 -17.723871053605080 -10.448848952817286 191 144 126 255
40.919752736174900 -16.859967972532331 -10.106954191393925 190 143 125 255
41.178183465595311 -16.450524596757162 -9.353636120550448 187 140 122 255
41.314244243458361 -15.586337466027942 -9.011541595749293 182 135 117 255
41.470762735839372 -14.797663366216653 -8.600719317877747 180 133 115 255
41.647576503007613 -14.085162157223749 -8.121613809785174 178 133 114 255
41.864676946099536 -13.526251849703016 -7.506782273867486 177 133 114 255
42.021242267843263 -12.737359481352541 -7.095808665371123 174 131 112 255
42.177899469598628 -11.948097885009361 -6.684586934851893 170 128 108 255
42.334650291634418 -11.158465581686698 -6.273116941551280 166 124 103 255
42.471561358385060 -10.290821689228352 -5.928693307875335 159 120 99 255
42.529156883805825 -9.110925490448039 -5.852311883675242 144 110 88 255
42.547746118318699 -7.772292675802021 -5.908198498144401 127 100 74 255
42.369488873419598 -5.647202316094877 -6.630270313668376 106 84 57 255
41.996026080836572 -2.729049095284950 -8.014086828250328 81 69 39 255
37.690241431651117 -17.634246333144858 -17.083931864621150 188 148 119 255
38.458402928444002 -18.988583185758671 -14.652679676421172 191 149 125 255
38.930320832465227 -19.311935446034283 -13.199159198940919 196 151 132 255
39.379786577261640 -19.566796684221714 -11.818931679589525 198 151 133 255
39.681991590278514 -19.302676994054167 -10.925221258432799 199 152 131 255
39.796538141672812 -18.364561713806950 -10.652507884343038 195 148 129 255
39.952821428833474 -17.576029836954007 -10.241656955252154 192 145 127 255
40.191844520180453 -17.089668015931721 -9.556557605987081 190 143 125 255
40.430511497572923 -16.604708747562370 -8.872396362483443 186 139 121 255
40.648268406341487 -16.045077570781984 -8.257377005166290 182 135 117 255
40.783778268615364 -15.181231549712408 -7.915221971917845 180 133 115 255
40.939929889998311 -14.393094713337348 -7.504615769262017 176 132 113 255
41.096169317007281 -13.604592661363995 -7.093762228601577 174 132 110 255
41.171150662007506 -12.507906489621092 -6.953106418467542 171 130 108 255
41.327789310454747 -11.717789030864594 -6.541165603652985 164 127 104 255
41.504748379232709 -11.004697172703800 -6.061662135025074 158 122 96 255
41.722038619767488 -10.446905059492167 -5.447873019037473 153 118 94 255
41.737914508949302 -9.111708941762231 -5.504913882849024 139 108 82 255
41.714526276637415 -7.616945434060369 -5.693375681864353 121 95 65 255
41.432104378410116 -5.100261029914293 -6.746322076858974 98 80 50 255
40.992553276908637 -1.945547988019825 -8.325106176577293 74 66 35 255
37.375352712581886 -19.343610998637303 -15.136089235074962 191 149 124 255
37.809280051935232 -19.513540306355424 -13.819861134548660 193 151 128 255
38.178326558929356 -19.465332307059100 -12.714581381375325 198 153 134 255
38.567473337599068 -19.495906188687115 -11.543054040513482 198 151 133 255
38.829089386965705 -19.081294092417778 -10.787443268982344 201 154 134 255
39.027198080333633 -18.443028024080377 -10.239074062571660 197 150 132 255
39.225165848401460 -17.805286155438466 -9.691050603058869 193 146 128 255
39.464799715409100 -17.319283867445392 -9.006628205538647 191 144 126 255
39.641532654662782 -16.607199622972360 -8.527817154856166 187 140 122 255
39.901412133525824 -16.199391393458598 -7.776751569970003 183 136 118 255
39.994919157950193 -15.183270846676123 -7.570343878239896 181 135 117 255
40.150891840783103 -14.394934399601084 -7.159461408501784 175 132 113 255
40.245063587086889 -13.376104379811920 -6.951227030638734 172 130 108 255
40.380801437105177 -12.509447858142778 -6.606890270929227 168 128 106 255
40.578299099300494 -11.873435567072534 -6.060004402431815 162 126 102 255
40.693808727574449 -10.928453727125941 -5.782213127884432 155 119 93 255
40.870862994590894 -10.214994079953641 -5.302464789811722 148 115 90 255
40.844342655287008 -8.723493542895028 -5.491676870729577 132 105 78 255
40.798601778825343 -7.149626124084136 -5.744719720476468 115 94 64 255
40.409856921846796 -4.240709032908114 -7.126670893461863 94 79 48 255
39.923202411312417 -0.927172090796034 -8.832616853115809 61 57 25 255
36.008109277270023 -18.742056910536121 -16.522357935884230 187 158 124 255
36.812544270988312 -20.163439011915614 -14.025210351620757 196 154 130 255
37.227320552482979 -20.261005644531764 -12.781126788478389 196 154 132 255
37.576611503079363 -20.140067665681102 -11.747312098753355 201 156 137 255
37.796833042848164 -19.574532614453688 -11.128944225954598 200 153 135 255
37.995495954000631 -18.935043168887091 -10.579908201980459 200 153 133 255
38.257766028261727 -18.521509255307933 -9.825595384984155 198 151 133 255
38.561956906442177 -18.260550490128594 -8.935732753192212 194 147 129 255
38.802038832648520 -17.775568584719053 -8.252432476377209 192 145 127 255
38.978505754833833 -17.064578579622093 -7.774360659630673 189 142 124 255
39.175976349932867 -16.429694638836168 -7.228390781306871 184 137 119 255
39.268428913109673 -15.414106518523283 -7.021767687636270 183 137 118 255
39.444981870899966 -14.702696299365698 -6.543401964701246 179 136 117 255
39.475441679486153 -13.454564486612810 -6.537612855129055 173 132 110 255
39.631520659050580 -12.664860914944256 -6.125666255692863 167 129 106 255
39.829205062814339 -12.029044470276602 -5.579058393473957 160 124 100 255
39.943949403466647 -11.084356749482197 -5.301034486785596 151 117 90 255
40.079654008038304 -10.215986611371477 -4.955260395178499 139 107 81 255
39.968435711929359 -8.413365115826224 -5.410103706255484 127 101 73 255
39.879273944747396 -6.682654976727349 -5.794235716804536 110 89 60 255
39.443282863783821 -3.616428402712984 -7.304511944207007 89 76 46 255
35.181796066413000 -18.674386616250899 -16.240438613848909 189 153 125 255
36.210869586108672 -20.834767034138537 -13.055149290385856 200 155 134 255
36.541009365366435 -20.636867920655561 -12.089677477204191 205 160 139 255
36.870344262963869 -20.442145455287545 -11.126331430211110 203 158 137 255
37.069291469203563 -19.802531592184550 -10.577369296790749 202 157 136 255
37.311179115288468 -19.313242636553042 -9.891630965860315 200 155 136 255
37.595680195158039 -18.975600637719765 -9.070006086842113 198 151 133 255
37.879601469532673 -18.640248771534317 -8.249914014240716 195 148 130 255
38.034673633457970 -17.853827797139786 -7.840055226780123 191 144 126 255
38.211149374631333 -17.142829670447838 -7.361982178643842 189 142 124 255
38.345058825727236 -16.279913273704295 -7.019600690829805 185 138 120 255
38.521589192358746 -15.568638544427500 -6.541332933630173 183 136 118 255
38.698094473484446 -14.857444192565254 -6.063116029416875 177 135 116 255
38.811261128745116 -13.916344793484086 -5.787077767352343 171 130 108 255
38.903683508815007 -12.897119900502616 -5.577429354087428 164 126 103 255
39.017518610882519 -11.953311398616592 -5.299567027745979 154 120 95 255
39.068839835429600 -10.776290205032694 -5.221661632642764 145 111 84 255
39.120799924861444 -9.596700149560093 -5.142029720530587 134 103 75 255
39.006746376977631 -7.792439824525303 -5.593755505068998 122 96 67 255
38.852655033540174 -5.826120143432917 -6.174361095577666 102 82 53 255
38.430907927147246 -2.836188381109309 -7.612692761478769 83 72 42 255
34.773461160948585 -20.008486710206313 -14.643634020489856 199 154 133 255
35.546901220274293 -21.283749967506054 -12.294166408497915 201 156 137 255
35.834556627448194 -20.938342262489613 -11.468082607704503 202 157 138 255
36.099735719914761 -20.520796994377974 -10.712262117272360 204 159 138 255
36.255263015469026 -19.731837437743224 -10.300587617367825 202 157 136 255
36.563327843362373 -19.466643577093748 -9.409632246250425 201 156 137 255
36.892427128293846 -19.279277701893932 -8.452221480808845 199 152 134 255
37.155713879409319 -18.869140007466115 -7.701348423752989 196 149 131 255
37.267216653097449 -17.932103659231274 -7.427634680799628 193 146 128 255
37.400579199601466 -17.069585425271327 -7.085242344557003 190 143 125 255
37.555638807146138 -16.282245656456865 -6.674616174632490 185 138 120 255
37.753685132306700 -15.646940987411313 -6.128656410585904 182 136 117 255
37.994391588693020 -15.164992268299443 -5.448251971391926 174 132 113 255
38.128031247742598 -14.301260009822983 -5.105028271812017 168 127 105 255
38.176714036288146 -13.129295998565198 -5.029663368288141 160 123 100 255
38.204798258494321 -11.877688979124088 -5.019524357994499 153 119 94 255
38.233628370261286 -10.623075111004624 -5.007363280632347 144 110 83 255
38.284330240927659 -9.442971407086247 -4.926524489388925 125 98 69 255
38.146045109535976 -7.560654594755476 -5.442529093650791 113 92 61 255
37.904309975140478 -5.282012785863458 -6.285941455983590 95 80 49 255
37.434183808639602 -2.134671758009006 -7.851811394963306 72 66 35 255
34.373111989588651 -21.341781233446710 -13.051128226059376 205 157 141 255
34.929685049570963 -21.880445300522183 -11.396617331841270 205 160 142 255
35.062882157032007 -21.017126342566030 -11.053460175142021 205 160 143 255
35.240515474969413 -20.301833291404620 -10.572556143462009 203 158 139 255
35.396037884964912 -19.512001230243982 -10.160157298379261 201 156 137 255
35.727781382784570 -19.320615887270719 -9.201067521382413 200 155 136 255
36.102650967213862 -19.282546750553593 -8.107789899616961 199 152 133 255
36.323138629300118 -18.721498899482157 -7.493297087534842 198 151 131 255
36.499666666695234 -18.010397422692932 -7.015171111718502 194 147 128 255
36.588965635252436 -16.996455774728361 -6.807948566446044 190 143 124 255
36.787397410556707 -16.360595622984818 -6.261769215896777 185 138 119 255
36.920621398594221 -15.496743405699476 -5.918187920423804 180 134 114 255
37.118944369973377 -14.861270465411394 -5.372261037313507 175 131 111 255
37.295552390223719 -14.149706904923960 -4.893802778254951 167 126 104 255
37.342980249894083 -12.977224770833288 -4.817229341922911 161 121 99 255
37.369571002168470 -11.725125200245486 -4.805754636977525 149 113 89 255
37.375490148737725 -10.392746487761769 -4.858934518514872 137 103 78 255
37.382265393079038 -9.056920803239052 -4.909796995820784 121 90 63 255
37.304668146436711 -7.406791046647015 -5.223861536744010 107 85 56 255
36.930826727547554 -4.660372555030733 -6.461669871409555 84 71 42 255
36.390227158736124 -1.277344451545673 -8.220502667418856 50 47 20 255
32.583488622480502 -19.420309248207246 -15.673340157294490 196 157 131 255
33.665324117589478 -21.642154214566801 -12.427792791452219 205 158 142 255
34.135892874270567 -21.885275706831663 -11.050979763219999 207 161 145 255
34.291105639406396 -21.095931505340246 -10.638791728572357 205 159 143 255
34.468754618516101 -20.380622422107933 -10.157884179657913 203 158 139 255
34.557120630577032 -19.366984817300420 -9.950332965913276 203 158 139 255
34.868452496796806 -19.099928606162138 -9.059869106418205 201 156 136 255
35.267898740021181 -19.135792247191489 -7.899118090048972 199 152 132 255
35.555481237523423 -18.799822190695807 -7.080791154854523 198 151 131 255
35.776207048461032 -18.239684027123104 -6.467198448455633 195 148 128 255
35.864457522659393 -17.226271034527599 -6.259761093283259 189 142 122 255
36.063030055842944 -16.590819278116783 -5.714006876941625 184 137 117 255
36.086039723913558 -15.346709451677839 -5.706910991135004 178 131 111 255
36.241028896782424 -14.557808921908105 -5.294950735664344 172 127 106 255
36.461558368430545 -13.998316574702244 -4.681769866661909 163 121 99 255
36.616553028740682 -13.209360341204871 -4.269766971959569 156 117 94 255
36.684797077303017 -12.111927317703646 -4.124305120562866 145 109 85 255
36.623638495720343 -10.548874698950357 -4.376703402051930 133 99 74 255
36.563663331492464 -8.981055068262037 -4.625896486021389 116 88 60 255
36.418691225123069 -7.097708614881839 -5.136892549530671 99 79 50 255
36.017452879891124 -4.272913354333866 -6.436747014142071 76 65 36 255
35.383353088270226 -0.576873746724516 -8.454175694239268 19 20 0 255
32.209996426971003 -20.823054277553894 -14.011073116432129 203 158 135 255
32.913321832178980 -21.795007455421683 -11.942760576891146 207 160 144 255
33.273379828851816 -21.668420352915035 -10.910969630687248 208 163 144 255
33.541884886131456 -21.248898422300272 -10.155582783945846 206 161 142 255
33.719495914666084 -20.533793626046133 -9.674820526954448 203 158 138 255
33.806871559131238 -19.520458543038785 -9.466903694242006 204 159 138 255
33.984625900768819 -18.804655840614600 -8.985653570065153 202 157 136 255
34.409181076411883 -18.914182800846760 -7.757537312393595 200 154 131 255
34.787727383653063 -18.878166154142491 -6.668242341127041 198 152 129 255
35.142925134769996 -18.770744136793098 -5.649273713724369 194 148 125 255
35.274460425197375 -17.910107081121254 -5.307300551000452 188 142 119 255
35.450625949508066 -17.200482286105171 -4.830169985823261 181 135 112 255
35.338603195327707 -15.501335289943228 -5.226182754204899 175 129 106 255
35.404866466005871 -14.407297076786335 -5.082295965067345 167 124 102 255
35.581934319077007 -13.693961670636412 -4.602658784751100 158 117 95 255
35.824983911455490 -13.211063076758649 -3.922925814723271 149 112 88 255
35.892103504172482 -12.113528637814710 -3.776681042239545 138 104 79 255
35.740821225699108 -10.241621086957480 -4.293210688999778 125 93 68 255
35.634835168154780 -8.518076771381430 -4.672807006367549 110 85 57 255
35.443118337400961 -6.478223384836838 -5.313103384630409 91 75 46 255
34.927311523427278 -3.262676387953945 -6.938060667363345 68 63 34 255
31.683536638910766 -21.710774510713009 -12.835045761251052 205 160 138 255
32.161689110174819 -21.947835889481752 -11.457937613784480 210 161 146 255
32.362954109456240 -21.303993849097850 -10.906920989776040 208 163 142 255
32.747242676154244 -21.253609566818284 -9.809318149541014 206 161 140 255
32.970610549829502 -20.686939287515258 -9.191967864830787 203 158 137 255
33.125358636577118 -19.897575594923950 -8.779474823764502 204 159 136 255
33.325643601279950 -19.257417459241566 -8.230894426326898 201 156 133 255
33.707204567951578 -19.217771557604181 -7.140473344694612 201 155 132 255
34.042499099133281 -19.031749810845952 -6.188025399452300 198 152 129 255
34.331857216218239 -18.698028033290370 -5.372661049685092 192 146 123 255
34.508068236456069 -17.988306222347262 -4.895478565568681 185 139 116 255
34.706707325998593 -17.354551735849498 -4.351168876859191 181 135 112 255
34.681166538601772 -15.960330849129861 -4.477538202544110 173 127 104 255
34.768329509965824 -14.943828942340673 -4.266871106491124 162 121 99 255
34.855903532469384 -13.925649762644980 -4.055072945556702 153 114 91 255
34.966130081131283 -12.982552701542062 -3.775555317899006 142 106 82 255
35.054475852360980 -11.961236287871543 -3.561643375905703 130 97 72 255
34.899799291958971 -10.089030442414725 -4.075816177170054 120 90 64 255
34.746742262576461 -8.210298537980577 -4.585600694077186 104 82 53 255
34.331049444894433 -5.393345682000700 -5.882952129469629 77 67 36 255
33.786490138901272 -2.097413836990938 -7.567452681808930 36 37 10 255
29.839319393779334 -19.729168514153940 -15.517476799339278 206 167 138 255
30.999110258120083 -22.083981710708827 -12.142573267028865 206 165 143 255
31.387180743689129 -22.026990905504192 -11.041859989758905 211 164 146 255
31.611893436747593 -21.456975968205626 -10.422580725547306 207 162 141 255
31.928884737198786 -21.184302842463183 -9.530991808584389 204 159 138 255
32.222097801707093 -20.840060486397050 -8.709326636978318 201 156 133 255
32.445647751434166 -20.274522112644888 -8.093025306983805 201 156 133 255
32.714881697099983 -19.859464865400867 -7.341782610160209 200 155 132 255
33.052388190910349 -19.671184002041969 -6.388842220236171 200 154 131 255
33.297648614366011 -19.185307871963545 -5.708022177709694 195 149 126 255
33.542546584125319 -18.700845746684223 -5.028145767092781 190 144 121 255
33.764331962705228 -18.142162111243238 -4.416414271598882 186 140 117 255
33.985867223566402 -17.584449409760509 -3.805329956984963 173 127 104 255
34.048658820048146 -16.495180440686681 -3.663227589673227 171 126 103 255
34.134556505810878 -15.480090814895732 -3.452941405214659 153 112 90 255
34.153266542886584 -14.233777550735994 -3.441350813784453 149 111 88 255
34.150238628841322 -12.907729333092760 -3.494201742158083 135 101 76 255
34.170484945969150 -11.655197246212282 -3.478425103956056 124 92 67 255
34.034893150957714 -9.859428850379004 -3.923780808373635 110 82 55 255
33.789240762771897 -7.670592418441402 -4.695126993227461 88 70 40 255
33.167236315581903 -4.153981710685230 -6.580663469250368 67 62 31 255
32.571353810599447 -0.699435908321050 -8.389875978199285 12 16 0 255
29.406400478653509 -20.907391343055309 -14.064270503527666 207 165 140 255
30.269404461642608 -22.310211080860313 -11.588189877973861 209 168 146 255
30.659529738774893 -22.253422471047543 -10.488921232029156 208 166 144 255
30.884630002043778 -21.683781116546186 -9.870191766664618 206 161 138 255
31.202960989404431 -21.411385225343025 -8.979664932368451 201 156 133 255
31.613866302791394 -21.438881301521917 -7.819120533223440 201 156 133 255
31.860792220745481 -20.949330026588711 -7.136297659927777 199 155 130 255
32.130559800785392 -20.535924905175705 -6.386752554494819 197 153 128 255
32.307236695002501 -19.824582730024957 -5.908520136101458 199 153 129 255
32.530076101440798 -19.263672209538697 -5.295602948065294 192 146 122 255
32.683528959873996 -18.477566817151001 -4.884998324713422 189 143 119 255
32.929016768896176 -17.993552498391750 -4.205858826110983 173 127 103 255
33.128274650035436 -17.359290133374429 -3.661513975306462 170 124 100 255
33.281632367326381 -16.573456304581299 -3.251074706427801 162 116 93 255
33.389419602851916 -15.634727849996807 -2.973652113879325 146 108 85 255
33.360882770555619 -14.235815886370602 -3.094280625104830 140 104 80 255
33.333304346654728 -12.833025014438761 -3.212298253313577 126 93 67 255
33.238701357370218 -11.195558550542330 -3.526259101364104 117 87 61 255
33.100173985244979 -9.398585996173665 -3.968794253082109 100 74 47 255
32.715082833628017 -6.744433465722352 -5.132011958851962 75 59 29 255
31.860258907569147 -2.449908250536168 -7.668431647968475 48 45 15 255
27.726008913713301 -19.525388762876304 -16.193260574520650 198 170 138 255
28.932853244657522 -21.938591875422730 -12.752008162628414 205 165 139 255
29.540541395318570 -22.536370212308270 -11.034272351578693 208 166 141 255
29.909001986291699 -22.406182633526470 -10.004728793382895 209 162 139 255
30.229209687273510 -22.131980507351841 -9.113875489931246 204 158 135 255
30.572328319123287 -21.934565760326223 -8.156873126434306 201 155 131 255
31.055976563717536 -22.185913436789974 -6.794992347842737 202 156 131 255
31.279643111607513 -21.623774772358388 -6.181574079599130 200 155 127 255
31.479605187981065 -20.987909771436080 -5.636342116222664 198 153 125 255
31.609244405647303 -20.127807231517693 -5.293632044588151 197 150 120 255
31.832415535798830 -19.567496559455492 -4.681416991293503 192 145 118 255
32.055332847223156 -19.008161060595626 -4.069850322566282 186 138 114 255
32.231542224022178 -18.298628138478023 -3.592822972906532 161 113 90 255
32.407719470210907 -17.589186734630943 -3.115851306507153 150 102 79 255
32.445156204174964 -16.423676559002217 -3.038830120466315 156 108 85 255
32.506283692696854 -15.331858705201881 -2.893585981409473 146 103 78 255
32.498903592473866 -14.008524669497859 -2.945974973340782 136 99 72 255
32.538280404652525 -12.835128482196012 -2.863640502934516 121 90 61 255
32.372192874589928 -10.967005961596072 -3.374094769298068 110 83 54 255
32.184877275004666 -9.015233695750908 -3.946071155840229 90 69 40 255
31.475115761487032 -5.277491183519089 -6.025858127485350 69 58 30 255
30.542242812606474 -0.746974246884292 -8.750279017848840 19 19 2 255
27.200741663499528 -20.408356144051766 -15.014045398243155 204 169 141 255
28.248768396601662 -22.310970624963687 -12.059063113180514 207 165 140 255
28.860548464038231 -22.909171863291760 -10.344220884458167 208 163 138 255
29.182800593346201 -22.632498621212676 -9.452595717544796 205 157 134 255
29.528254983872969 -22.432369619535848 -8.494801607043996 201 155 129 255
29.825200472181592 -22.087392211752842 -7.674849228230926 199 153 127 255
30.240528966989913 -22.115911252812225 -6.517900438504284 198 153 125 255
30.559762312299299 -21.851102795523275 -5.634207208659319 198 153 124 255
30.759874611776780 -21.215639312181906 -5.089400578166334 195 150 120 255
30.912579401149671 -20.430912359735800 -4.679470445865320 193 146 116 255
31.088932680676294 -19.720960096231181 -4.202185887751995 187 138 111 255
31.382853881836837 -19.387807446186486 -3.390128933926064 179 128 103 255
31.488466744080512 -18.452460709779700 -3.114150220964746 167 116 94 255
31.570964369662988 -17.440102200462007 -2.904008041627520 149 98 76 255
31.560442969993858 -16.122063378187534 -2.958821674931926 146 97 74 255
31.690577343987101 -15.257925262190668 -2.613083195350441 139 94 70 255
31.611679184226162 -13.705009627175770 -2.862833030969199 129 93 66 255
31.580341908151510 -12.300662682382210 -2.977227341219731 115 87 57 255
31.434275443700500 -10.508021554628698 -3.418656232150056 97 73 45 255
31.151218472415167 -8.246678477258342 -4.250679622344194 77 62 33 255
30.202507221226895 -3.734220580438887 -6.980183339020385 47 42 13 255
26.656239126843843 -21.217926844064948 -13.906067571348757 204 165 137 255
27.493556188243957 -22.463851298168777 -11.572057951620792 207 163 138 255
28.036838098757357 -22.841818419199342 -10.064181707958909 206 162 137 255
28.384850969201494 -22.638089348261246 -9.105002006018907 203 156 131 255
28.707909486365139 -22.363776770577772 -8.215829758316062 203 158 129 255
29.006179506699283 -22.018217835128326 -7.396220093406271 201 156 127 255
29.399990434244359 -21.971820541084469 -6.307833434967279 198 153 123 255
29.936641681382184 -22.376100356446415 -4.817587828832558 196 151 120 255
30.256301680677041 -22.115196736957330 -3.937388018560682 192 147 116 255
30.408188029991706 -21.332905383085063 -3.528962590409122 189 141 111 255
30.488706620280411 -20.324979978300320 -3.321254924402893 182 131 104 255
30.759698186958488 -19.917919786703095 -2.577716191657572 172 118 94 255
30.793177180565209 -18.757345802297039 -2.502315254403953 165 110 89 255
30.874578802080123 -17.745735496195266 -2.292110230432883 143 89 68 255
30.838413898172377 -16.352565179192482 -2.412743004303593 136 86 63 255
31.015062246145959 -15.641304740718567 -1.934560411053184 129 84 61 255
30.909860194817981 -14.013112146392245 -2.249598564087961 121 84 58 255
30.852804375256326 -12.533000003129615 -2.429241473700614 106 79 50 255
30.609810617971419 -10.433698361035965 -3.132386045423175 88 68 39 255
30.135550713010105 -7.555762420381825 -4.486784486037351 67 57 27 255
28.943073152143668 -2.269295375681338 -7.863594312799108 22 23 3 255
26.337788666023457 -22.682831196667109 -12.185534203089333 205 162 136 255
26.738707947725445 -22.616713480247995 -11.085263783946402 204 160 135 255
27.187573349233290 -22.701285372083191 -9.851630725846775 201 161 133 255
27.537444108245438 -22.496702964263534 -8.892900621045271 205 158 132 255
27.935263762195632 -22.442808134273974 -7.800807924029982 201 156 126 255
28.186098294815508 -21.949170395858886 -7.117036738268439 199 154 124 255
28.557916602183155 -21.827905217140625 -6.096956922711200 198 153 122 255
29.098329916720161 -22.231141357592747 -4.608187397214152 195 150 119 255
29.467930100356170 -22.118676259334848 -3.594003673068244 190 145 114 255
29.667869522193058 -21.485877050315025 -3.051292144614337 179 130 103 255
29.699300074805677 -20.328112062127815 -2.976939904999995 146 94 68 255
29.899330999817920 -19.694844312998100 -2.433897917969006 142 84 64 255
30.003448906214487 -18.760061532147120 -2.157456010707904 135 77 59 255
30.083974530121850 -17.748317617002755 -1.946595918656698 137 82 63 255
30.117240575606203 -16.582997166391124 -1.867138641644175 129 80 58 255
30.222466678374587 -15.643647140947792 -1.587609921156684 120 76 55 255
30.138205431081815 -14.091912965897848 -1.835002221915175 112 75 51 255
29.960445549722706 -12.228964988288908 -2.342477571496573 100 70 44 255
29.619003051103846 -9.821655332939770 -3.305277941477101 80 59 32 255
28.761640126265377 -5.709533485271805 -5.703166200924812 61 54 25 255
27.697525552841213 -0.882644339832780 -8.676474815976064 9 12 0 255
25.052647949789915 -22.542811419800302 -13.141158830145002 200 160 128 255
25.779894954165684 -23.418427214058141 -11.151949200242001 204 160 135 255
26.132924808902814 -23.207930184681317 -10.190293447506974 202 159 134 255
26.410953458164030 -22.780777935505569 -9.434519409792244 203 158 131 255
26.713171197873862 -22.428997174487904 -8.612220419841549 203 156 130 255
27.162509176187555 -22.521870137547978 -7.385743739810465 199 154 125 255
27.610596933858687 -22.619698946272678 -6.162586835994716 197 152 123 255
28.032926744119777 -22.648316810551876 -5.010072498143671 197 152 123 255
28.429664596064413 -22.607060533171421 -3.927755651076410 195 150 121 255
28.703378079679112 -22.196840782082830 -3.183297110148345 183 138 109 255
28.879235467400889 -21.489175380468652 -2.707594824057765 171 122 97 255
28.909315558880706 -20.331322227282925 -2.632330108976674 157 103 82 255
29.085428151776199 -19.622528826550536 -2.155853957639323 119 61 44 255
29.237325328831474 -18.838343381928951 -1.745869398288050 96 37 21 255
29.389298314365590 -18.053812705498387 -1.335646563032981 112 57 41 255
29.445064594602457 -16.965218898528036 -1.189734683468032 124 74 55 255
29.477330930899001 -15.798365703022853 -1.108388747317207 116 73 52 255
29.366455329062433 -14.170741873233169 -1.420369827918393 105 68 44 255
29.113423962342694 -12.078381541559963 -2.123012413731459 92 62 36 255
28.504554306504389 -8.826025475682457 -3.803555402871126 69 49 24 255
27.232943526482089 -3.402364096444728 -7.305495360044461 48 39 12 255
39.797301866447100 -1.413683933175435 26.955766227505791 145 112 85 255
40.249361659329935 -1.843154547107360 28.190029779931365 147 109 83 255
40.569400632167927 -1.767319646134524 29.060869669325427 149 109 84 255
40.867003121927070 -1.609148894311545 29.869852506445710 149 107 83 255
41.358978355218696 -2.224035454726561 31.213762817910805 144 106 81 255
41.698097138943723 -2.244701142638519 32.136836496083419 132 97 69 255
41.863959340880385 -1.580480682079042 32.582836493976856 123 93 64 255
23.583355068414477 -21.902725624914467 -14.576002098304315 199 166 128 255
24.670074848664584 -23.784745824618085 -11.628049990982532 199 159 127 255
25.150946914614124 -23.935165500196945 -10.324878869409787 204 161 136 255
25.405256045671649 -23.433649204437558 -9.636754580951958 202 158 133 255
25.734089914812870 -23.153335856631031 -8.746212005426202 204 157 131 255
25.987483005152754 -22.655337041576189 -8.060426144548046 203 157 131 255
26.464217188348641 -22.822063010862934 -6.768163048322776 199 154 125 255
26.914788679666913 -22.920266700004731 -5.546860211684020 197 152 123 255
27.265120965326872 -22.726861649913388 -4.597657468457044 195 150 121 255
27.589951620505815 -22.462284227830793 -3.717635113913644 188 143 115 255
27.790894992383969 -21.827542840588080 -3.173942129122906 179 133 108 255
28.016272927884984 -21.268144789107026 -2.563853530175322 165 117 94 255
28.069696121928501 -20.184565060143143 -2.420630127930878 150 99 78 255
28.197051103886679 -19.324609866813489 -2.076621748052162 120 65 48 255
28.373427244280165 -18.614798704794396 -1.599468052599121 88 32 18 255
28.501041389673190 -17.753715195213289 -1.254688006167839 71 18 5 255
28.628841707415887 -16.891845975842415 -0.909374150276363 88 40 25 255
28.538539503898491 -15.344062813079404 -1.156277097008086 98 57 37 255
28.449411234675878 -13.791526441875646 -1.399980362033261 97 61 38 255
28.023428302947011 -11.162314349720759 -2.558393935942462 84 54 32 255
27.142438682850383 -7.063244478506590 -4.952383550832820 61 40 16 255
25.977810500690325 -2.020808831504780 -8.116629276680499 38 32 8 255
36.822488180998917 -0.951443973274252 21.274304491758244 153 123 91 255
37.307082327335692 -1.435047299808389 22.587463001574548 153 118 89 255
37.968902285000524 -2.595394131646685 24.381959101934427 155 119 90 255
38.539204718609000 -3.429237704272055 25.927780426634769 158 119 94 255
39.040879487597294 -4.018199960681102 27.287092355961050 163 120 97 255
39.651832651696353 -5.036158714877615 28.943178660821587 164 118 96 255
40.238514430578576 -5.978192742502870 30.533248543991448 159 112 94 255
40.756957098065982 -6.673794972685471 31.937849263847880 158 109 92 255
40.987535145523253 -6.269567408863367 32.560297767603004 158 109 92 255
41.239789534930281 -5.951994997850989 33.241505099209263 154 107 89 255
41.513558091005422 -5.721732463283388 33.981030817607575 152 109 90 255
41.655745990783345 -4.978828258904969 34.362924090041901 140 99 79 255
41.667343361796185 -3.719321720646462 34.389843667847089 134 97 75 255
41.527603317027172 -1.853011122884141 34.005384861789111 115 86 61 255
41.606290002434591 -0.845099829437004 34.214219766492249 103 83 52 255
23.048011910095397 -22.707177696064747 -13.469487084737381 201 161 133 255
23.787612038397953 -23.574499935666239 -11.481101094808395 198 156 131 255
24.271593562678419 -23.723719638256966 -10.178871110353612 200 158 133 255
24.804729306901862 -24.024369420926433 -8.744641724112256 201 157 132 255
25.210253735457428 -23.965134988792499 -7.652924825097045 201 157 132 255
25.488991823171418 -23.542704037444452 -6.901494990792116 199 155 130 255
25.817437219550342 -23.269492712195472 -6.016582209442618 197 151 125 255
26.220302590961438 -23.220720375928977 -4.931861275237196 194 148 122 255
26.597152071260950 -23.101905178996077 -3.916934789009474 188 142 117 255
26.798565490203714 -22.466360572859003 -3.372870006183376 181 137 112 255
26.950076589490408 -21.682242551418966 -2.962701159686588 165 120 97 255
27.151300897197402 -21.047340690341883 -2.419050168896462 151 106 85 255
27.278077863422936 -20.187983212257905 -2.075176570554049 125 79 58 255
27.405037146829926 -19.327843072795361 -1.730769286124115 113 66 50 255
27.507522891873379 -18.391479923392467 -1.452006150033043 97 49 35 255
27.684109433634589 -17.680872603852407 -0.974325071185859 78 33 19 255
27.762472917892751 -16.666839951651980 -0.760228645086926 73 30 16 255
27.669793563657507 -15.118433999334940 -1.005138838951552 81 44 25 255
27.553849912176787 -13.488954686151970 -1.312435141264501 82 51 30 255
27.146591766039521 -10.935784080769054 -2.401480470776363 70 43 20 255
26.085062835265504 -6.299565491413546 -5.246278235581627 58 39 17 255
24.931992969531109 -1.333047241696136 -8.336597700380338 34 28 4 255
36.192062593973930 -4.059954924990052 21.973882930340693 162 123 97 255
36.748600435081229 -4.790882764238631 23.469469428740069 164 122 97 255
37.394058000413608 -5.862732770425112 25.203425519955687 166 121 98 255
38.082513349812587 -7.110979236219407 27.052568557027939 166 119 99 255
38.723324510644559 -8.201741132280461 28.773778702311319 167 120 99 255
39.069056743816873 -8.209492576494824 29.703417093253023 167 119 101 255
