ply
format ascii 1.0
element vertex 650
property float x
property float y
property float z
property uchar red
property uchar green
property uchar blue
property uchar alpha
end_header
-35.935714722515485 -12.449637531729650 -15.252878041629060 169 120 99 255
-36.533160328142799 -12.111202673289597 -14.669366676579898 164 115 96 255
-36.638314637740393 -10.848733394201417 -14.751983722505372 160 111 94 255
-36.785899835859510 -9.660677416113913 -14.777997036744921 147 103 87 255
-36.772168058627244 -8.159487008756457 -15.023888399594000 132 91 73 255
-37.369147239911172 -7.821929468261430 -14.440756749190427 124 89 70 255
-37.681814973003611 -6.940085009863424 -14.243974700375190 96 67 51 255
-37.873968506857068 -5.822519877430295 -14.211735000336574 83 56 45 255
-38.067279812550140 -4.702827389109132 -14.178599431787035 81 61 51 255
-38.702567738199377 -4.447308806136903 -13.542101350222879 44 23 16 255
-39.336364086052527 -4.194549442747530 -12.906774589349709 56 36 30 255
-39.968671155419315 -3.944545730390587 -12.272617978381476 29 9 8 255
-39.249264104484382 -0.996951559981540 -13.492208684636239 15 0 0 255
-40.080658413631653 -1.143111577566913 -12.585225105564973 9 0 0 255
-41.146193701921732 -1.773437410193424 -11.354550303583608 5 2 0 255
-41.538631261169371 -1.049887712125042 -11.048604618151472 2 2 0 255
-24.169901132034113 -9.306443872032531 -29.621759032819455 188 140 119 255
-25.559368193618752 -10.246675265111577 -27.989317947891152 186 133 116 255
-26.224082641140797 -9.934546436917572 -27.327695294717927 184 130 110 255
-27.055987274240181 -9.923243677362564 -26.440244173290267 178 120 100 255
-27.548927951096289 -9.318727685166579 -26.008012245653191 160 104 87 255
-28.334875212847351 -9.239880986020637 -25.180254743494174 123 70 54 255
-31.334871442455153 -13.149295215191984 -21.361281564637522 203 150 134 255
-34.069633400719255 -16.634108329949186 -17.892313642825570 205 152 136 255
-34.961481319592934 -16.816826732040226 -16.910387812443815 191 135 120 255
-35.601636080372998 -16.549972120663028 -16.267905242772201 193 135 121 255
-35.909606641468287 -15.677404941969741 -16.075357012193820 188 131 114 255
-36.382847870879431 -15.109209592724170 -15.658482972695680 186 131 113 255
-36.978819904181194 -14.771548025327604 -15.074318801213053 186 135 114 255
-37.409637904034383 -14.129302186900276 -14.714391921501630 184 136 116 255
-38.126109802387816 -14.026292251977395 -13.964681127123214 182 133 116 255
-38.229642781164443 -12.769304714610769 -14.050872544774961 176 127 112 255
-38.334809121381227 -11.509309032838928 -14.135793680855528 165 118 100 255
-38.360632835939100 -10.091060114572258 -14.330314005417222 152 108 91 255
-38.832623236287020 -9.525195865697157 -13.914438204000930 134 97 79 255
-39.062595527673921 -8.491922506946025 -13.830464909420812 116 82 67 255
-38.892215672531393 -6.674076967577662 -14.297310298813784 110 78 65 255
-39.125226582828304 -5.635214864301872 -14.210980743437005 76 45 36 255
-39.638355323273942 -5.145804161650858 -13.739191063350546 58 25 18 255
-40.349541727394012 -5.052599067428616 -12.993656295705222 79 48 43 255
-41.019112945905079 -4.883859767891863 -12.304444388738517 129 99 97 255
-41.647433046265292 -4.638915585870905 -11.671272038538461 88 60 57 255
-41.683219054331659 -3.202372249883354 -11.858093746035962 40 24 20 255
-21.174444659574931 -4.548867494782144 -34.969007391046318 192 169 135 255
-24.223357539577421 -8.345080058687188 -31.090567144688009 198 151 130 255
-25.736817295043210 -9.503809293717865 -29.280852040736363 196 145 128 255
-26.570123454575310 -9.486133931606560 -28.388796464467077 189 138 117 255
-27.316952599542105 -9.324092433823779 -27.612581712481870 180 123 104 255
-27.308115605755063 -7.821063396758632 -27.861318205407940 159 106 90 255
-29.723057065141234 -10.659534228049012 -24.816114221538413 159 108 91 255
-33.416791257188237 -15.849217895866531 -20.023366594235995 211 159 142 255
-35.182030960036030 -17.607050625971624 -17.847877893779923 198 145 129 255
-35.863182587384273 -17.414202447696084 -17.147081594255553 190 136 121 255
-36.336248676875073 -16.845498096295756 -16.729572950028768 189 131 117 255
-36.973345817796087 -16.581973830764753 -16.087335551440276 183 127 112 255
-37.444834078008853 -16.016180479691229 -15.671058755127490 170 117 99 255
-38.120293829502543 -15.833832365714557 -14.974705210760959 186 135 116 255
-38.590090011180024 -15.271163643991713 -14.559752097516196 186 138 119 255
-39.465963341853012 -15.478826924364853 -13.586101424774910 190 141 126 255
-39.609141311020352 -14.303141270699115 -13.619485151519257 187 137 122 255
-39.632450177626424 -12.892757087417635 -13.818958291502071 179 130 115 255
-39.738476606292465 -11.633673242440011 -13.905524066029301 169 122 107 255
-40.087215135475390 -10.838515849957560 -13.657604104223594 156 113 97 255
-40.155733782364933 -9.496694035566406 -13.797632812941600 142 103 88 255
-40.146257185838436 -7.994874474397761 -14.046895954755200 129 91 78 255
-40.178962788352521 -6.567192147444757 -14.239068319688670 109 72 62 255
-40.650459238599524 -6.001440884261740 -13.822838149091751 60 23 14 255
-41.279735488065540 -5.752409530046975 -13.186765874776313 51 17 9 255
-41.946979815506552 -5.585290123358618 -12.496892804855804 55 23 19 255
-42.337151053633491 -4.865707179672313 -12.192517683367441 71 45 41 255
-42.374353198240783 -3.429784917667575 -12.381231324405832 64 49 43 255
-22.342619452726638 -5.505363082936185 -34.961168431502927 181 165 128 255
-24.661513816559079 -8.048486262258507 -32.047976327537668 198 154 131 255
-25.960395644369555 -8.835475940427699 -30.519330440955599 196 148 130 255
-26.373744112031545 -8.072977405427963 -30.196716646857823 192 144 122 255
-27.037825712630053 -7.757381860299802 -29.531292311070018 187 132 112 255
-27.617018824308616 -7.295230204192848 -28.981155249645326 164 113 96 255
-30.605648678585226 -11.179599786919681 -25.128402391985333 151 100 83 255
-34.408002839225531 -16.594342307746842 -20.150174324627102 204 154 137 255
-36.083237290601062 -18.202775976265571 -18.082581845484810 193 142 125 255
-36.473791299162485 -17.482306278877729 -17.777740510777477 188 135 119 255
-37.439353321611264 -17.823135757650732 -16.680852290268348 141 85 70 255
-37.950953669191449 -17.334089237271371 -16.207979626254513 98 45 31 255
-38.584272117277692 -17.075228144241350 -15.566552665526416 171 120 103 255
-38.890364315014011 -16.207421554404107 -15.376671433180462 183 134 117 255
-39.481035865977162 -15.875662427778764 -14.793052016659772 195 146 130 255
-40.272807580409761 -15.930800299336198 -13.929886718404106 198 149 135 255
-40.497174993785421 -14.910615285160702 -13.852836253081790 194 145 131 255
-40.802916188108981 -14.043470013037052 -13.663241791240750 189 140 128 255
-41.068975396793178 -13.097958822694238 -13.529142136931455 178 130 118 255
-41.455678257278436 -12.384620498903757 -13.227331802869571 170 125 114 255
-41.523371784450973 -11.047184358094967 -13.370658917622961 161 119 106 255
-41.394199973873754 -9.315050337788875 -13.790236920255609 153 113 98 255
-41.783290821274875 -8.597330451634178 -13.486584596965599 145 109 97 255
-42.053812603187623 -7.643626472611004 -13.349038348889650 108 74 64 255
-42.679504215919195 -7.398904583985598 -12.713629008089384 59 30 21 255
-42.871770672533060 -6.286434409938067 -12.686217050689976 18 0 0 255
-42.908617810139134 -4.854388121840316 -12.878193576109140 13 0 0 255
-42.440258955952686 -2.383865569928844 -13.783231475519756 5 0 0 255
-42.716374600894824 -1.419903589957357 -13.641375755663802 0 1 0 255
-23.001024518990874 -5.578837436873698 -35.641229860469934 181 170 130 255
-25.353338900447284 -8.194781147751030 -32.661582454404083 206 162 140 255
-26.396952781686423 -8.537586888175895 -31.474052663291104 202 154 134 255
-26.685653864413638 -7.551320322948612 -31.323219169527590 192 145 125 255
-27.557582461407861 -7.606010875555313 -30.369122268479003 188 132 115 255
-28.426775708224994 -7.665743187452904 -29.417156471583240 168 117 102 255
-30.865336699008452 -10.576177601940287 -26.295593779264692 128 78 63 255
-34.776992255010612 -16.212507410575284 -21.129300645948433 206 157 142 255
-36.076884266305996 -17.140960805788779 -19.567705160583188 198 149 134 255
-36.920298457922087 -17.248243550719195 -18.635856051280626 162 110 96 255
-37.760989618891386 -17.360549507142565 -17.706132303574492 150 97 83 255
-38.925096916541236 -18.085876699365201 -16.325099538054531 184 131 117 255
-39.474857387364864 -17.676442072403631 -15.796472532868052 185 135 120 255
-39.983065367205029 -17.192457918973048 -15.325139410789632 183 134 117 255
-40.409679638891873 -16.556585597489516 -14.967213328935401 201 152 137 255
-40.956847671457609 -16.151941261405369 -14.440617157907013 207 158 144 255
-41.342339411374212 -15.440731773490938 -14.139654479293711 197 147 136 255
-41.727776579142116 -14.729627817553421 -13.838738901808512 192 144 134 255
-42.153083316005990 -14.096185621651500 -13.481850144615066 184 137 127 255
-42.498494096807207 -13.307727031539201 -13.237046683789742 173 129 120 255
-42.526646912802676 -11.894893288371321 -13.438751402644300 172 130 118 255
-42.833847295267816 -11.025733103350859 -13.248645452839469 159 119 104 255
-42.904843716505525 -9.685085950124773 -13.392065982933900 154 119 106 255
-43.292281669832150 -8.970337319315632 -13.089631592198486 137 104 92 255
-43.601279883052271 -8.097890035692842 -12.898149649307186 112 86 75 255
-44.106113072655504 -7.620215460484530 -12.429528512719230 38 19 11 255
-43.168740214457202 -4.208458007967124 -14.006385851569576 11 1 0 255
-42.472551015001642 -1.259024011147062 -15.245850942280185 2 2 0 255
-44.919152857096691 -4.759588160353019 -12.018709420219068 0 1 0 255
-49.269837212326209 -1.724371345598911 -7.803329204677766 0 1 0 255
-23.407907108931397 -5.211207341047157 -36.668743150227556 188 164 132 255
-25.459697695600880 -7.308593542193989 -34.084226741293264 199 164 138 255
-26.960321385072490 -8.461880035760316 -32.257535998952108 202 157 135 255
-27.374414825263898 -7.697815970251781 -31.934163445979948 197 146 125 255
-28.409789881454913 -8.050170229048291 -30.747827111458832 185 133 112 255
-28.863220540022382 -7.364364552017321 -30.368539632236292 165 116 99 255
-33.218292528373411 -12.301855371168443 -24.801570036360260 177 130 114 255
-36.035187329568089 -16.004518879640898 -21.115821330239953 194 146 131 255
-37.286608485411875 -16.863333638617888 -19.609641622765054 122 73 58 255
-38.736387215946934 -18.110409293454438 -17.822631205160008 193 143 128 255
-39.530569899089329 -18.153523883692884 -16.950561764240263 183 132 118 255
-40.241360597687446 -18.048805945069716 -16.193987343393644 173 124 109 255
-40.506453093212258 -17.107096005076187 -16.062512758352739 163 114 99 255
-41.093940623231276 -16.777338872871354 -15.477789710249908 189 140 125 255
-41.640068376742533 -16.373048025886220 -14.950554320290394 213 163 151 255
-42.145200165613588 -15.893552987056125 -14.480523232491976 196 147 137 255
-42.569845406355114 -15.260868441014139 -14.123721953922853 188 141 131 255
-43.113398266286083 -14.861343999158436 -13.598511564046333 174 127 119 255
-43.457870150767704 -14.074899680724457 -13.354702581700906 135 91 82 255
-43.605071726072168 -12.898195445837246 -13.390881869694852 95 52 43 255
-43.635557259958830 -11.484301914691173 -13.593772358094242 120 80 66 255
-43.982179329793567 -10.693915894484803 -13.348308092081510 139 102 89 255
-44.250737583132420 -9.745875358707167 -13.214186589014787 130 97 85 255
-44.597998751337997 -8.954331667669805 -12.968243226187127 120 93 82 255
-44.751012587023666 -7.766955042779045 -12.999931912524858 60 40 31 255
-44.362664211423294 -5.466557101465810 -13.806995564046218 8 0 0 255
-43.090176019596669 -1.327947757653533 -15.883791170517725 1 1 0 255
-45.603801840641196 -4.986905189409413 -12.535730717906375 0 2 0 255
-46.080433472783369 -1.392547289731056 -12.617272044719385 0 2 0 255
-50.655142983661094 -5.020496554716829 -7.030673337265711 0 2 0 255
-50.847619141326390 -3.911349843789822 -7.006536980281680 0 2 0 255
-50.442179301690317 -1.491848359632115 -7.852330324044175 0 4 0 255
-21.009253596110540 -1.447134494666386 -41.346377269642431 188 175 132 255
-23.399792123539328 -4.108831217571435 -38.279649438649272 184 157 125 255
-25.820477570802268 -6.865378183805774 -35.163844633032937 199 162 138 255
-27.441415700964114 -8.238407105495327 -33.157614794443077 204 157 136 255
-28.104077900824450 -7.918496751082586 -32.486871572411957 198 147 126 255
-28.806447810261545 -7.675796643847008 -31.759586199276356 186 134 113 255
-29.219250922101537 -6.914008362651600 -31.437123896416381 171 122 103 255
-30.123900153976081 -7.050476801320769 -30.424224698523346 143 95 76 255
-38.020794142420414 -17.158338280144932 -20.070429259205213 163 115 99 255
-39.141173975404683 -17.799647277768372 -18.735891839160985 191 142 127 255
-40.418702186872736 -18.752926332055665 -17.176522552249963 196 147 132 255
-40.804942260855171 -18.040147398986107 -16.874800610447238 164 115 100 255
-41.472159357339024 -17.862305235024110 -16.174962739355067 162 113 98 255
-41.817408211455003 -17.074683354724357 -15.930784366497790 132 83 68 255
-42.362375716072776 -16.670968499241269 -15.403004500974987 190 140 129 255
-42.786964021534843 -16.037927392498943 -15.045819788958084 190 141 131 255
-43.250923090104891 -15.482729676220174 -14.632366645190984 160 112 102 255
-43.753892933033455 -15.006040534774229 -14.162927072971115 75 28 21 255
-44.256089238518683 -14.530785962525556 -13.694098315012241 74 30 21 255
-44.364474942441120 -13.277349243694260 -13.788091536574029 155 111 102 255
-44.513685471743145 -12.099076249617525 -13.824683879611854 159 117 105 255
-44.898674990358330 -11.388663444746157 -13.523992899425338 83 46 32 255
-45.322564386122224 -10.756968315980430 -13.167406244486187 121 86 75 255
-45.590885258621796 -9.810399937292516 -13.034428728294785 121 92 82 255
-45.356774112644771 -7.834626878632349 -13.625685175686243 41 22 14 255
-45.280805694894397 -6.169002471289986 -13.991345596892756 8 0 0 255
-45.899980665845078 -5.929443703457281 -13.354665337624454 3 3 0 255
-47.936253274776874 -8.643015042036211 -10.666825492750689 0 4 0 255
-49.274187920014924 -9.936445451456109 -8.983849060378731 1 4 0 255
-50.575432657458961 -3.623558131638106 -8.632027436280339 0 4 0 255
-20.331740299392521 -0.708592794364449 -43.662481450335292 167 164 114 255
-22.263619800530364 -2.547879317399463 -41.222323670204844 199 170 135 255
-24.643534059898229 -5.211707577927029 -38.147696955237961 187 154 126 255
-26.142414549742568 -6.348803504982186 -36.304378103914587 192 151 129 255
-27.882655508374881 -7.941224693472975 -34.117344343689581 201 153 133 255
-28.380070900205709 -7.323456512982688 -33.676987282078784 199 148 127 255
-28.876926058107870 -6.706716204290757 -33.237062300192520 186 135 114 255
-29.086744828298549 -5.568805408189746 -33.202382069831032 167 116 97 255
-30.032179102936936 -5.775603195291524 -32.127563778144690 142 94 74 255
-35.564078068898283 -12.981129900374981 -24.806196136795762 206 161 140 255
-38.349354163103413 -16.698353896235801 -21.104556330617356 202 155 137 255
-39.628422030009204 -17.640573854086711 -19.536366813499740 195 146 129 255
-40.459906083303650 -17.757409509599086 -18.602284343440147 193 146 129 255
-41.489073765515002 -18.260058705998119 -17.384476181902272 206 159 141 255
-42.114725281613232 -18.006125290515683 -16.740490921413254 153 106 88 255
-42.818548289755455 -17.908184444991264 -15.983722431574563 139 91 76 255
-43.321793667012386 -17.429776372362710 -15.512945586244200 163 115 103 255
-43.626272700141669 -16.567558989934241 -15.326745931341435 162 114 102 255
-43.891704084642271 -15.627282123097245 -15.196914717813883 129 81 71 255
-44.433302321799900 -15.228238347781058 -14.670333160333854 159 112 105 255
-45.052358097478304 -14.986509245209504 -14.031530316931139 162 118 109 255
-45.396112727898128 -14.201964210728590 -13.788815230107986 188 144 135 255
-45.545089129389325 -13.026254063420481 -13.827565601550532 82 40 28 255
-45.889839180326391 -12.239891485149258 -13.584090930120340 93 57 43 255
-46.506064428458131 -12.003425249688803 -12.947535684870019 133 98 85 255
-46.541306008714997 -10.587263743084691 -13.152744370956896 129 98 87 255
-46.347602585117855 -8.692868512314874 -13.691972444881827 32 13 3 255
-45.236064213208905 -4.889292619165531 -15.568848112620856 8 0 0 255
-47.578348933977168 -8.223174519709346 -12.420279952679380 4 5 0 255
-48.916381568277075 -9.507103909152818 -10.728587597780290 2 6 0 255
-48.955313602164821 -8.084207093511424 -10.930983059082251 2 5 0 255
-48.086537104935175 -4.733448009715119 -12.463121136681906 0 2 0 255
-48.218570794272125 -1.937910758077351 -12.799826556124742 0 2 0 255
-48.306403872387619 -0.574976353366424 -12.938236672722127 0 3 0 255
-21.755611067008545 -2.098499149916620 -43.303938003647431 198 171 132 255
-23.554075347640634 -3.721324188566314 -41.034184088930033 204 170 137 255
-24.807043809188229 -4.404006423489591 -39.531194684329137 201 161 136 255
-26.590953203489818 -6.053677087638562 -37.272797371452555 197 154 133 255
-28.202407768388099 -7.422577165817358 -35.253925795667129 200 153 133 255
-28.700362869931354 -6.802980543309019 -34.812375487193862 192 143 120 255
-28.544040258533641 -4.994725209833007 -35.301176042186313 181 131 109 255
-29.124282549515755 -4.522771039817144 -34.742927670698862 162 113 93 255
-30.150257037624101 -4.875549001346201 -33.548246736781152 137 90 70 255
-31.779959661128572 -6.360511102536009 -31.488901119075308 104 62 40 255
-34.613572131577115 -10.116392225157995 -27.703002142110279 149 108 86 255
-38.801245819667230 -16.465124603161911 -21.968449044204164 204 160 141 255
-39.916068138635637 -17.103211589531981 -20.625759543569757 199 152 134 255
-41.066494094006089 -17.825352078170852 -19.229056739112082 200 153 137 255
-42.052707145530292 -18.251518550361027 -18.065447259518749 196 149 131 255
-42.955699250231433 -18.531756779374518 -17.019256954110517 178 131 115 255
-43.617596144161112 -18.358391993046581 -16.318624542574781 165 117 102 255
-43.921982768837054 -17.496993902735966 -16.133098443932198 148 100 88 255
-44.069161888327443 -16.326694393482910 -16.175193739638701 148 100 90 255
-44.453465292423260 -15.617336720317752 -15.874843108195250 144 95 88 255
-45.229395220018844 -15.682821643374666 -15.006544901272207 182 135 128 255
-46.080959364892124 -15.908248703587162 -14.026766259542541 192 145 139 255
-46.696023595434170 -15.671595994536403 -13.388959055006012 88 42 34 255
-46.882729147960191 -14.578147476011679 -13.374010698423376 89 43 35 255
-47.147968158228167 -13.639292560749226 -13.245318764982613 162 122 108 255
-47.413889238733844 -12.699190355815659 -13.116104602453277 139 100 88 255
-47.718939009717971 -11.836647041586900 -12.930133296038122 108 73 63 255
-47.449571501053583 -9.787828004224878 -13.585929276909894 29 6 0 255
-47.451691075263028 -8.286302843839508 -13.846243367743085 15 7 0 255
-48.065519187447620 -8.052020121339638 -13.209484119803477 9 9 0 255
-48.986012397982620 -6.952307598763468 -12.385579293876958 3 5 0 255
-49.596385006807594 -6.724454939588384 -11.751568696688565 0 2 0 255
-50.063107283241862 -4.665190864859881 -11.596672297620330 0 3 0 255
-48.990261133047397 -0.804654909789917 -13.456711128824196 0 3 0 255
-22.758658071299521 -2.757741832685326 -43.527156559827290 210 169 141 255
-24.219687161298566 -3.795906584959653 -41.721970927786316 208 166 141 255
-25.592283276340140 -4.698491362881555 -40.038952511978266 208 164 141 255
-26.877174525793976 -5.464153230727447 -38.477533214966599 201 156 137 255
-28.566011286727417 -6.978206869778830 -36.335097547834692 197 149 129 255
-28.615702518259951 -5.541781945446701 -36.534953218270402 189 141 118 255
-28.667491882815938 -4.101477321252389 -36.733162697887906 176 128 105 255
-29.289048365047961 -3.701094154240252 -36.114638004678028 156 108 88 255
-30.475299908141267 -4.349996840325105 -34.683345273054982 130 85 66 255
-31.455358462758198 -4.632486753151397 -33.545852812787160 105 66 45 255
-38.653603553529479 -15.100379458869639 -23.701524221776339 215 175 155 255
-40.366438429404667 -16.868922666994592 -21.487255998061983 201 158 139 255
-41.195130837373512 -16.982608452358249 -20.547659053676341 204 157 141 255
-42.537242587794907 -18.090833733036504 -18.861907312008185 194 147 131 255
-43.398519090534521 -18.293782219768048 -17.870319235212406 191 144 128 255
-44.335765938601185 -18.655309970715876 -16.766299818529461 192 144 131 255
-44.443422393853055 -17.410687915741761 -16.867786018963301 179 131 121 255
-44.670374033794232 -16.394077535161813 -16.796450978461081 143 95 86 255
-45.054636790033314 -15.684710976908207 -16.496054330834767 166 117 110 255
-45.750682103351210 -15.595069010909583 -15.739749538372934 175 128 122 255
-46.872194604652279 -16.363516316526272 -14.359097382960982 88 41 35 255
-47.485485766210701 -16.127838765524359 -13.720546126230829 127 80 74 255
-48.097286434454745 -15.894922668903035 -13.083169269715000 182 135 127 255
-48.130143126391317 -14.489620802111688 -13.296227697951906 160 117 104 255
-48.395387804346427 -13.551793798943663 -13.168493858476950 142 99 88 255
-48.470036741642787 -12.218777412521632 -13.322382578967392 118 78 70 255
-48.699119571018485 -11.198324226958505 -13.249466271723151 61 33 23 255
-48.396919702742863 -9.066916528600899 -13.963209156753180 21 10 0 255
-48.743234556026209 -8.278310387966485 -13.719109213118116 8 7 0 255
-48.863115020833135 -7.011269478830400 -13.811175788512514 2 4 0 255
-49.813039628811282 -7.498968622023540 -12.670875928940291 2 4 0 255
-50.271392140688391 -6.951820619468720 -12.259673480501448 0 2 0 255
-51.552328099839826 -8.173184088464268 -10.621935715677637 0 3 0 255
-49.881346258537548 -3.040563778691194 -13.387174930319247 0 3 0 255
-51.612203232811069 -0.593471282566384 -11.902485628644229 0 3 0 255
-22.214525171617623 -2.243078752254746 -45.679699843998691 211 174 147 255
-23.799801866261646 -3.489670603019533 -43.688142014322096 210 170 145 255
-25.172802148832716 -4.382921460376167 -41.996847146654801 212 166 145 255
-26.622084367583454 -5.433423428344042 -40.192179411127086 209 164 141 255
-27.861030145952554 -6.127005237855059 -38.686260025471853 199 152 131 255
-29.135783473444860 -6.903517536401552 -37.125475882121634 190 142 121 255
-29.390369629457751 -5.837285899062351 -37.033829154784854 184 136 113 255
-28.957689927270792 -3.506082559456786 -37.936152650677030 169 121 99 255
-29.619700151744439 -3.178120100339356 -37.257339528420346 151 101 82 255
-30.441139523584184 -3.152002365043813 -36.346428691407937 130 84 65 255
-40.818245607519685 -16.634850461496569 -22.350288853060022 204 163 145 255
-42.002013966658367 -17.430266560529532 -20.887480445021680 201 155 142 255
-43.022839256124854 -17.930322715510584 -19.659514824608152 195 149 134 255
-43.763991462460694 -17.903385934871210 -18.838240638887157 183 137 122 255
-44.424369863828659 -17.727483657867197 -18.133844730985942 152 106 94 255
-44.574025882000555 -16.556871584719858 -18.177952446540274 172 125 117 255
-44.881201756811237 -15.691639503622753 -17.991464885591057 196 149 141 255
-45.655740819969935 -15.752131381732084 -17.117245622929744 190 143 135 255
-46.660562062866063 -16.281765660726734 -15.901822580845248 181 132 127 255
-47.816158304744533 -17.129235568165143 -14.461081047465825 183 134 129 255
-48.157348880036793 -16.350284620924100 -14.221168256883942 194 145 140 255
-48.690881707741511 -15.961476642418916 -13.696578411777722 172 123 116 255
-48.916940990631190 -14.947962202369354 -13.627283761770116 167 120 108 255
-49.067548475133975 -13.775665613128297 -13.670714349941790 152 105 93 255
-49.029226235604639 -12.206950254909543 -13.996176393438333 129 85 78 255
-49.259148328630957 -11.186345578379388 -13.923899714251149 75 43 34 255
-49.527827380582153 -10.243250628969747 -13.794474813198292 23 9 0 255
-48.816835890417636 -7.233622610420923 -15.129403620582309 7 5 0 255
-49.728990279045576 -7.636375264096131 -14.040275578565655 1 3 0 255
-51.761708647609325 -10.441763519763754 -11.269223486963227 2 4 0 255
-50.796207854690209 -6.858742881625972 -12.991221864888729 0 3 0 255
-52.472791117866237 -1.231063808661759 -12.138245694274303 0 3 0 255
-53.150017360935607 -1.173466810532659 -11.394153706378717 0 4 0 255
-21.837933972313721 -2.027922361981950 -47.605518373356688 204 180 146 255
-23.176335512391859 -2.827798273773396 -45.960530268237250 212 175 149 255
-24.878475254793898 -4.294220751124556 -43.786307203220758 211 170 148 255
-26.245872855320499 -5.189218048343832 -42.091423793935974 211 167 146 255
-27.566852922981582 -6.021224728156483 -40.460027022481086 206 161 138 255
-28.475899661860666 -6.126964186792605 -39.422730766238459 195 147 125 255
-29.381966952856487 -6.238196308325257 -38.387756704117209 184 135 113 255
-29.638468096525258 -5.169817520568699 -38.295899553420327 175 124 103 255
-29.573531227251237 -3.505453837804339 -38.672981872536695 161 113 91 255
-29.792609243062486 -2.357475310615428 -38.637575329067033 147 97 78 255
-30.052870070706035 -1.282137260489378 -38.542761705483827 115 74 52 255
-40.361455139965301 -14.661519117162413 -24.552045441029719 198 165 145 255
-42.254693323408503 -16.815829231939347 -22.037947114657896 199 152 142 255
-43.312869178596060 -17.389610359341759 -20.748017811635805 184 139 133 255
-43.935632803658024 -17.131801550632105 -20.097756095557060 176 131 125 255
-44.556892333349779 -16.876773815212772 -19.448674323076801 88 45 39 255
-45.020795401714949 -16.317552647218861 -19.031439579560725 120 75 69 255
-45.561848978341217 -15.913257298728922 -18.499483826512773 188 142 138 255
-46.644001446730130 -16.591478761058966 -17.163632124979813 202 154 151 255
-47.567357416474223 -16.968168754187218 -16.060756525436119 204 155 151 255
-48.333365790114470 -17.040652884460030 -15.189724672346642 206 157 152 255
-48.713309551710637 -16.339123002523280 -14.892577968107872 193 142 138 255
-49.322652834843225 -16.106152901075518 -14.252867036665890 183 133 126 255
-49.701789513180458 -15.406136056465016 -13.956372703814452 173 123 112 255
-49.814890733767740 -14.156542710397247 -14.058311384954607 153 103 95 255
-49.853883379553139 -12.746427085120132 -14.272610743926151 117 75 68 255
-50.046043727706021 -11.648259392336286 -14.258357891138644 69 41 30 255
-50.465204956492016 -11.023085533628034 -13.903421554927377 18 7 0 255
-51.071683908217935 -10.795491866844486 -13.266032074439437 4 3 0 255
-51.901074157842444 -11.048444164145451 -12.291158519627601 1 4 0 255
-51.646517949776026 -8.990943886348077 -12.952673752864968 1 4 0 255
-52.993763999473828 -10.369358415583065 -11.192109357462584 1 3 0 255
-54.371975904544541 -5.744165657943483 -10.496013594484680 0 4 0 255
-54.678756720969602 -4.880660013782403 -10.310759172568964 0 3 0 255
-54.513934405245237 -2.955052185297745 -10.847898164214683 0 4 0 255
-54.171754580631728 -0.613528313325503 -11.659751343100453 0 6 0 255
-21.545685557909678 -1.964814482448958 -49.420633620209344 206 186 149 255
-23.048478039102918 -3.046205421199318 -47.529314864037246 211 177 150 255
-24.462998360360160 -3.993937960520441 -45.762094003039095 213 173 152 255
-25.789974823439991 -4.806668570191448 -44.118402567522793 212 169 150 255
-26.989429084141136 -5.409899105044474 -42.657045158347472 210 166 147 255
-28.103037068168305 -5.874995470462267 -41.317891551801722 201 158 136 255
-28.929202902594483 -5.832608499214075 -40.396292906273572 190 143 123 255
-29.591497740851025 -5.499523082475037 -39.712995577485032 177 125 106 255
-29.930480903987757 -4.576869456610154 -39.502844210259212 160 107 89 255
-29.868848247258768 -2.910751246871826 -39.881371263640119 145 97 77 255
-29.929983208953615 -1.462894771485026 -40.081266791776784 119 76 52 255
-42.275150406739272 -15.746833364577327 -23.541332898764324 204 164 152 255
-43.371024039048365 -16.392960237659338 -22.188484150261388 199 156 149 255
-44.150368086741977 -16.437004990225091 -21.303485165979055 113 70 63 255
-45.005034859779471 -16.638610418765836 -20.304508728472683 105 60 55 255
-45.740428187806359 -16.615500525172024 -19.481429301249847 160 115 110 255
-46.357635388283398 -16.365668364167846 -18.833397146994002 173 128 123 255
-47.666955696255044 -17.507614028640688 -17.148424629354679 201 153 148 255
-48.663134959617338 -18.041224840788288 -15.928655364109176 208 161 155 255
-49.157603825644742 -17.573095164051551 -15.459248785412058 206 157 151 255
-49.384098451863053 -16.561550976360536 -15.392185096193742 198 148 141 255
-49.877877871499408 -16.094716029500404 -14.923337865662063 187 137 128 255
-50.332962577059234 -15.551023437957099 -14.512301160161996 166 114 103 255
-50.560661120694519 -14.537293440930995 -14.444330308815097 156 108 100 255
-50.713905919328127 -13.364417112566287 -14.489674756005371 106 68 59 255
-50.906132038955079 -12.267897536153100 -14.477010760786413 51 27 14 255
-51.736175734666503 -12.515102993410153 -13.497417500742529 13 4 0 255
-52.339324285088992 -12.291368717189101 -12.860510054356638 1 2 0 255
-51.750316189406689 -9.522735437148725 -14.037150865094759 0 3 0 255
-52.947792450623922 -10.574731774944951 -12.494883621236113 0 3 0 255
-52.772129053337039 -8.674418635367545 -13.045393362915405 0 2 0 255
-52.010493786438161 -5.483010788856689 -14.494787442125954 0 2 0 255
-50.558484957270068 -0.748330977448575 -17.007329487557058 0 2 0 255
-53.127044755571418 -3.273566052516230 -13.649532442296675 0 3 0 255
-53.693320908860230 -2.969783605887471 -13.069171805040241 0 3 0 255
-55.164534933204749 -4.703045891278521 -11.092681647596720 0 4 0 255
-54.713870872550871 -2.124158135721927 -12.078735238807212 0 5 0 255
-22.839764014513094 -3.124719345294011 -49.223310399289431 214 183 156 255
-24.662824457641619 -4.788624544248137 -46.849478025625473 212 174 152 255
-25.540109529301617 -4.796052846446685 -45.856549814519667 215 170 154 255
-26.699119673075216 -5.318909708459330 -44.448117756397693 210 167 150 255
-27.732142076753632 -5.630543125388670 -43.221848446454345 208 163 144 255
-28.640266755422999 -5.728941261813702 -42.176890121744890 198 154 133 255
-29.182927844835604 -5.170611864276736 -41.668664877374198 182 135 115 255
-29.644474956318106 -4.466151205637743 -41.279628939993302 166 114 95 255
-30.105702852452396 -3.762272075993565 -40.890835358125912 139 87 68 255
-30.127563828233576 -2.242229333985279 -41.152333155088570 115 74 52 255
-42.616475270138366 -13.800266228856913 -24.859519208452667 193 158 149 255
-44.058182024169881 -15.132635325011677 -22.979050582164035 109 68 61 255
-45.493321035800648 -16.477138890168135 -21.103725653685331 177 133 127 255
-46.497444713361773 -16.990065939771171 -19.872167444555544 181 136 131 255
-47.420726963426517 -17.356373756440121 -18.759599537314614 123 78 72 255
-48.762383283785681 -18.577618147468598 -17.013169171512288 214 169 163 255
-49.409918522076936 -18.417458072882312 -16.311428474850970 208 161 153 255
-49.788990356041722 -17.717371733676515 -16.014809454220284 204 156 146 255
-50.130034427209381 -16.939563708708448 -15.775819930635890 198 148 139 255
-50.660594670249267 -16.551579089892073 -15.249230434330343 184 132 121 255
-51.265637414639841 -16.321977073154983 -14.608644425975399 162 110 99 255
-51.568217024131570 -15.467281864415355 -14.427652054021792 139 92 86 255
-51.833740869623256 -14.533074450978404 -14.303532875973588 83 49 40 255
-51.913045670256238 -13.202982953953068 -14.464460220438440 36 15 2 255
-51.956984832442487 -11.790260651122765 -14.680940848440713 14 6 0 255
-52.114485144655731 -10.611718575906110 -14.724988699259825 4 4 0 255
-53.124874723329057 -11.261203940700227 -13.460818738008953 0 2 0 255
-52.876544302244014 -9.204610953657834 -14.128961540739169 0 2 0 255
-53.000082577894020 -7.940892520045452 -14.227507644496285 0 2 0 255
-52.502078516031673 -5.309713673351212 -15.286108443263458 0 2 0 255
-53.179082982257441 -5.243329707386181 -14.533665219358511 0 2 0 255
-53.016520063919899 -3.324367610708634 -15.079064487070582 0 3 0 255
-54.702276157141171 -0.804210270024896 -13.649747249923337 0 5 0 255
-22.059395966314810 -2.200854818660105 -51.767086924073567 202 186 151 255
-24.291334550491740 -4.572912015358781 -48.779522433332517 210 176 152 255
-25.780095620510110 -5.660801565848942 -46.881186098426326 217 174 157 255
-26.653924452634215 -5.670456245487117 -45.887109234844331 215 168 152 255
-27.363210840292993 -5.393607116289047 -45.134597841598293 210 166 147 255
-28.151380084791299 -5.266248612629397 -44.263937400055681 206 159 140 255
-28.897084641997964 -5.069710949512455 -43.454701078844408 190 144 124 255
-29.560601514987866 -4.729763689240144 -42.766178963409288 167 120 100 255
-30.102690808386626 -4.171284041258787 -42.257282988514447 145 95 76 255
-30.524441123659358 -3.392262400923073 -41.927162145149936 118 74 53 255
-30.270792682899383 -1.351494902991533 -42.605031601605276 80 54 27 255
-34.266155788934213 -1.056519184016850 -38.124191998192885 183 158 134 255
-41.254899784290217 -9.992921505151145 -28.480729173155027 90 62 50 255
-44.629573538042379 -15.125051362541853 -23.668118798315220 170 138 128 255
-46.098221066953954 -16.545208287060348 -21.729046721747665 170 134 126 255
-47.444870391117874 -17.747901681470466 -19.970061199234920 139 98 92 255
-48.440945303182161 -18.269711165646555 -18.739255669088152 150 107 100 255
-49.356800529822166 -18.644494023287990 -17.627640683899131 207 163 154 255
-49.888870893198430 -18.252133958027400 -17.098398935014103 201 154 145 255
-50.533679628525888 -18.094356947667336 -16.396333080336404 198 150 140 255
-50.949986106861218 -17.473033085382752 -16.042312163678218 192 142 131 255
-51.441360357700262 -17.008271814555599 -15.573151650666972 176 124 113 255
-51.781754858513381 -16.231982418817466 -15.334966082167995 155 106 97 255
-52.159787362158085 -15.533790439653131 -15.039137039256588 126 84 76 255
-52.388530530665122 -14.520950609983117 -14.972962257064751 59 30 20 255
-52.506624764068079 -13.269695762319770 -15.078001556930587 21 5 0 255
-52.144427466479925 -10.986755353603343 -15.925553622061074 10 7 0 255
-52.599971718847954 -10.440670439988480 -15.512726472066191 3 5 0 255
-53.570657674723179 -11.009540966122245 -14.301946564289864 0 2 0 255
-53.729811300467730 -9.830130495753991 -14.346726124856701 0 2 0 255
-53.048788498195407 -6.807749086554679 -15.697687516755451 0 2 0 255
-53.541799441305741 -6.340153780599536 -15.227421209118205 0 2 0 255
-55.451746133912479 -9.011899043302947 -12.548415741031448 0 2 0 255
-55.322676748533738 -7.184138071319865 -13.044465980266637 0 3 0 255
-23.269885615872397 -3.213123208305603 -51.685257521052819 210 178 152 255
-25.166905601391591 -5.009570074268879 -49.172989240747086 215 175 155 255
-26.569098998338063 -5.953185437686386 -47.390494699659058 218 170 155 255
-27.601967292526410 -6.253859179351934 -46.153923049546904 214 168 152 255
-28.067471953047033 -5.541218711165470 -45.760983155039355 207 164 145 255
-28.653072980746401 -5.048437810820531 -45.188410059006003 196 150 129 255
-29.437722636284491 -4.924153400252919 -44.317327877422116 180 132 115 255
-29.900929901889498 -4.215721511643324 -43.926153825915208 157 110 92 255
-30.403594711470703 -3.581632420197025 -43.475547115829301 130 83 65 255
-30.390158949754209 -1.986779433096444 -43.799911528014178 89 53 32 255
-35.736482935731260 -2.711792284966691 -37.559753723044111 181 162 135 255
-37.975586680766696 -5.495847377778091 -34.465695382730900 206 166 150 255
-38.810392755237103 -5.573343283669033 -33.498234466535138 107 82 65 255
-44.509159495964752 -13.745723343788200 -25.412983592679211 114 92 78 255
-45.859790093606023 -14.931740384957749 -23.642240267551102 185 156 146 255
-48.044946012055178 -17.815474650163424 -20.590438056781295 78 42 34 255
-48.961790069814214 -18.183173968420817 -19.473176032377324 195 153 147 255
-49.609432666735543 -18.017481398094105 -18.766406756934600 190 145 139 255
-50.028254379624869 -17.391045285812766 -18.409984808233816 192 147 138 255
-50.748609322145455 -17.385535237117011 -17.589242191349598 193 143 134 255
-51.504360078182273 -17.461892133176775 -16.712266273881340 184 131 123 255
-51.920282899165201 -16.840845572876276 -16.358145813035776 168 114 104 255
-52.298560336047558 -16.142112968273807 -16.062043288823645 139 89 80 255
-52.639555844877549 -15.365024162758715 -15.823675311592211 130 90 82 255
-52.869382428725103 -14.351587587065666 -15.757954353603679 70 45 35 255
-53.100140384691855 -13.336448265981232 -15.691520693979527 28 17 5 255
-51.967108007383459 -9.392700907555195 -17.748523863658619 12 8 0 255
-53.711515528063927 -11.618361320103759 -15.327252064388517 3 4 0 255
-55.080553577813120 -13.065039509789017 -13.485200708449725 0 2 0 255
-55.639556776594148 -12.768792081755578 -12.905064835993784 0 2 0 255
-54.195174706261696 -8.075119296503829 -15.462707150906851 0 2 0 255
-55.701701229570162 -9.856849285619205 -13.398946731566241 0 2 0 255
-56.296695471546826 -9.641431790922297 -12.762169533581584 0 2 0 255
-56.169396009780655 -7.815501836928490 -13.261562094674957 0 4 0 255
-54.644516832039812 -2.828934107308328 -15.967942760379373 0 4 0 255
-22.049173772983863 -1.510032748555375 -54.912656959813148 197 177 148 255
-24.394259062706965 -4.080977490427870 -51.719559830999430 216 171 155 255
-26.202233989922490 -5.734768139254300 -49.322330522407810 217 171 155 255
-27.639074405391909 -6.752288349423367 -47.475526223565595 216 169 153 255
-28.426695780570100 -6.619138998239947 -46.598988722104508 211 164 148 255
-28.691119077136136 -5.543139379260083 -46.507430659360040 205 156 139 255
-29.076281415554661 -4.684702262501446 -46.234707456917846 193 143 126 255
-29.899741083666243 -4.632182246111142 -45.301200710886434 173 120 104 255
-30.442736412153920 -4.069647114571637 -44.789387607309635 148 95 79 255
-30.509860296842078 -2.623711222632721 -44.996629826499998 104 61 44 255
-30.223866042432519 -0.508229876300845 -45.740197987625663 55 33 8 255
-36.578898600095272 -3.161411875481974 -37.934419007832304 185 165 136 255
-38.924365370169966 -6.172146407496484 -34.654284719881048 165 128 109 255
-39.794594387312600 -6.326930815688542 -33.626371717585499 152 126 107 255
-40.278044091074435 -5.727489053184286 -33.190021983308441 54 36 16 255
-40.722690656307634 -5.052859644244904 -32.812930008811804 20 5 0 255
-41.281463103167198 -4.608029037973040 -32.259868771816173 27 10 2 255
-49.028512948369354 -17.174448722186298 -20.910412837655286 180 143 134 255
-49.449808393803053 -16.542988573047637 -20.551633052324888 179 139 131 255
-49.983794473338378 -16.143983333780767 -20.018012100998192 184 139 132 255
-50.817083706634463 -16.367069475684730 -19.019077933482038 182 133 126 255
-51.610021255693724 -16.517836797075574 -18.080621497566824 174 121 113 255
-52.101884652601797 -16.049808625654606 -17.608887357942223 150 97 90 255
-52.444277056839752 -15.270421067790267 -17.369686888991424 118 69 61 255
-52.749817325325807 -14.412253239151823 -17.188227344390839 57 20 13 255
-53.425173812294844 -14.339669901276011 -16.428505881220730 32 12 3 255
-53.399060783821810 -12.772344275686152 -16.766603984738055 33 25 10 255
-54.659928803875204 -13.968148923132389 -15.086522262202664 15 13 0 255
-55.183479055590354 -13.588563278765548 -14.561202788076059 3 4 0 255
-54.721749321016034 -11.063540904068589 -15.586902068993055 0 2 0 255
-56.045947133608252 -12.436165571611468 -13.799548575288355 0 2 0 255
-55.516923439502335 -9.741759178594322 -14.935727958647732 0 2 0 255
-55.860162920975768 -8.960993632757749 -14.696037475080800 0 2 0 255
-55.987786114299510 -7.697327658893698 -14.798428930630791 0 2 0 255
-56.009522564513276 -6.188678132394784 -15.070371961994454 0 5 0 255
-55.318993173231533 -3.058379641066779 -16.477482125939048 0 6 0 255
-55.383549510104217 -1.617567756249514 -16.687087652946616 0 6 0 255
-22.977108689176305 -2.017455144478959 -55.255369816446546 206 174 152 255
-25.231813231251266 -4.444882944712219 -52.175272352646630 213 168 152 255
-26.952346254360094 -5.954538429279495 -49.893201152012125 215 168 152 255
-27.942800460303090 -6.175809931006967 -48.708624336977607 215 166 151 255
-28.729763666521848 -6.040463283833617 -47.829438310828095 206 156 139 255
-29.195399913931112 -5.326670278107031 -47.435552371607741 194 143 126 255
-29.819763619426737 -4.905656806647926 -46.800513528880884 177 126 109 255
-30.442838576277580 -4.487012336308283 -46.166472812116268 161 107 92 255
-30.669414721909561 -3.335783722893893 -46.135022723550549 122 73 58 255
-30.581917167715773 -1.592712141679556 -46.583196232436052 65 31 12 255
-36.532564231763530 -1.879443202019957 -39.673365916561409 180 160 130 255
-39.562564747649105 -6.244133178772302 -35.314187065427831 201 166 146 255
-40.468805469474205 -6.474381009100227 -34.224677438075588 133 103 85 255
-40.798941962320754 -5.571322515003828 -34.024467303898746 55 34 13 255
-40.596474464000494 -3.601101702975200 -34.650281590359754 24 13 1 255
-41.080958988134142 -2.998937813327757 -34.212370385446633 15 7 0 255
-49.297651139471753 -15.069385709383539 -22.344624515616886 173 144 132 255
-50.207967882850085 -15.438667604952741 -21.222762657798796 177 139 130 255
-50.405208491572751 -14.341660213144621 -21.214307194293923 174 129 119 255
-51.497132794459986 -15.108001812808936 -19.804202416788655 169 122 112 255
-51.879358099928254 -14.401816840985930 -19.504861242763297 134 91 84 255
-52.483481203685088 -14.164756985836220 -18.856507409779368 98 60 51 255
-53.307337109865401 -14.400823312379543 -17.860837462819973 28 6 0 255
-53.797534849431543 -13.934741285775431 -17.389359163721366 19 10 0 255
-54.946284625014343 -14.889201341338492 -15.876410297479424 17 10 0 255
-55.263621180471318 -12.544939123800930 -15.978562457084621 4 4 0 255
-54.916682731659023 -10.255797234143927 -16.834548368296879 0 4 0 255
-54.068485234420336 -6.841604641780577 -18.492032428350285 0 2 0 255
-55.822343740304461 -9.168922802878399 -16.008758068451527 0 3 0 255
-56.202615870885964 -8.466554779321683 -15.711139648714095 0 3 0 255
-56.582875300199689 -7.764238313465199 -15.413557215353364 0 4 0 255
-55.423941373591305 -1.994314406697526 -17.898949867022623 0 3 0 255
-56.971171939542856 -0.748453523856995 -16.366961965504942 0 6 0 255
-24.950461545271139 -4.388540232663388 -54.006786548532233 217 174 159 255
-26.268651770473838 -5.168216089290070 -52.324288549431259 213 165 150 255
-27.501319909460506 -5.813595234840420 -50.767852814876960 213 166 150 255
-28.409574188417309 -5.889188376146194 -49.701875789805342 213 164 147 255
-28.996317646927650 -5.389632889975928 -49.124084803100345 200 149 132 255
-29.661401262793845 -5.037610639805052 -48.425825948429576 182 129 113 255
-30.047934708839961 -4.177212240485289 -48.152559104444521 165 112 94 255
-30.474082528932968 -3.389754568969693 -47.818705715173621 120 67 53 255
-30.664155819170162 -2.161589143111428 -47.847029988477175 66 19 9 255
-30.973235329050055 -1.151971655750231 -47.693492004659987 27 1 0 255
-37.337009709541746 -2.253956537866657 -40.108138594108709 197 159 137 255
-39.512243372883432 -4.957510355487955 -37.045114075760551 215 170 153 255
-40.532542031891069 -5.410575399467803 -35.773100430528586 168 134 115 255
-40.864824672879337 -4.504211000408475 -35.571820614022471 97 72 50 255
-40.742912134127351 -2.683279789425114 -36.080853646735790 39 24 1 255
-41.341841541411156 -2.307284763468147 -35.463904892476819 25 20 0 255
-49.764753235267918 -13.343096933762922 -23.488845900976571 83 65 49 255
-51.081137707580609 -14.564494597603442 -21.719068709128663 132 103 89 255
-51.354292980162711 -13.621305514336228 -21.593716970773642 126 93 81 255
-51.923501422997020 -13.300306258548687 -21.000122576266506 109 74 66 255
-52.197062123505049 -12.356398139067039 -20.874481149900959 70 45 35 255
-51.260855827596771 -8.824872882794068 -22.671441074618286 15 4 0 255
-55.122652568105622 -15.573628670590324 -16.839786013849221 13 9 0 255
-54.770983924518816 -13.300476576880271 -17.706197236962794 10 7 0 255
-54.754911606501310 -8.653690919383394 -18.664506295387866 0 2 0 255
-55.102242443808038 -7.865923159726407 -18.422127797154019 0 2 0 255
-55.342282753043847 -6.837975967705518 -18.352449321122776 0 3 0 255
-56.869105093973303 -8.693827900534700 -16.211241668351533 0 4 0 255
-56.893128578676354 -7.188178003615121 -16.488090897890316 1 5 0 255
-23.624761044042174 -2.481221303775044 -57.442350331865043 207 174 150 255
-26.149535161933670 -5.396647972570804 -53.910489794656854 212 163 149 255
-27.262005506116964 -5.819318787503278 -52.530952320758558 213 162 146 255
-28.011459573334577 -5.600709042335438 -51.704741197846459 206 155 138 255
-28.838390315106949 -5.530485706500315 -50.758050494970121 195 142 126 255
-29.702447132982115 -5.537427444500224 -49.752376269873764 178 125 107 255
-30.287219186390899 -5.039938447933309 -49.174668500592020 139 83 66 255
-30.713401539421312 -4.252347246938712 -48.840723432394242 95 39 22 255
-31.060974327099984 -3.318432912627941 -48.628117539315326 90 38 22 255
-31.369807224819056 -2.310308075557202 -48.475733958560227 78 31 19 255
-31.874402772386929 -1.669356747135566 -48.020560800903326 55 17 7 255
-32.339536494816286 -0.955531686294535 -47.626178076584722 30 6 0 255
-36.766947740275612 -1.520790732364503 -42.364077821163193 114 86 57 255
-38.674362839535320 -3.681653844539483 -39.704211818640488 196 157 135 255
-40.039495774885836 -4.803586556697383 -37.887544524699251 211 164 146 255
-40.791538603037395 -4.725860917496732 -37.029313738595476 162 127 107 255
-41.200999109609029 -3.969114264849736 -36.708418005846653 105 77 55 255
-41.082651231353168 -2.146691305198260 -37.219381429126372 60 43 18 255
-41.080349482928540 -0.547193144830430 -37.549788485708063 42 37 9 255
-50.536110643610130 -12.230987821445922 -24.165023060773734 16 11 0 255
-51.587451327186841 -12.912357317392804 -22.803451444903345 43 28 16 255
-50.907973939700867 -9.940124762242590 -24.202334849251969 33 18 8 255
-52.175903896656536 -11.096013335988516 -22.491816517520476 35 25 14 255
-52.416242537719455 -10.068765504502437 -22.423063600115569 9 7 0 255
-51.820962804456769 -7.232572141314449 -23.696268945243048 6 8 0 255
-53.576426323625725 -7.925049603015765 -21.514271908607668 1 2 0 255
-54.755336181329369 -8.953964365397638 -19.933352598896846 1 1 0 255
-54.879469565350206 -6.100700979853514 -20.374224396718944 0 2 0 255
-54.514789946910312 -2.109813236277830 -21.616507125943713 0 4 0 255
-55.859323867360715 -1.958361707320307 -20.085495319203943 0 4 0 255
-24.830260292420718 -3.487011178135049 -57.349877324925757 209 170 149 255
-27.183914946131949 -6.117663747433568 -54.055072610513719 210 164 148 255
-28.252241315391529 -6.470122038489706 -52.734440563963460 208 157 140 255
-28.642050698183709 -5.604309815013380 -52.459200177039492 199 146 130 255
-29.308932087420231 -5.244395238587799 -51.755296446635725 156 103 87 255
-30.132033532725956 -5.177452297700313 -50.808087378389189 130 74 57 255
-30.874000872377138 -4.969588937411118 -49.984879114464121 166 109 92 255
-31.339576303140547 -4.254539255212308 -49.589771769301620 181 124 107 255
-31.922058641161584 -3.759695278279196 -49.012387634267100 167 114 98 255
-32.698273229403810 -3.633926924387367 -48.132089939244793 158 105 91 255
-33.511072249291345 -3.585961985741335 -47.192897003360997 151 101 87 255
-34.089097931209665 -3.099325193912591 -46.618978306569431 137 93 76 255
-34.820457152770842 -2.911004598717625 -45.804025557738811 135 95 77 255
-35.780648944878948 -3.172321692746038 -44.628441741353242 142 105 84 255
-36.890799896907822 -3.738194737765753 -43.214471516535326 156 121 97 255
-37.117218424493046 -2.592520395271663 -43.188023477735953 161 122 97 255
-38.602430807889391 -3.919487546698917 -41.177965060280826 191 147 125 255
-39.814894001469753 -4.732549495618173 -39.593165198338426 201 153 136 255
