ply
format ascii 1.0
element vertex 658
property float x
property float y
property float z
property uchar red
property uchar green
property uchar blue
property uchar alpha
end_header
-54.057501506411029 -1.468007970008003 38.031378570314779 156 126 98 255
-53.783570782629710 -0.736979589793194 38.058281249061487 107 83 52 255
-47.218540210668692 -1.840075939295957 38.042822486680450 174 176 129 255
-49.720776609640950 -2.399710227009450 37.824346197563180 201 174 143 255
-51.528653257807747 -2.645138544353728 37.666963400625050 196 157 134 255
-52.939717263760002 -2.711852257741967 37.544526687733224 185 147 124 255
-53.755907434722275 -2.501899401367680 37.474460892933529 181 145 121 255
-53.184740311638137 -1.629464176910133 37.526472441297628 157 123 98 255
-53.406299162143654 -1.136591497815559 37.508860547118090 116 87 56 255
-45.652085377338921 -1.710932337901298 37.576964227540500 180 176 130 255
-48.947224840678132 -2.629695136520056 37.297591455023799 196 169 137 255
-50.556808165501167 -2.775286765650932 37.161852484025573 207 165 141 255
-51.175071468069035 -2.461402633085896 37.110631492727663 207 162 143 255
-51.793208187503666 -2.150549432261542 37.059494455966352 199 157 135 255
-52.014914524618064 -1.653362754918916 37.042212142508028 188 148 123 255
-52.137516185513277 -1.109404120803944 37.033456395428736 141 109 84 255
-52.458208864512358 -0.661501937756469 37.007901253670624 112 87 52 255
-43.292947523335869 -1.224473512171713 37.167988557117837 181 169 131 255
-47.777377008401231 -2.679727567040743 36.799360742458958 197 165 138 255
-49.585144296334562 -2.910481703006951 36.651495114844195 205 161 138 255
-50.401636581670573 -2.685586722838352 36.585438896826716 206 159 139 255
-51.019802856661727 -2.371229820674401 36.535809337487727 205 160 139 255
-51.340641136156933 -1.918707317294391 36.510776994520555 201 159 137 255
-51.859530737903555 -1.562253133055691 36.469484222185045 199 158 136 255
-51.486906484128269 -0.779781010108437 36.501815601141431 150 118 91 255
52.247064890193087 -1.301737493559642 44.201889702274933 133 114 81 255
41.651302523311813 -3.875185685019829 43.354512058365898 120 100 68 255
36.138523610577693 -4.837171653809335 42.912910756569715 137 116 83 255
38.197327400052302 -3.321543603967541 43.075587000904036 121 104 67 255
37.466893885724744 -2.725957326435889 43.015710598468644 110 97 58 255
36.935793428434351 -2.067133893496163 42.971775356817993 89 87 42 255
37.798894789573922 -0.937817351678177 43.039108406899715 88 98 48 255
-42.123588393150726 -1.295926389488045 36.651343710595313 179 179 131 255
-45.715831288935419 -2.324573683700876 36.365905445486547 195 167 137 255
-48.613661828625879 -3.050735538261037 36.135882189612531 203 161 139 255
-49.826507685503998 -3.006224706876850 36.040275978763567 205 158 138 255
-50.147474428292071 -2.549338674855321 36.015861661077253 206 159 139 255
-50.270262871770342 -2.000275245537679 36.007327445742376 204 159 138 255
-51.185413068617208 -1.828036775886929 35.935669580695453 201 159 137 255
-51.704225397928752 -1.471111683696918 35.895695774873502 199 159 134 255
-51.826830065847332 -0.926227497076709 35.887404211376918 143 112 84 255
32.127024731684230 -6.959297327618756 41.784530424701259 149 119 94 255
31.895240771797376 -6.212725865712372 41.764979540705397 156 125 101 255
32.958182412992585 -5.038398308119483 41.845268896631680 140 110 83 255
32.825932058204728 -4.257317183349130 41.833441139817708 129 101 73 255
31.797586723505049 -3.778609352169482 41.752571627597675 111 90 56 255
33.059298648249523 -2.527898204875569 41.848249354588567 97 87 46 255
33.723448926654612 -1.474633683911065 41.897890823960644 85 83 38 255
-42.143689601275156 -1.915475214523440 36.036765512407541 175 174 126 255
-45.834703067335226 -2.980004217509972 35.753339362112044 196 169 138 255
-47.543278977921858 -3.150356926644335 35.622635536988057 203 163 142 255
-49.251489599910656 -3.329740519391166 35.492018688311404 204 157 137 255
-49.869671727381331 -3.009437067392355 35.445419087950619 202 157 135 255
-49.992479703348124 -2.459585758605400 35.437046793552859 202 157 136 255
-49.818153460522836 -1.769682990197367 35.451639080874969 199 154 131 255
-50.436096643148375 -1.454961517796292 35.405274072451967 195 153 129 255
-51.152930618932317 -1.190600833587425 35.351361306919941 182 141 117 255
-51.374586212930893 -0.691769726367710 35.335674363287623 135 104 76 255
36.349801025325064 -8.067991305498822 41.293884982541861 164 132 108 255
34.822540521697533 -7.723117609544403 41.178407493379950 163 128 105 255
32.897195831145439 -7.515140294653463 41.033351601793996 121 84 64 255
30.075933948506133 -7.609551220645557 40.821688713188863 170 133 113 255
29.943990795332923 -6.835687334158209 40.810140324401502 160 123 104 255
29.314218739455328 -6.227373927561402 40.761587695416566 148 112 88 255
28.485460537176721 -5.688875769924834 40.698267978717908 139 105 80 255
27.557330366841313 -5.188278068290757 40.627594210417705 122 93 66 255
28.321551967609821 -4.117957571179517 40.682814847905625 109 89 57 255
29.384186641577458 -2.941137474181616 40.760247603099252 95 84 47 255
30.844653577726376 -1.621040743566340 40.867281803164737 85 80 41 255
31.210234149236385 -0.673601860796808 40.892926997084132 69 73 30 255
-40.479184776312820 -1.771568285660834 35.547459844508332 170 173 126 255
-45.458142233434444 -3.408725390729032 35.178253594453935 198 172 140 255
-47.265680431018978 -3.619052007280644 35.044692564428786 204 162 143 255
-48.181271051495372 -3.427637862426579 34.977456022727111 204 160 142 255
-48.799515270734815 -3.102989500348514 34.932376267427401 205 157 137 255
-49.219551334935545 -2.688902081387738 34.902091273058510 201 157 134 255
-49.243384797135036 -2.090704657705686 34.901316773185883 197 152 131 255
-49.069183759560673 -1.398706139580625 34.915333277635185 192 148 123 255
-49.687094836450228 -1.081877096533873 34.870560499258701 187 147 121 255
-50.403877111229889 -0.815407278324400 34.818510069536650 153 117 89 255
37.418548638320487 -8.547723451253489 40.550566844187557 153 118 98 255
33.699981325747274 -8.891836372345864 40.281996906000316 167 129 110 255
31.974112269751458 -8.617824200836068 40.156369283880849 142 101 83 255
30.447783574135997 -8.288707707862912 40.045089458388055 127 84 67 255
29.419648723779574 -7.805509934557804 39.969564377950235 175 132 115 255
28.292172720497604 -7.360496304530116 39.886953726799334 165 124 106 255
26.667183154299607 -7.086435828764152 39.768721074113984 154 115 94 255
26.137488388999600 -6.455202689360007 39.729032184428853 144 107 86 255
25.707435367209769 -5.793187313608257 39.696516534481376 133 101 76 255
25.974103679296604 -4.896768050410301 39.713959181655802 119 92 65 255
25.942187088250989 -4.100980785304174 39.710033318496222 106 84 55 255
27.303232548407379 -2.824448630622854 39.805939665364306 95 78 46 255
28.365519664583758 -1.644218363259952 39.880459254311205 84 73 38 255
28.432818287645887 -0.806887839890138 39.883723102030018 64 66 26 255
-38.715900005437675 -1.591965644444755 35.056169304972556 167 169 123 255
-43.892756150552998 -3.300637671254819 34.686210065817704 195 176 143 255
-46.690947093630996 -3.953550352916636 34.486524398009323 205 165 144 255
-47.408412397478600 -3.667457463490067 34.435806083733368 206 160 144 255
-47.828601027508626 -3.247869370325006 34.406428996150332 205 159 139 255
-47.852578807006608 -2.646364165565970 34.405478067332645 200 153 133 255
-48.470685418266925 -2.322114969348661 34.362071127052445 196 151 130 255
-48.494604624460948 -1.721817312273757 34.361265516825810 190 143 123 255
-48.716525943189396 -1.214872227390742 34.346358890353613 178 134 109 255
-49.037396140931151 -0.755844048246971 34.324441125736364 165 128 99 255
36.594555495847715 -9.624351438687299 39.670600864910611 149 116 95 255
34.768736139451562 -9.364545199265692 39.542613583492681 155 117 98 255
33.042897285519871 -9.082906399258491 39.421566336131022 151 110 92 255
31.317431426297958 -8.810528974764296 39.300586066248698 131 85 69 255
29.393210417191369 -8.611767588093272 39.165936904885889 159 112 96 255
28.066724542503721 -8.228639817499968 39.072563903984523 177 131 115 255
26.640982239764071 -7.885317815374691 38.972383837178754 169 123 107 255
24.618358444430442 -7.747558871022903 38.831080383592848 159 114 97 255
24.088981880937922 -7.121752584212572 38.792799853363391 151 108 89 255
23.559717495330460 -6.498695914372959 38.754558983631426 145 105 84 255
23.826557091549830 -5.607979128403599 38.771240708615608 132 98 73 255
23.098453816436631 -5.056389519927095 38.719354000099308 117 90 63 255
24.757961508308256 -3.684435383622755 38.832097755470272 106 80 53 255
25.223506562247678 -2.718661293419260 38.862552734461865 94 76 47 255
26.086769405845644 -1.610689023572860 38.920447219204767 81 73 38 255
25.955392346952635 -0.849389305055212 38.909815262046685 67 70 31 255
-37.250170223867627 -1.554865587994115 34.534793806564934 175 174 131 255
-42.228592185045699 -3.156319621869287 34.192445302680156 198 170 141 255
-45.224826363674651 -3.887008492131528 33.986600797802460 200 167 143 255
-46.536655807824218 -3.866130347099329 33.896769664342628 205 165 145 255
-46.659801337381055 -3.306985971494584 33.888834685442220 204 159 140 255
-46.881950895782580 -2.793891311857408 33.874150562347438 203 156 136 255
-46.807023776421630 -2.143770168470709 33.879988240878433 196 149 129 255
-47.128126601770560 -1.677868526970201 33.858628046790571 190 145 125 255
-47.251186928023742 -1.120353605463308 33.850973870789332 180 135 114 255
-48.067086574494141 -0.890662033911980 33.795680620204067 169 127 102 255
-48.585910357191409 -0.523916801562592 33.760912829577364 146 113 82 255
38.393543221709535 -10.724661478412102 38.970852181642421 157 125 106 255
36.467888682634339 -10.480930312050575 38.841066179682947 153 114 96 255
33.546774168129616 -10.558537856112352 38.645321786284754 153 115 96 255
31.920791806478803 -10.244113843343555 38.535492519085977 152 114 95 255
31.689084489367303 -9.495473141151578 38.518124898843453 145 104 86 255
30.959649153599969 -8.907531479528686 38.467788926022621 128 82 66 255
29.135382595779447 -8.677414110006183 38.344923174421723 165 119 103 255
27.311510435609534 -8.457090086703658 38.222127948380795 172 126 110 255
25.786600386573298 -8.148395736399891 38.119187454631913 168 122 106 255
22.968366327154683 -8.276731488497902 37.930600387435746 162 116 100 255
21.941759945809736 -7.821570168192508 37.860765020689144 156 110 94 255
21.014864166414384 -7.338330587668523 37.797572243722833 150 107 90 255
21.580356229823678 -6.352995097425932 37.833266618207617 138 102 80 255
21.349974398853419 -5.637021558604488 37.816270472727354 128 94 71 255
22.313130802423245 -4.510080239840732 37.878346401620242 115 87 64 255
22.778840177446398 -3.550822001964164 37.907500546561025 99 78 53 255
22.946136805624008 -2.693532681354284 37.916921547043330 90 76 47 255
23.908794460899344 -1.553981660878804 37.979031291415801 77 72 40 255
24.274753006961021 -0.621572346250076 38.001661518637064 56 62 25 255
-40.168505017456454 -2.843572184563612 33.715787729935741 190 169 139 255
-43.263743675990270 -3.605247011820822 33.511415143219772 205 165 146 255
-44.674706467282789 -3.620530511568163 33.418458440463851 207 165 143 255
-45.788293994892854 -3.507763516993307 33.345223958112399 206 163 142 255
-46.406575645277258 -3.173647042777361 33.304801001950040 203 156 138 255
-47.222736744552549 -2.933991497525227 33.251357166048749 194 147 128 255
-46.949810876303729 -2.192816316032392 33.269994268985414 186 139 118 255
-47.072879611160886 -1.634770196795344 33.262514673495389 181 135 112 255
-47.096959342880524 -1.030540879766889 33.261650661832434 167 122 99 255
-48.011682310522247 -0.847151222986369 33.201953568210229 150 115 87 255
35.046569022484903 -11.734296266765242 37.929605058719055 157 120 103 255
33.519965439167606 -11.376183950180362 37.830384526235591 153 115 97 255
31.097580214497498 -11.306145883719395 37.674237318213436 155 113 93 255
31.164647417565163 -10.464962369475572 37.676425661609201 153 113 94 255
30.733965985307577 -9.781507233579191 37.646984830079077 146 104 86 255
30.104304741075680 -9.164105251244862 37.604918665455216 125 79 63 255
28.977154932415885 -8.710910404347047 37.531258417509676 174 127 111 255
27.452192795240592 -8.393522787569140 37.432350134483421 180 134 118 255
25.231039577245610 -8.313337740281440 37.289241046084889 173 127 111 255
22.413414773098225 -8.443034678040362 37.108282119813296 167 120 104 255
20.690694125890047 -8.222060029723693 36.996948605998853 157 111 95 255
19.565167981825425 -7.809142288815210 36.923600736280150 151 108 91 255
19.832317723329993 -6.929016999695364 36.938759383782852 145 106 85 255
19.701611169411024 -6.183592113639492 36.928670369301742 136 100 78 255
20.565308832801634 -5.095346139099405 36.981765802231592 122 91 70 255
21.229960891280939 -4.071492142821270 37.022239135345856 108 85 61 255
21.695632251765801 -3.113646369888244 37.050099500063155 100 82 57 255
21.962387802487626 -2.223424796760369 37.065355917766311 91 79 49 255
22.626659984024741 -1.189922463888024 37.105879050617219 76 73 40 255
-33.923286321101699 -1.329028594502958 33.493123863050158 160 167 122 255
-39.495474198058702 -3.158923804401226 33.139966883641719 193 174 145 255
-42.689548107592572 -3.954831329273887 32.937618283950677 201 165 144 255
-43.803367580167617 -3.831074996383165 32.867198689174714 206 163 145 255
-44.421871074816380 -3.488698214657347 32.828238916599716 208 163 142 255
-45.436268110675456 -3.330014217752904 32.764243218612116 204 158 139 255
-46.351456984176082 -3.131146200025924 32.706597971298933 196 149 130 255
-47.167470333830380 -2.891275173443205 32.655302000513693 188 141 121 255
-46.894613196393976 -2.149900227188112 32.673103800752799 182 136 113 255
-46.522862342739927 -1.360451536592279 32.697244425283301 169 124 100 255
-46.547006032315096 -0.754662366770106 32.696353523575880 152 110 85 255
34.720880923489972 -12.647026908096421 37.092282928398944 147 115 92 255
33.094871744388172 -12.316145867284703 36.991073383261103 151 115 95 255
32.564363882319697 -11.654907994895410 36.956599467301729 148 113 93 255
31.834872491816157 -11.058653366810304 36.910033495935735 147 109 87 255
29.811551429934241 -10.874043867345478 36.784737156021009 150 109 89 255
29.580146018665232 -10.130842049211097 36.768547406786183 147 104 87 255
28.353631308536706 -9.707877232551681 36.691819505712616 125 78 62 255
27.226885812027660 -9.259290722734960 36.621197872641687 154 107 91 255
25.602912806529332 -8.978958761792384 36.520358684818376 185 138 122 255
24.078773814792612 -8.674617403975006 36.425635585948690 177 130 114 255
22.057602128191604 -8.543384639360525 36.300720709994266 171 123 107 255
20.235790708174704 -8.356494884422517 36.187980870062837 162 115 98 255
19.209978489717344 -7.911147829284474 36.123697641897543 157 110 92 255
18.979905383923210 -7.200856199886999 36.107840338228748 149 107 87 255
19.346453322297464 -6.287272019624154 36.128287622376320 145 106 84 255
19.812336349850284 -5.337226588142997 36.154796178322670 134 98 78 255
20.178707187403859 -4.419124462276358 36.175277512775288 123 92 71 255
19.948615557610765 -3.708168961389987 36.159528258847651 110 84 61 255
20.613041907749391 -2.681973647824051 36.198178950109465 98 78 51 255
21.177945008784661 -1.687438481070885 36.230805111208014 90 76 47 255
-31.765052112492498 -1.011907730065019 32.988677830260244 166 173 128 255
-38.129295288585240 -3.171207043915672 32.602507577513279 199 173 145 255
-41.521291223489328 -4.042969905279151 32.396714746009515 205 164 149 255
-43.229247505863782 -4.179228546294198 32.293145922810027 210 162 148 255
-44.639816572811725 -4.190706875367354 32.207677493890628 208 161 145 255
-44.664135849357734 -3.581264624349117 32.206369087280549 207 158 141 255
-45.381356502102363 -3.287715514948133 32.163084748329965 200 153 133 255
-45.702529457334862 -2.816084886398215 32.143889881235893 189 141 119 255
-46.617423860498690 -2.620064352700268 32.088735661686684 180 134 110 255
-46.146783359878697 -1.785197503574594 32.117708814927454 166 122 97 255
-46.072023488686767 -1.132364540548068 32.122729487433233 148 111 83 255
35.988390756668537 -13.077989934646652 36.349160376969067 151 119 98 255
32.868965780342080 -13.193467870518035 36.165380330825627 154 119 97 255
32.039872120327118 -12.623009510239399 36.114906667544666 148 113 91 255
32.206349880106814 -11.748700599619696 36.122371337640388 146 110 88 255
31.676089265987855 -11.091074775021440 36.089322006626830 143 107 83 255
30.051247323724681 -10.781273776474407 35.992637937402627 143 104 83 255
28.725277088732582 -10.385288706048115 35.913372341181017 142 100 81 255
27.399592970651383 -9.996405859099980 35.834159212017262 140 94 78 255
26.173679993009671 -9.582442997002161 35.760782982420437 138 91 75 255
23.953288265236267 -9.499513782302273 35.629636033511716 181 133 119 255
23.324792740561918 -8.905044965118037 35.591062390133814 180 132 118 255
22.199168050700791 -8.478820269612328 35.523628195693462 176 127 112 255
20.974343772708494 -8.091853476353734 35.450467177353929 168 119 102 255
19.948645177085268 -7.644364615812222 35.388914975700530 163 116 98 255
19.122007161824968 -7.134728562217063 35.338964628953939 158 112 94 255
19.289639081100120 -6.288770127313342 35.346804245546323 157 112 91 255
19.258434261984689 -5.510448993492048 35.343119252535971 137 99 76 255
19.624783492609652 -4.593727946752168 35.362549399906328 132 98 75 255
19.593542168162116 -3.814393568419092 35.358916195695087 119 88 64 255
19.860402113267412 -2.929639140694988 35.372621111331071 111 86 59 255
20.226555463605166 -2.007867823407693 35.392118002664944 98 79 49 255
20.791314018101161 -1.012575911898992 35.423171304531380 84 71 39 255
-36.367246895190675 -3.016722405211894 32.080509884511635 192 174 143 255
-39.264032883734217 -3.655590289264140 31.912516143643394 207 162 144 255
-41.467129442991535 -4.001544839606851 31.784775995312110 211 163 149 255
-42.877765493747177 -4.004557154601954 31.703010984062971 213 161 148 255
-44.486075895760791 -4.104213095368749 31.609851162758005 207 157 143 255
-44.609392086861988 -3.539169888044370 31.602792902278733 200 151 134 255
-45.128552710250318 -3.155099863086008 31.572858850267263 190 142 121 255
-45.053877567326907 -2.501023832147027 31.577394217525388 176 130 105 255
-45.572892455441519 -2.120380121818627 31.547591339793243 166 125 97 255
-45.003534774367353 -1.236634069297580 31.580917510965609 148 111 82 255
-45.027845921512068 -0.626847683941776 31.579908760963221 127 95 64 255
35.662656272780850 -13.992021223833518 35.510490522531214 146 118 96 255
33.638611413385490 -13.769663242669722 35.395865532170916 155 118 99 255
32.112711589895355 -13.406791521021191 35.308914532688831 149 113 91 255
30.885733081511205 -12.960457349792421 35.238577202567441 148 112 90 255
30.057097795451853 -12.397397290929973 35.190361225147946 145 109 87 255
29.726184291968764 -11.683267138634690 35.169768942644140 142 106 82 255
28.300863044781408 -11.315876105246986 35.088520059208804 143 102 82 255
28.069694704121105 -10.576489164241011 35.073504273765842 139 97 78 255
27.142240253888758 -10.061610218415808 35.019915225589926 142 95 79 255
26.314450498249926 -9.519490890700979 34.971880352107021 102 54 38 255
24.293383343635469 -9.371134992977019 34.857753827769287 180 131 117 255
23.267191046275116 -8.906473952390272 34.798796639183294 188 139 125 255
22.440085200710030 -8.381301647814340 34.750903312956410 183 134 119 255
20.917202008338052 -8.093314939986541 34.664503429598327 177 128 111 255
19.394647530037616 -7.813484964424219 34.578165393241832 170 122 104 255
18.767025399069382 -7.237623381142740 34.541430182415915 164 117 99 255
18.537095176945911 -6.528774823925943 34.526748042768034 161 114 94 255
18.307211781619287 -5.821047444313436 34.512096989048985 146 104 83 255
17.878639238683149 -5.183653598816690 34.486476739089163 145 107 84 255
17.251442393320417 -4.618209043446939 34.449895843156312 134 98 74 255
17.518495291942259 -3.739697036042287 34.462842691571396 125 94 69 255
17.984157330772121 -2.788751356104797 34.486806398575986 110 87 59 255
18.946337441317837 -1.656682143363312 34.538268080427358 98 79 50 255
19.709676423223698 -0.591143526901718 34.578749268413063 79 75 40 255
-34.407479399294914 -2.785249800970234 31.559786728699304 191 180 145 255
-38.789387518049267 -4.063887676520849 31.317549101850382 203 169 146 255
-40.299337662098765 -4.096144286720801 31.233952946831788 212 166 150 255
-41.808965250871580 -4.136376417104103 31.150432984153255 211 162 147 255
-42.823377187305482 -3.962894896631852 31.094314394860234 206 159 143 255
-44.134478548454638 -3.928495403167105 31.021872455725710 200 152 136 255
-43.960945823640913 -3.227789147508091 31.031461741490766 192 143 126 255
-44.381136194326245 -2.796725426655783 31.008328293630733 180 133 111 255
-44.504436701773443 -2.231385525932453 31.001647579715264 168 123 96 255
-44.825567731964668 -1.757784926180889 30.984104714745879 150 112 80 255
-44.256413446477410 -0.871939744699475 31.015782561845572 131 96 64 255
32.815417239999306 -14.826213460231386 34.537843640326862 156 118 97 255
31.687865783842028 -14.341297285236564 34.475989490484920 152 111 93 255
31.157686980479696 -13.680717549608872 34.445677608680825 148 110 89 255
29.931046113869400 -13.236822868822216 34.378647341154988 146 109 88 255
29.102669530393882 -12.676204836141949 34.332652364839092 143 107 85 255
28.174981831984553 -12.151095489998013 34.281445793775006 140 104 80 255
27.048537257062492 -11.693668130724362 34.219787562308980 139 99 79 255
26.419672279831218 -11.084084966609808 34.184392286456770 136 94 75 255
26.188767716322559 -10.350195191157169 34.169998627481021 136 89 73 255
25.361236568304548 -9.810521651899464 34.124181395434277 89 40 25 255
23.937273785998059 -9.469923894875791 34.046965233203871 182 130 117 255
22.811890456653941 -9.038805433108053 33.985520283146300 184 132 119 255
21.885575780627732 -8.547717872942698 33.934598522111131 185 134 120 255
20.363045787024248 -8.261095942063520 33.852306432926056 184 135 118 255
19.039627528828873 -7.915576370250321 33.780544319228724 178 129 112 255
17.915255903104139 -7.509533963672354 33.719305243614272 170 123 105 255
17.586085075165840 -6.836937463582274 33.699974349903101 164 117 97 255
17.654418909905132 -6.028652183395977 33.701599266665212 158 113 94 255
17.126645152739115 -5.427511212368728 33.671871082613521 156 111 92 255
16.400308141017376 -4.898859402567524 33.631726233271849 147 106 86 255
16.170758764400546 -4.198277540887972 33.617762203130638 136 100 78 255
16.537150349681440 -3.286293072015397 33.635187390226811 122 93 69 255
17.102068266189747 -2.300792633931778 33.663082695729983 109 84 59 255
17.865447505705049 -1.240151598324545 33.701442174844736 91 74 48 255
-32.052020131675135 -2.392464463431665 31.049103907576800 193 181 144 255
-38.116831948600463 -4.388137851335145 30.730337950624453 203 170 148 255
-40.220669801374953 -4.675759087875775 30.619555225769250 207 164 147 255
-40.740365648744756 -4.273902854935088 30.591981002819637 210 164 148 255
-41.853773987051483 -4.138997082443822 30.533300069980466 208 159 144 255
-42.472151644142542 -3.788217107308412 30.500658897588174 199 150 133 255
-43.189349963645043 -3.485134885357041 30.462888060679209 191 142 125 255
-43.015963267108134 -2.781779223167376 30.471917828042741 180 135 115 255
-43.337255147420365 -2.302910059122482 30.455042268495795 168 124 98 255
-43.658485017147029 -1.825486673632227 30.438229145289355 149 111 78 255
-43.781843310302747 -1.258119591136250 30.431861588264834 133 100 68 255
-43.608501100220138 -0.553211192102864 30.441128129020520 109 80 48 255
32.987703536651509 -15.583820189781747 33.733830318773613 163 125 106 255
30.665944437445148 -15.452215375488919 33.615195753810184 151 113 93 255
31.230556757140903 -14.462742904256814 33.641061332983355 150 110 92 255
30.103512296912982 -13.984959539074751 33.582277968563382 145 107 86 255
28.877219976247318 -13.543774117851271 33.518557256358079 144 108 86 255
27.750672535665387 -13.078343395438395 33.459856719641877 140 104 82 255
27.718530474743886 -12.276897669330253 33.455923190788667 138 102 78 255
26.791266552396678 -11.757828870849423 33.407240461876782 133 96 74 255
26.162544955326211 -11.148798542842499 33.373513385704030 133 92 73 255
25.434520867967478 -10.574995580991441 33.334846869743885 133 87 71 255
24.905504603998565 -9.940697523539285 33.306154979396084 103 54 39 255
23.084204102981573 -9.730978026410881 33.212904252693676 153 102 88 255
22.157936308842295 -9.236600988568156 33.164423269065487 181 129 116 255
20.635506621409093 -8.945070915356169 33.086190096127297 184 132 118 255
19.809084173224164 -8.428905006527799 33.042768145294474 188 137 120 255
18.187864266301006 -8.185332316390941 32.959681813561701 183 134 117 255
16.964438450920341 -7.815264849577730 32.896506816037707 177 128 111 255
16.238026839121005 -7.281390023040728 32.858189528263622 172 124 104 255
16.703842288239571 -6.339292314197934 32.879428763883197 166 120 101 255
16.474253313813961 -5.636783462201265 32.865973083562963 161 116 97 255
15.946757860454738 -5.040020663133390 32.837677784142009 152 110 91 255
15.320066949768147 -4.481134982111314 32.804466553338330 141 104 83 255
15.388581328386010 -3.677594024699431 32.805981090962192 129 96 73 255
15.457077056532455 -2.873533744147082 32.807522993623593 116 88 64 255
15.823377271796403 -1.961077898178090 32.823950144883391 107 85 60 255
16.487384514422160 -0.937791881642042 32.855253073411205 92 82 49 255
-31.083050685079456 -2.610423504867171 30.456520744411435 175 175 132 255
-37.048432777272069 -4.544022074565689 30.159105583934515 202 170 144 255
-39.350164977501009 -4.909650342002507 30.044083765304695 209 166 147 255
-40.760655869593137 -4.895893333743359 29.973472105350456 210 167 150 255
-41.082275668936262 -4.407852759672593 29.957099802123892 209 163 147 255
-41.997533187133826 -4.185673746930590 29.911242922626247 201 154 136 255
-42.220023143035149 -3.657874298301678 29.899912717530050 191 144 126 255
-42.640329138295357 -3.220210462654720 29.878795246887361 183 135 118 255
-42.269209833225972 -2.425535313072089 29.897112472989008 169 127 105 255
-42.491620897244843 -1.899404542993409 29.885954924774939 153 113 86 255
-42.417303567084986 -1.237920963577324 29.889619433711093 133 99 66 255
-42.837437111342581 -0.804157229698276 29.868741464325975 115 86 56 255
36.145713489109824 -15.466574293188785 33.069976819397162 164 139 119 255
29.942739313923653 -16.469421820309933 32.773795310304422 154 116 96 255
29.810846383902003 -15.691577751626525 32.765110847011570 149 111 92 255
30.275937481866890 -14.734294015767034 32.784691058208239 144 108 89 255
29.547139491754535 -14.137812800698967 32.747776619115797 143 107 85 255
27.624842724025655 -13.911864755288221 32.654416137547742 141 105 83 255
26.995947916594218 -13.295561024538188 32.622281496516827 136 100 78 255
27.262233875069853 -12.402735250128131 32.632507723942993 133 97 73 255
27.130704224476460 -11.633834882722226 32.623930245501853 127 92 70 255
26.402633146515598 -11.055370900517261 32.587163722174267 126 89 68 255
25.078215609818756 -10.672203813716592 32.522232523230841 127 84 67 255
24.151708923548711 -10.167434156654949 32.476145062943189 117 70 54 255
22.330842687047209 -9.959614301206713 32.387823904216788 81 32 18 255
21.106677876545746 -9.565290872684500 32.327742322680947 169 119 105 255
20.081524429916840 -9.111542167114152 32.277099720553231 180 128 114 255
19.553406014982045 -8.496973878189522 32.249969208788329 192 141 124 255
18.429287095078621 -8.086321823355732 32.194720094927305 190 140 123 255
17.106727496480516 -7.749256676515714 32.130139040881346 182 133 116 255
15.983113810176576 -7.351127747331461 32.074992508508785 179 131 111 255
16.051577162924332 -6.546943968526008 32.076157001941446 171 124 106 255
16.120022260159885 -5.742259786507788 32.077343954058179 165 119 102 255
16.089151032116376 -4.971947572457481 32.073868550894488 158 113 96 255
14.966124259423111 -4.588279146906757 32.018888814068276 149 109 90 255
14.141167602809162 -4.104326901646971 31.978013911776184 138 102 81 255
13.812714608651731 -3.446283041793777 31.960598421588095 126 95 73 255
13.881348190184212 -2.646049735814998 31.961944370754978 118 92 67 255
14.644670110971560 -1.591703048606817 31.996078515682115 101 83 53 255
14.514723932698018 -0.861512357596254 31.988117218342715 88 79 48 255
-29.322302190567200 -2.494073329909341 29.895833968992317 179 177 136 255
-36.079218975840035 -4.748359194434315 29.577319800175907 199 171 144 255
-38.182904522537598 -5.019252288521358 29.477766145384493 209 165 146 255
-39.791323210503379 -5.085129279533746 29.401567199191611 210 169 149 255
-40.607781185338297 -4.811363762513196 29.362673684552295 211 165 149 255
-41.028303028399648 -4.366622749838740 29.342455611359707 206 160 144 255
-41.547670802588073 -3.967965239115244 29.317642308308180 195 148 130 255
-41.572334562265041 -3.350196421052772 29.316148134800191 183 138 119 255
-41.794818320747737 -2.821477822776316 29.305405091392537 174 129 108 255
-41.423873496576363 -2.024424910834412 29.322623479441226 160 120 95 255
-41.448566700653544 -1.405616581174968 29.321292462693130 140 104 76 255
-41.077757524071700 -0.604957391187156 29.338616577169365 117 86 55 255
30.513227957685444 -17.103344066153369 31.993768147237891 150 119 102 255
29.883803028092643 -16.470870244218872 31.963180775257811 152 115 97 255
29.552965126138361 -15.752518657062637 31.945932897056000 150 111 93 255
30.117455874226380 -14.765773647332637 31.968638364927614 143 108 86 255
27.399562897503358 -14.775239012477513 31.844944363697923 143 108 86 255
26.273484411703237 -14.310538610673191 31.792288701426710 140 104 82 255
25.545411667540350 -13.728581700891965 31.757406989432130 135 100 77 255
26.110083176074113 -12.746270516450451 31.780174636022178 131 95 71 255
26.276952970755076 -11.886261728144163 31.785215933855557 125 91 69 255
26.145559227187221 -11.120160571385057 31.776977083755622 124 88 67 255
25.020217978837877 -10.673732155367603 31.724472077183336 125 84 66 255
24.392051835413213 -10.072447990136979 31.694146637048664 119 74 58 255
22.869638663368050 -9.766488810486905 31.624021033247459 76 29 14 255
22.241838124531228 -9.174262365440640 31.593772254342550 146 97 83 255
20.322569174159241 -9.014157968024051 31.506054650138854 164 112 98 255
19.893863508626225 -8.365540883421403 31.484734920147588 184 133 116 255
18.173927390703227 -8.154979075669388 31.405975573255628 189 138 121 255
17.149613836263654 -7.717080746110071 31.358216763122638 186 137 120 255
15.529655981759788 -7.489028505727006 31.283995176881046 184 136 116 255
15.101646758109723 -6.857629454947059 31.262841173600741 177 128 112 255
14.971594726197509 -6.124612916387790 31.254968749365904 169 120 105 255
15.238680663942205 -5.252668492432278 31.264782609354011 164 117 100 255
14.612297858937666 -4.695450163299284 31.234894308875745 158 113 95 255
13.092738281897994 -4.460242729749467 31.165337033240213 147 108 89 255
12.466718455603484 -3.911983389824812 31.135543235851401 137 101 81 255
12.337006225566597 -3.187201930788987 31.127842222025194 125 98 71 255
13.001111792133315 -2.173166625377291 31.155443794898986 114 89 62 255
13.069788346280347 -1.374335043293939 31.156614647124197 94 77 48 255
-34.120432388515781 -4.533528113051631 29.034029337591686 201 171 143 255
-37.114827593208304 -5.177854475920526 28.900621510876935 211 163 148 255
-38.723219794546452 -5.236584927342093 28.828689680336804 211 163 146 255
-39.341835806169030 -4.871352110276177 28.800666959629837 208 163 144 255
-39.861391401564020 -4.465714688854717 28.777085034711565 205 160 141 255
-40.182997632348361 -3.975064148770187 28.762324637992897 200 153 135 255
-40.900184048906169 -3.662139480213909 28.730092930616099 189 144 124 255
-41.122721663355236 -3.131192760327082 28.719826787153014 172 130 108 255
-41.246329354743466 -2.556568202671599 28.713996094588666 158 117 95 255
-40.974404838144892 -1.802823671551522 28.725738872426124 146 107 82 255
-41.295753060613436 -1.318152045325988 28.711258221705883 126 94 64 255
-40.925042733706761 -0.517012913915593 28.727486202418415 102 78 46 255
28.563932280200788 -17.659656647928443 31.102183410973634 156 120 101 255
28.133785650491859 -16.973381990797648 31.081631036144238 152 114 95 255
28.598909354416435 -16.021696346894828 31.098601806862106 146 109 90 255
27.969941032132510 -15.397547727279502 31.069741607338543 144 108 84 255
26.346681077970914 -15.079573711982349 30.999258893844999 140 104 80 255
25.419795149810454 -14.556474605741215 30.957971257453618 137 103 78 255
25.089634564891810 -13.853392996911637 30.941690272796720 133 99 74 255
24.759543448734405 -13.152023677902775 30.925428646277993 128 94 69 255
25.025917444586639 -12.264178053977687 30.934144593928934 123 88 66 255
24.894676966511668 -11.501333089527279 30.926233302719609 119 84 62 255
24.664084814162550 -10.771014296656332 30.914182042475993 119 81 60 255
24.334173414520308 -10.074028799706795 30.897995560268900 117 76 58 255
23.606907310922963 -9.508518415867101 30.865215146278906 102 56 40 255
22.879796876417572 -8.946860483637224 30.832469663748903 87 40 24 255
21.258833292289978 -8.685917813732004 30.762392207907101 136 88 73 255
20.035513936075517 -8.300659587756186 30.708976652540599 158 108 93 255
18.117269601397652 -8.156619207749330 30.626564380268260 181 129 113 255
17.093156703129978 -7.718736511684540 30.581554179924193 186 136 119 255
15.870681816143019 -7.354435511834836 30.528296138064093 185 136 119 255
15.045590854846125 -6.859319034234403 30.491673285812894 183 137 119 255
14.419215114815188 -6.299353282011111 30.463382602189270 176 131 112 255
14.388523755824281 -5.533412072842196 30.459991439564625 171 124 104 255
14.159340093795436 -4.837794468996364 30.448341277748167 164 119 98 255
12.441649015845996 -4.674515347170981 30.374606231802630 152 111 88 255
11.617363496551320 -4.199270591471162 30.338197494927591 142 105 80 255
11.289330246292991 -3.548587620343895 30.322529321539623 132 100 79 255
11.556591402579784 -2.682187217422538 30.331722863552855 120 92 68 255
12.022177572072962 -1.741186114428629 30.349212720826291 105 81 55 255
12.785206620238057 -0.687194649340384 30.379128593652588 90 77 48 255
-23.624275881246490 -1.368337160419983 28.835944443280731 166 167 122 255
-31.370272920656873 -3.992015462553780 28.512888320003317 201 177 144 255
-34.859480723259537 -4.832972662626872 28.366947345901028 206 161 140 255
-37.160591899376840 -5.180256607297054 28.270477789520676 210 161 146 255
-38.175061328202247 -4.981150573772112 28.227564364869473 209 160 143 255
-38.793622140687688 -4.614336462881511 28.201163760117190 206 158 138 255
-39.115316900824041 -4.120081159178113 28.187155698380078 201 154 136 255
-39.436948716794063 -3.627312145194793 28.173200775321042 192 145 127 255
-40.351864203626604 -3.400385635712055 28.134636537166241 178 133 112 255
-40.475545330484408 -2.823532583260402 28.129013913071514 167 125 103 255
-40.500337899444190 -2.202461667290649 28.127553297053772 151 112 89 255
-40.426274560372633 -1.536353176837451 28.130253753786555 135 100 73 255
-40.648779248640039 -1.004962795915915 28.120682348806028 114 90 57 255
29.830692379792652 -18.089351942575959 30.349451412923266 161 131 114 255
27.510579940730736 -17.953188159176506 30.255932982951254 155 117 99 255
27.080624220304685 -17.269622389046276 30.236524335164063 152 111 93 255
26.451870780668401 -16.647809277218400 30.209341198257402 145 109 87 255
25.723818360356461 -16.059356297111265 30.178286659379324 144 108 84 255
24.896499414745904 -15.505071373728597 30.143365418489964 140 104 80 255
24.665830811149306 -14.771892390862121 30.131825796165391 137 103 78 255
24.534611279854062 -14.009065774188784 30.124192306664515 132 98 73 255
24.204637093312158 -13.309057857319416 30.108793823433945 127 92 68 255
23.874732307220199 -12.610759719939509 30.093415130747541 121 86 64 255
23.544896852451132 -11.914167996068642 30.078057117128189 117 82 60 255
23.811277991099416 -11.027854591459047 30.086034370782134 116 78 57 255
23.978251294046856 -10.172172808329449 30.090134692550773 115 74 56 255
23.946512961781309 -9.380374328106669 30.086479697952509 110 67 50 255
23.517477087160387 -8.719505597503002 30.067314066757795 71 25 9 255
22.095386037147421 -8.390712034136484 30.009369733537543 102 57 41 255
20.971513244029381 -7.969780561737664 29.963116796497733 131 84 68 255
19.053538928558112 -7.823048516336058 29.885884853008310 157 109 93 255
17.930236422512223 -7.416275189092900 29.839735388765515 173 124 107 255
16.707904279701381 -7.049558576083641 29.789758063399859 181 132 115 255
15.585095762178014 -6.655034361522624 29.743706321474011 184 137 119 255
14.264029324927662 -6.335702310272325 29.689957137933149 181 134 116 255
13.836396899303168 -5.709554755932928 29.671112417768445 176 129 109 255
13.508082168625492 -5.050455942571517 29.656172935077034 173 126 106 255
12.088446136643825 -4.782567952291345 29.598697829811897 164 121 98 255
10.569909426800450 -4.557947702362242 29.537413101811648 154 114 90 255
10.242046808741861 -3.909990335234639 29.522600904764431 141 104 85 255
10.211806016760022 -3.154994022831445 29.519423138029868 130 99 75 255
10.280741715781687 -2.363513426115020 29.520139979320550 116 88 64 255
11.142963351182573 -1.277383184870715 29.551798279439289 104 83 56 255
-33.989806713338453 -5.090692969632940 27.767045418428857 209 168 145 255
-36.290807617278375 -5.429458569705659 27.676743474894881 210 163 143 255
-36.909580383268832 -5.054542281635776 27.651855594434249 208 161 141 255
-38.121712602675103 -4.940614562739540 27.603968134026580 205 158 138 255
-38.542356508682644 -4.487076092094824 27.586877677017657 201 154 134 255
-38.765129704082682 -3.948536005579570 27.577521707905152 194 147 131 255
-38.592332829396497 -3.235787284563102 27.583577070273236 185 138 120 255
-39.309423873510127 -2.918345673470256 27.555122827833237 177 131 111 255
-39.630923626326762 -2.427223911951714 27.542082872132568 161 120 96 255
-39.754661552106427 -1.848368112248480 27.536773618809438 141 105 80 255
-39.779541687857147 -1.225018098281225 27.535354535151413 122 93 64 255
-40.199737400557126 -0.782067664106421 27.518639761517960 98 78 45 255
30.301470005739702 -18.755516035997360 29.560501950544495 176 152 133 255
27.683134571740936 -18.698447215099364 29.462350588818421 161 122 109 255
26.059833208306884 -18.363555719578002 29.400538577841751 155 116 97 255
25.132933391412394 -17.831133918667106 29.364151807281846 152 110 90 255
23.907958901795951 -17.392909713947816 29.316921657947688 143 107 84 255
23.876217251256946 -16.601140016227731 29.313205348158355 143 105 82 255
23.745077023955787 -15.839752542333926 29.305875542055713 140 104 80 255
24.011532314351314 -14.956794239889049 29.313039258674465 136 102 77 255
24.377308572983168 -14.041486259413560 29.323824628947445 132 98 73 255
24.047408027175550 -13.341758173011144 29.309285185095536 127 91 67 255
23.618217062243730 -12.675103863690637 29.291148376804177 119 84 62 255
22.791721133856754 -12.137230687583468 29.258572454810579 115 80 59 255
23.356136994169049 -11.157113631675898 29.276628975411754 111 74 55 255
23.423790455914229 -10.334702254425721 29.276620262697083 109 70 52 255
23.988008919885488 -9.349607216998479 29.294683214126511 109 67 51 255
23.658350443539177 -8.655768893532738 29.280253196783661 91 48 32 255
22.633696943059988 -8.194508464430001 29.240582806358997 57 15 4 255
21.112843672539043 -7.904985208705199 29.182914593645599 119 75 60 255
19.592318876889010 -7.623624497967853 29.125301766469175 134 88 72 255
18.369909573331654 -7.249038885160644 29.078561954107577 143 96 78 255
17.147763536019056 -6.880986087324132 29.031871615143128 164 115 98 255
15.727399126410376 -6.588129820908208 28.978024856663957 177 130 112 255
13.711961372909570 -6.510501991632381 28.902621000058222 181 134 116 255
12.490712452264063 -6.164718840297738 28.856094790372250 179 132 112 255
12.261809245436268 -5.474008130584892 28.845618306540068 176 129 109 255
10.842582438575164 -5.209376009498556 28.791987990836340 174 129 107 255
9.522847960026922 -4.916643587407265 28.742013078951562 166 124 101 255
9.095980135988952 -4.307364765699276 28.724461420017469 148 112 92 255
8.768366489056120 -3.664037427153474 28.710541502564201 138 106 83 255
8.837437189401555 -2.876365670179169 28.711033105706925 127 97 73 255
9.600492702236977 -1.830814550685488 28.736702820340383 119 94 69 255
10.759908047050658 -0.632811580136348 28.776752976846680 104 87 57 255
-31.933040604277750 -4.850377354057770 27.205194765247434 209 167 145 255
-35.223334403113881 -5.599020471191778 27.085317610806840 209 163 142 255
-36.237835563992832 -5.389396821108647 27.047712494524514 207 159 139 255
-36.460875922291422 -4.843427210615801 27.038743258250403 204 156 136 255
-37.178349195709671 -4.513301115738486 27.011964722267791 198 151 131 255
-38.093441083916304 -4.273330939154178 26.978100574620861 196 149 129 255
-38.612846966110340 -3.864033443389886 26.958574803226039 188 141 123 255
-38.440109154132386 -3.150793661040311 26.964086804290933 180 133 113 255
-38.662823639477693 -2.612560962763027 26.955369666146556 167 124 103 255
-38.786656415786496 -2.030932500255133 26.950271428401638 148 112 86 255
-38.811640122180933 -1.405089169542450 26.948790971851352 129 97 69 255
-38.836626687119747 -0.779081925186702 26.947360760499922 108 85 51 255
27.258957378565924 -19.616891478653258 28.647384918101000 167 129 117 255
25.436965310395635 -19.336495993895767 28.583232176238823 163 119 106 255
24.410782713210381 -18.832353950522602 28.545971317537759 155 114 96 255
24.478397074974964 -18.009559023939758 28.545634825548337 152 109 92 255
23.154323014946783 -17.602697944586424 28.498363992840105 144 106 85 255
22.228112481383050 -17.082927459484509 28.464538755877967 143 104 81 255
22.494702712688763 -16.204748063834018 28.470946589981292 140 102 79 255
23.456840574203000 -15.111182484791854 28.500798501524031 134 98 74 255
24.021319216787674 -14.135594145723346 28.517244276680898 132 96 72 255
23.890215875582157 -13.374501411459036 28.510260334141648 125 89 65 255
23.163098078933729 -12.802214489704355 28.483218846371493 118 83 62 255
22.734124029100713 -12.138899110455114 28.466238996295889 114 79 59 255
22.702514602263989 -11.350216809935830 28.462653306867313 110 73 54 255
22.869524583335590 -10.497268286788142 28.465764806168693 107 68 51 255
23.532979273024466 -9.481099538740281 28.485588107575552 106 65 49 255
23.997714581125990 -8.526649192660841 28.498732040021519 94 52 36 255
23.469594377428507 -7.899402362064194 28.478501493458285 57 17 5 255
21.750414646126728 -7.673964636779829 28.418260066162691 61 23 11 255
20.130860129792097 -7.424246995192945 28.361413442161144 107 67 50 255
19.206354210569884 -6.946672855097830 28.327964669984670 118 77 57 255
18.282046622186613 -6.474012384775619 28.294557432261929 140 96 76 255
16.464947957804611 -6.315263266375339 28.231204604443285 162 117 98 255
13.953770539325035 -6.408502989190993 28.144600027277797 177 132 113 255
12.038333514882879 -6.306039910894853 28.078054087296668 179 132 112 255
11.214384988597544 -5.827292390226532 28.048188935617745 182 135 115 255
10.291434683414536 -5.388308226939628 28.015038928808025 179 133 111 255
8.674513114499234 -5.203992329912992 27.958650759731903 172 130 107 255
8.049501758594204 -4.668803122363215 27.935575594861316 155 123 102 255
7.523768073908855 -4.100646559704245 27.915864506120528 138 108 84 255
7.592952170334968 -3.316242769784353 27.916129405196642 134 106 82 255
7.761240731627709 -2.494543302516419 27.919742378093456 133 109 83 255
8.722391651906150 -1.375503421777111 27.949946173989982 129 111 81 255
8.494103163595639 -0.698695537974899 27.940323126128195 106 94 63 255
-24.013275188016820 -2.829688677356970 26.829048390651948 200 180 145 255
-29.283077956045332 -4.371539831547238 26.651834694436715 209 167 143 255
-32.771203985667228 -5.187861838778531 26.534212813411784 209 162 142 255
-34.676052086206823 -5.348386467102316 26.469531653029438 207 159 139 255
-36.184903326941566 -5.349343017280191 26.418130073685482 204 156 136 255
-36.506799024650945 -4.845848767716930 26.406406962836130 197 149 129 255
-37.125257150658058 -4.472784939169387 26.384830699463887 191 143 123 255
-37.743587294711460 -4.102844137253001 26.363307312567905 189 142 122 255
-37.669814123297868 -3.431410438106312 26.364929103472843 181 135 113 255
-37.694907477415569 -2.803086371382989 26.363296899821471 172 127 104 255
-37.522339050975262 -2.086505850489999 26.368306017924944 158 115 91 255
-37.843922464324265 -1.590331636900387 26.356875971140564 136 100 73 255
-37.869012492451361 -0.961829953563935 26.355386476328015 117 87 58 255
26.305629825690744 -19.876463090719753 27.815306514845055 170 128 116 255
24.484094397367926 -19.598496250091515 27.756101871487903 164 120 105 255
22.364732992479674 -19.417977966611502 27.687695545711154 153 112 94 255
22.730736671253396 -18.512189772116997 27.696406468725993 151 108 92 255
22.202190059091322 -17.872004822115926 27.677383104071072 145 104 85 255
21.375632902976974 -17.324659469995552 27.649139220003804 144 105 82 255
21.046072151630767 -16.630337480899144 27.636316168681965 140 102 79 255
21.809462298159985 -15.601673370482615 27.657360920047715 134 98 74 255
22.373999555122907 -14.630422970987695 27.672242875531420 132 96 72 255
22.143761791348709 -13.904756263547895 27.662520353576578 125 88 64 255
22.112212452795688 -13.117536905466821 27.658961312523530 118 83 62 255
21.683429345939260 -12.456933523148180 27.643123953935952 115 80 60 255
21.651931918837306 -11.670966147223922 27.639594424776671 111 74 56 255
21.819014430607353 -10.820734354909959 27.642218767242259 108 69 52 255
22.482443002183288 -9.807285994588128 27.660197414787021 101 62 45 255
23.344256547219402 -8.724704469839224 27.684310108125707 94 55 39 255
23.114069865666750 -8.000143268572486 27.674685703592274 72 37 22 255
22.189218314604091 -7.509499583017984 27.643625817426571 31 1 0 255
20.768396527812797 -7.191394333370084 27.597284442364561 57 26 8 255
20.439333745432464 -6.509185901583237 27.584687842539513 82 51 27 255
19.415854586956186 -6.067092810081746 27.550685205229325 102 68 45 255
17.598984759620691 -5.905113301496499 27.492241067412809 130 90 69 255
14.691412182091881 -6.133530518525106 27.400205236978518 159 116 97 255
12.776266875801980 -6.028917788495761 27.338841756077443 175 130 109 255
11.555717657163768 -5.688599847790911 27.298945020629411 180 135 114 255
10.434588959863788 -5.319379434651410 27.262155129735152 181 136 114 255
8.817964701700987 -5.134537684062465 27.210139408092751 170 129 105 255
7.201689072654801 -4.958355610694696 27.158184489642444 163 129 109 255
6.477892599705683 -4.464826220427341 27.133765771210754 144 116 92 255
6.150709190583655 -3.829118946190960 27.121595811845811 142 114 90 255
6.319113040101399 -3.011227875382318 27.124712917712120 141 117 91 255
6.784755496909952 -2.081163857094282 27.137002774347863 130 111 81 255
7.052127142655024 -1.223002820753649 27.143214481403206 113 99 69 255
-28.117406997061323 -4.527459856323318 26.038379153537036 205 170 145 255
-30.814071765461250 -4.998204186207360 25.954441472136555 210 162 143 255
-32.817862586172453 -5.190201324149399 25.891815112610679 207 159 139 255
-34.030118468876026 -5.055609996306714 25.853514125156028 205 157 137 255
-34.846607545525131 -4.757670491050931 25.827396176849309 196 149 129 255
-35.465192375086673 -4.378540229675323 25.807392181128762 189 142 122 255
-35.984793531526549 -3.959565086315848 25.790468780909709 182 134 114 255
-36.701977920313396 -3.629660408007979 25.767538780974842 180 133 113 255
