ply
format ascii 1.0
element vertex 646
property float x
property float y
property float z
property uchar red
property uchar green
property uchar blue
property uchar alpha
end_header
-35.993941439322128 -9.974201392018898 -11.692234246722592 192 130 115 255
-36.796369478149813 -10.032409716439076 -10.841819627551956 176 117 99 255
-37.391318507612823 -9.704416590355976 -10.265666815914244 164 108 89 255
-37.698837198465498 -8.830136040358184 -10.071110380265367 145 91 70 255
-37.639939037927320 -7.247703789458228 -10.364733233369350 131 83 62 255
-37.380445161685941 -5.266384487378104 -10.927256611984035 112 65 43 255
-37.489444881173398 -3.989402733471763 -10.999995390435856 91 44 24 255
-38.044481540480149 -3.581283947551583 -10.477492057924735 110 65 46 255
-38.477675645516399 -2.936574916050631 -10.117490383569702 106 60 45 255
-39.151537542195001 -2.770634423842523 -9.434860807315829 94 52 40 255
-39.463336375110316 -1.888521277263180 -9.237022098496595 34 13 8 255
-39.695748491498136 -0.845291706640069 -9.146087557813900 7 0 0 255
-40.526038075708072 -1.005960214569541 -8.251525880642845 2 1 0 255
-41.512348479758373 -1.493967524702043 -7.145330431813875 2 4 0 255
-44.088589263254946 -0.742770704807015 -4.553004891935416 5 7 0 255
-26.635065494913988 -12.319829659805720 -22.494885867073037 202 162 137 255
-27.934948272404483 -13.144249459742070 -21.001866273924321 184 140 122 255
-28.762125190107895 -13.153033729565180 -20.128640711428176 168 125 108 255
-29.459659577443432 -12.940702691551309 -19.425011663410629 161 117 98 255
-30.493533393085130 -13.335285054344041 -18.276423466973455 149 102 84 255
-31.650137006341794 -13.963722744413730 -16.963623119568069 151 100 83 255
-32.466151827185200 -13.993078240657184 -16.099091512208531 152 98 80 255
-32.944480281238526 -13.418001393486179 -15.680566965613878 146 87 69 255
-33.422260140311749 -12.843936365070903 -15.262470436141939 127 68 50 255
-33.649540451992635 -11.811450426352195 -15.176724984088764 96 38 20 255
-34.293104135513317 -11.545244288302541 -14.538011939698407 69 11 0 255
-35.183660879045277 -11.743926731289946 -13.569683941872995 175 118 101 255
-35.906074571730869 -11.639105198366167 -12.823816478279497 181 124 107 255
-36.502971837562001 -11.305567730656264 -12.244335109897463 172 113 97 255
-37.057551135765550 -10.896677883179080 -11.720691945629568 179 120 104 255
-37.774848208667237 -10.801301187788539 -10.978823763021978 179 122 103 255
-38.490162202317521 -10.709585596718284 -10.238506080106220 172 117 97 255
-38.755872026125161 -9.759654948245355 -10.099985060545180 157 105 84 255
-38.657105789557647 -8.101315669457392 -10.451209035209843 133 86 64 255
-38.358929177948824 -6.043748624795796 -11.072119423005461 114 68 46 255
-38.306795379385903 -4.452827688892739 -11.364160796430269 90 44 23 255
-38.739798181720289 -3.808001691558957 -11.003872894080814 90 47 29 255
-39.052248771935638 -2.925314104280346 -10.806107481165242 90 50 35 255
-39.525020154814769 -2.360563428193359 -10.391989793024152 76 42 30 255
-39.758179509373974 -1.317330649557960 -10.301746798697366 13 0 0 255
-40.310094799699982 -0.913438976425084 -9.780260646441775 3 1 0 255
-42.128460499837814 -3.082681654985493 -7.540451366131265 2 0 0 255
-43.029912494746611 -3.414767121252851 -6.540889555664535 2 4 0 255
-43.876409307841186 -0.627702484803876 -6.064337482498303 7 9 0 255
-44.653882601728071 -0.728288599036091 -5.230010908716793 6 9 0 255
-26.331267101710495 -10.750121541460658 -24.387886967201922 202 162 135 255
-28.096593843303907 -12.391640615066365 -22.269680600572570 184 139 120 255
-28.626950159039495 -11.872820481353614 -21.786641920557315 174 131 112 255
-29.240897946304301 -11.505897514556324 -21.192061361710302 174 130 110 255
-30.316378864399468 -11.971139567450706 -19.982624345504831 181 134 116 255
-31.010344086809113 -11.762702758207013 -19.279287706274573 178 128 111 255
-32.413697185181206 -12.847514980579888 -17.628753892403296 171 117 100 255
-33.227223579206054 -12.877669010064039 -16.762649621090588 159 100 82 255
-33.747134112185734 -12.378102219955252 -16.287749058539333 126 67 49 255
-34.266256131808973 -11.879990430456701 -15.813464329854639 75 18 4 255
-35.198082157096906 -12.151065619799738 -14.785579986622622 107 50 36 255
-36.291621464465493 -12.736027733838540 -13.538883469659851 153 97 80 255
-36.969920895714893 -12.556483286656970 -12.847768130972781 136 80 63 255
-37.482525658094858 -12.070398811128712 -12.378574695823488 133 76 59 255
-37.830886035204486 -11.275100979272480 -12.130173080128742 124 68 51 255
-38.627635205065758 -11.336210326460559 -11.277169351473788 126 71 54 255
-39.300044660395486 -11.167544153957806 -10.590663227191186 139 86 65 255
-39.565672690260755 -10.218779359308826 -10.453146875933044 141 91 70 255
-39.306989401366195 -8.247580144289685 -11.025804498880774 134 88 65 255
-39.253434646785678 -6.663237107872703 -11.322622568924572 123 77 55 255
-39.443343142902393 -5.548081992050811 -11.290530192004240 105 60 39 255
-39.514349499672051 -4.193129615969951 -11.420699688294519 82 42 24 255
-39.706948281294331 -3.073033481796983 -11.386527704001935 79 43 27 255
-39.821152838546027 -1.791465939986665 -11.459853305950134 53 25 10 255
-40.333610181986160 -1.305738301689757 -10.990853623683591 8 0 0 255
-41.240706151674203 -1.622514074212177 -9.982346236282211 1 1 0 255
-42.578246318512626 -2.828787046762841 -8.383231035435387 4 1 0 255
-43.202598326436330 -2.595821437282098 -7.757474117330503 1 3 0 255
-43.198628972338810 -1.073167836183245 -7.992543787479121 2 4 0 255
-22.481452170791897 -4.439219672800050 -30.801567212127736 157 160 107 255
-26.967828613415463 -10.820925211635654 -25.045170320426848 201 157 128 255
-28.431322822190623 -11.938538106059042 -23.315920580345448 181 136 113 255
-29.172541934158858 -11.792940953675128 -22.549734721147104 168 123 100 255
-29.953759932533302 -11.726235002148570 -21.728835509914290 161 116 94 255
-30.858385926730534 -11.889918305463652 -20.741141612563524 179 133 111 255
-31.676513243937620 -11.907800039789862 -19.867937826236897 184 135 114 255
-32.575442221725325 -12.081986598718146 -18.884684864356558 176 125 104 255
-33.512927415311509 -12.337727380570357 -17.847846157316667 166 109 92 255
-34.530010299950703 -12.751994477943583 -16.701898463566636 145 87 73 255
-35.584687466150342 -13.249590955973076 -15.503116443183558 191 134 119 255
-36.717759226318350 -13.907933597773479 -14.196164913148237 189 133 118 255
-37.559148032710198 -14.035578922919143 -13.281308464456174 167 112 94 255
-37.988634950800105 -13.396255552683044 -12.922853402146643 153 99 80 255
-38.458622103748638 -12.834905565875431 -12.509300192231905 145 91 71 255
-38.928071735135234 -12.274551356559471 -12.096170422124175 143 91 70 255
-39.559212718812603 -12.026651144924728 -11.462879839748268 134 85 63 255
-39.905801812614300 -11.234907280036396 -11.216126266063497 125 79 56 255
-40.212267273827138 -10.364506175066253 -11.024186969783500 130 84 61 255
-39.916244404111467 -8.315322844839471 -11.654870460321717 136 89 69 255
-40.185316212489596 -7.361239458739817 -11.515624842782188 133 87 67 255
-40.135438033242906 -5.774093988317532 -11.813262378939271 116 74 52 255
-40.327169276874031 -4.657341636979538 -11.781383591353574 84 50 25 255
-40.003802823911343 -2.505966466205564 -12.456944300759403 61 34 12 255
-40.080658413631653 -1.143111577566913 -12.585225105564973 36 18 2 255
-42.990259360708166 -2.494799383955581 -9.281679051352171 0 1 0 255
-43.340273389428461 -1.696853219857871 -9.032359541714982 0 1 0 255
-43.924438891504479 -1.383056057290617 -8.459342977673828 0 1 0 255
-23.178441402367525 -4.586381375296298 -31.420776651273030 167 163 113 255
-27.519963232117789 -10.742777907657285 -25.815950052580177 196 151 118 255
-29.020982965082652 -11.934141653767341 -24.024923233786183 182 138 112 255
-30.012387968455187 -12.237843998948819 -22.917639649463467 166 121 98 255
-30.707617270310266 -12.021715244167098 -22.208347836523359 156 111 88 255
-31.734652243758319 -12.411994933966668 -21.049414907278049 165 119 96 255
-32.383815177525236 -12.128527608034972 -20.399905773537739 185 138 116 255
-33.238732474569360 -12.227061581343406 -19.470638518519820 170 119 98 255
-34.214926651516180 -12.558809374845737 -18.375214052234696 154 98 81 255
-35.723441676683109 -13.888632943460124 -16.554480745862236 211 155 139 255
-37.143188445486430 -15.077582979554791 -14.850696149333459 204 148 133 255
-38.270037354574754 -15.740661609268557 -13.542350832328140 194 140 125 255
-39.024824936409317 -15.719280884465434 -12.738900239786034 187 134 116 255
-39.492272513064336 -15.161780005416119 -12.326554564088781 176 123 104 255
-39.837353673886724 -14.373078780618130 -12.081219827253335 171 120 99 255
-40.223110737171311 -13.661658762950253 -11.780308602097932 160 109 88 255
-40.649183425624727 -13.028185098396449 -11.424102588151925 153 105 83 255
-40.793232619150274 -11.848789292673530 -11.454856937453286 149 103 80 255
-41.099187444858842 -10.979977652502527 -11.263916390404091 132 87 64 255
-40.725472960885099 -8.775675176418588 -12.008638755425608 126 81 60 255
-40.914693674680393 -7.665288438103062 -11.980327181221043 128 83 64 255
-40.826721739000703 -6.000073848822638 -12.335210822552824 125 83 61 255
-41.336268476079283 -5.517288193302875 -11.866232958680371 102 68 43 255
-41.291718002597833 -3.924307946737144 -12.163413764597209 53 26 5 255
-41.525605623520732 -2.883879771342322 -12.076447392186964 15 0 0 255
-41.564008193495908 -1.442523890069651 -12.261240058449317 5 0 0 255
-42.074495008361311 -0.958052797442690 -11.791573628383276 0 1 0 255
-43.521344797400715 -0.878949226703412 -10.257703670166819 0 1 0 255
-24.169762512597856 -5.253370111437050 -31.640276809789128 177 164 116 255
-28.198756675571190 -10.888215625628845 -26.416649375767292 193 146 116 255
-29.862171419075736 -12.378072010622219 -24.393174236827349 185 139 114 255
-30.892025889310275 -12.757518851175689 -23.226820345582695 173 127 103 255
-31.626786079836648 -12.617727209046450 -22.460012680848195 157 113 88 255
-32.401049264926257 -12.557003912592137 -21.638194962637613 132 87 63 255
-32.841977395044012 -11.895644899425378 -21.269947923413582 177 130 106 255
-33.571455081973340 -11.765592379539981 -20.507258147140362 172 123 100 255
-34.628092234498212 -12.247564966676748 -19.295815223180369 151 98 80 255
-36.788449388987203 -14.795940532583415 -16.570176971366863 209 156 140 255
-38.365713663538600 -16.292758545676350 -14.638101158262174 193 140 126 255
-39.242611404392875 -16.498529424607682 -13.663648455818077 191 138 122 255
-39.831920323045580 -16.171223845385384 -13.082890770440031 189 136 120 255
-40.338882989359547 -15.691941839271863 -12.614758861792950 182 130 111 255
-40.845066354454332 -15.214101579843486 -12.147239063462649 180 129 108 255
-41.350472242353447 -14.737700433293298 -11.680330629371440 174 126 104 255
-41.533668453473553 -13.640150257123281 -11.658318474089810 168 122 99 255
-41.557786268651824 -12.228291616029708 -11.857176737793566 165 120 97 255
-41.863592958437792 -11.360402006030597 -11.666953184485720 154 109 86 255
-41.970748241550751 -10.099264186343873 -11.752664234149705 145 100 79 255
-42.158940744476411 -8.992529902648243 -11.726782643568072 127 83 64 255
-41.675498710583241 -6.541761735025943 -12.636112875998947 122 84 63 255
-42.025891366360639 -5.743605214308161 -12.386950290346363 100 68 43 255
-42.297815813034418 -4.786327334863643 -12.247394910618596 77 50 29 255
-43.001788671682874 -4.703418829719567 -11.504699971341154 23 3 0 255
-43.195574269666821 -3.586425955878894 -11.474507649031551 7 0 0 255
-45.218061235299146 -1.679747917203713 -9.606681372353989 0 1 0 255
-29.336920804602471 -11.852736069874993 -26.388355687921887 193 146 116 255
-30.701401056582370 -12.821845392560192 -24.759459110798588 191 143 119 255
-31.603088077467902 -12.977366661073660 -23.761467764461770 182 136 113 255
-32.253168051925797 -12.687588640189063 -23.106961256357323 167 121 98 255
-32.819091011914253 -12.249907550943135 -22.567173324962766 154 109 86 255
-33.219188406394750 -11.511832809913585 -22.254883037133908 128 82 59 255
-33.947831860955205 -11.380269659252633 -21.490017600489864 176 128 106 255
-34.961168501945167 -11.784541719261370 -20.331323033749470 144 93 76 255
-37.073369016980308 -14.254202487793975 -17.652979433433700 209 157 143 255
-38.971793306644031 -16.360354831658697 -15.264080064337492 192 139 125 255
-39.886973779936710 -16.642555481715277 -14.231037302143875 191 138 124 255
-40.556119316739682 -16.469183862577125 -13.537135803318392 194 141 125 255
-41.263871291099235 -16.376171467997665 -12.788587530666348 191 138 119 255
-41.768479038072371 -15.900040439353745 -12.321187651597967 185 137 115 255
-42.151976468487632 -15.192608935628755 -12.021873376866267 179 131 109 255
-42.295479435982799 -14.018465330735523 -12.056988579737748 173 125 103 255
-42.360640301829761 -12.685701063076181 -12.202292320619051 170 124 101 255
-42.785426925055248 -12.053696915743615 -11.846253147491552 162 116 93 255
-42.972153858630307 -10.951414130347359 -11.823135713864673 151 105 83 255
-43.120534222778900 -9.768306112091011 -11.854474620563934 141 97 76 255
-42.758279538907374 -7.556732971232037 -12.603108725250223 126 87 64 255
-42.989572054571113 -6.523843976753142 -12.520718799857548 110 77 52 255
-43.495816885475790 -6.044770503109874 -12.052112999342455 87 59 38 255
-44.196433178731368 -5.965015252900628 -11.309221221475241 69 45 29 255
-43.805731207579953 -3.654397648978886 -12.104624178845171 11 0 0 255
-43.264677218285826 -1.014860373192448 -13.115464380143692 6 1 0 255
-43.773322045756927 -0.531416547823540 -12.645038144496908 3 1 0 255
-45.398997451986915 -2.383001460879086 -10.591754082449569 0 1 0 255
-46.171617775073145 -2.473639626922989 -9.743695638296998 0 2 0 255
-30.553704702585264 -12.965683579618513 -26.240682554807222 194 144 116 255
-31.704638629494696 -13.564112520409282 -24.894795822754247 190 142 120 255
-32.271953568728037 -13.122297114784260 -24.352469348842305 184 137 115 255
-32.796980033097952 -12.607285283387853 -23.868006958969204 171 125 103 255
-33.280081938337332 -12.018406411293313 -23.441125265898449 165 120 98 255
-33.926666413347903 -11.732762687871315 -22.787202167292605 151 104 82 255
-34.694397819745745 -11.677248624050236 -21.964142205128326 137 90 68 255
-35.622958324568145 -11.929866896373539 -20.916114032534892 137 88 71 255
-37.645768708986793 -14.246413341876973 -18.342794504696286 212 163 148 255
-39.456231187963510 -16.198665578416438 -16.059518374043364 181 129 115 255
-40.409679638891873 -16.556585597489516 -14.967213328935401 174 122 108 255
-40.956847671457609 -16.151941261405369 -14.440617157907013 168 115 99 255
-41.543157854975817 -15.826299117859890 -13.858614226699189 183 131 113 255
-42.328422345779032 -15.889668366885189 -12.997030893215054 194 143 122 255
-42.711997336605577 -15.182005630684046 -12.697574365333651 193 142 121 255
-42.896512346497360 -14.085537791456858 -12.677791242123476 185 137 115 255
-42.963140501304565 -12.752932329228202 -12.824605958935308 178 130 108 255
-43.348135881826778 -12.042671004905515 -12.524060842434409 170 122 100 255
-43.733085814913210 -11.332502489134413 -12.223559514003568 159 111 89 255
-44.000033623053554 -10.386411586616873 -12.089748401976294 147 102 79 255
-43.836473996839146 -8.571248943882267 -12.565419767631994 134 95 70 255
-43.832563591609414 -7.066407074068962 -12.817054864443236 122 88 62 255
-44.259563857953893 -6.429916151140219 -12.458914130644303 83 52 30 255
-44.725125330651338 -5.873508275945909 -12.045828579986875 81 53 36 255
-44.919152857096691 -4.759588160353019 -12.018709420219068 30 7 3 255
-43.956458931697000 -1.243380147788457 -13.640230077479885 13 0 0 255
-44.464259530060971 -0.760303037688914 -13.169359101435418 7 0 0 255
-46.006912079211929 -2.450746833664425 -11.219576709771673 3 0 0 255
-47.045257031386569 -3.105857568019530 -9.986604305089827 0 1 0 255
-46.897930767109983 -1.260885820597991 -10.449732121221530 0 2 0 255
-29.285475222982740 -11.110820538814863 -29.283230716861596 186 159 120 255
-31.640854904717571 -13.854836322450467 -26.260130414941500 196 144 120 255
-32.456586065675765 -13.858201255968225 -25.371243131563944 191 139 117 255
-32.858005638290649 -13.117507983470915 -25.057754485900404 182 131 109 255
-33.341476728503807 -12.527118455237684 -24.629815624414789 174 122 101 255
-33.947216430454972 -12.163679099241250 -24.030835209284191 167 116 95 255
-34.755778878252272 -12.180260640292488 -23.147536143327557 162 111 90 255
-35.480460883168291 -12.049909311315446 -22.380112041560437 140 89 68 255
-36.365458926856661 -12.227159744797007 -21.386751049566413 115 67 47 255
-37.935275582469615 -13.705305114757550 -19.430444390440584 184 135 118 255
-39.820725166837121 -15.807879930765637 -17.026169489982379 143 93 78 255
-40.772210540654925 -16.164161704395099 -15.930521287700884 174 122 108 255
-41.519781571390752 -16.142438677186533 -15.120045978212971 142 91 75 255
-42.265125047783343 -16.124830145524612 -14.311314213531716 128 77 59 255
-43.008243109124322 -16.111332962878748 -13.504325065334683 180 130 111 255
-43.391534368717998 -15.404106462512402 -13.205009193732849 195 145 125 255
-43.616322699069073 -14.385939687183338 -13.130220761851177 196 145 125 255
-43.881519649639600 -13.444072790967482 -12.998697771452981 188 140 119 255
-44.265509238029949 -12.735580704621952 -12.698857822453220 178 130 109 255
-44.492448190524101 -11.713471339862537 -12.622413690061279 166 119 98 255
-44.681177664313864 -10.611022405238089 -12.601003503618927 153 107 85 255
-44.754040331027937 -9.269820043412210 -12.745643962113803 141 102 76 255
-44.867682243579509 -8.004238333360433 -12.833264728053052 132 98 70 255
-45.138051963040766 -7.052891926489025 -12.697762504067043 112 77 55 255
-45.486407845214728 -6.259367500612029 -12.451000574442958 118 82 65 255
-45.603801840641196 -4.986905189409413 -12.535730717906375 132 93 84 255
-45.185141046411815 -2.591633017707750 -13.391695286428728 83 49 42 255
-45.039524398509343 -0.748535468966224 -13.858149398363310 31 9 8 255
-46.538438011634611 -2.357682746934813 -11.957374556245071 13 0 0 255
-47.992296386707835 -3.899127339429299 -10.116984670637919 6 0 0 255
-47.732712848525409 -1.813816090770217 -10.748047793973512 0 2 0 255
-30.254584720147591 -11.775577656678621 -29.480017700938902 191 155 122 255
-32.228955654579892 -13.850803921087561 -26.968021149623809 195 144 119 255
-33.042870616895414 -13.853731972434616 -26.077040832386587 190 138 116 255
-33.526349699118015 -13.262499834805965 -25.648328339812849 180 128 106 255
-34.172764792103578 -12.972553616822836 -24.990259599212692 172 120 98 255
-34.776908999295699 -12.610118932369659 -24.390727535756582 169 117 96 255
-35.461039378218402 -12.401061930657420 -23.677675018412373 161 109 88 255
-35.981371439713342 -11.892306443286316 -23.194648755326369 141 90 69 255
-36.824030493420139 -11.992671605214525 -22.255685509685918 113 64 45 255
-38.268003478182322 -13.240765712157184 -20.464223002622077 195 146 129 255
-40.227565517383027 -15.493800772983320 -17.938263998267189 157 108 93 255
-41.136940276814101 -15.772040623040454 -16.896153643898089 169 117 103 255
-41.963306909938808 -15.902481676902767 -15.969926354986171 173 121 107 255
-42.588032756481127 -15.652570952497825 -15.328809576850119 196 146 130 255
-43.449251301248168 -15.869198981442992 -14.349847922922692 190 141 124 255
-44.109798362511455 -15.703688153685675 -13.655241160278251 197 148 131 255
-44.492636052038250 -14.997219434130756 -13.356206145423585 197 148 131 255
-44.718210089672368 -13.979001765724945 -13.282100813178033 191 142 125 255
-44.866335676692913 -12.802730819805504 -13.319540561742798 182 133 116 255
-45.093989094745353 -11.780694755610966 -13.243828435073397 171 124 108 255
-45.283622087191262 -10.678339660637732 -13.223345008398837 156 110 91 255
-45.513241679388884 -9.652697894183746 -13.146118024700854 142 103 77 255
-45.666384450777173 -8.467213772646289 -13.179680811790149 134 100 73 255
-45.975260206433617 -7.596324655648175 -12.989529397929090 128 92 70 255
-46.130742650071866 -6.406551511639520 -13.021291069881357 109 68 52 255
-46.440998537037274 -5.533145832101070 -12.830089683123077 137 91 83 255
-46.407732278281728 -3.939259275890265 -13.136918488687598 108 60 55 255
-46.605682755829534 -2.821658972579598 -13.110034152446843 146 102 97 255
-47.564383552086966 -3.310038431665134 -11.978521936178737 32 5 4 255
-48.519449369269751 -3.805143405296178 -10.849865426452880 10 0 0 255
-48.263278024182895 -1.719728615021040 -11.484004032236356 1 2 0 255
-30.767758758717036 -11.624359450660307 -30.311870981315707 193 150 120 255
-32.940497918940338 -14.069994138247608 -27.502505217495809 193 143 120 255
-33.752234821042094 -14.073154279671968 -26.609715640189052 188 136 114 255
-34.316656106395840 -13.631967739751616 -26.065282590474482 178 126 104 255
-34.961407863978309 -13.342782820450594 -25.406373551917085 173 121 100 255
-35.442389097206899 -12.755324877757118 -24.978837936310669 168 116 95 255
-35.963261686394844 -12.244373377353725 -24.494278465601440 161 109 88 255
-36.523664969886539 -11.810594875861227 -23.952977789667528 134 82 63 255
-37.404644157976207 -11.986213179795982 -22.954368567669945 114 66 48 255
-39.044185923881230 -13.614326819421365 -20.871843952302555 204 155 139 255
-40.756103606769699 -15.409128816775137 -18.681063906031085 189 140 125 255
-41.782739184491845 -15.916456401685394 -17.465238927606066 191 139 125 255
-42.646584603668003 -16.123707744981857 -16.480027074063202 181 129 115 255
-43.309492173160393 -15.951157592924403 -15.781089161903651 186 135 120 255
-44.010134989339221 -15.859100374229172 -15.026818689898249 190 141 126 255
-44.826866189024926 -16.003191290827658 -14.104288534033032 208 159 144 255
-45.209301380570665 -15.297380473899750 -13.805489262465755 201 152 137 255
-45.630804346679838 -14.669605949377228 -13.450318757664746 192 143 128 255
-45.779057528528654 -13.495230521029924 -13.489634154745346 183 134 119 255
-45.928713390656924 -12.318276652655584 -13.527863179536581 177 129 115 255
-45.886005219172546 -10.745704219730158 -13.845673394692341 164 119 102 255
-46.154973975881333 -9.798964398616107 -13.713139134996908 145 107 84 255
-46.501653456183064 -9.009077627009361 -13.468191009062394 136 102 77 255
-46.771753946743004 -8.060276540252261 -13.334797942411484 128 93 73 255
-46.927728686027308 -6.871727329993462 -13.368151707219056 92 55 39 255
-47.085117973137272 -5.680583933174546 -13.400415533725266 85 42 33 255
-47.434078425471128 -4.886550411322332 -13.153743613432283 80 28 24 255
-47.934895336593570 -4.412793420609432 -12.685020965887134 137 81 80 255
-48.397175968656228 -3.860046628908208 -12.272279692142035 123 77 75 255
-48.519927504144405 -2.582775160229062 -12.357531535070848 40 17 11 255
-48.306403872387619 -0.574976353366424 -12.938236672722127 3 1 0 255
-33.855495672504617 -14.660926758761832 -27.745584963378747 195 145 122 255
-34.582978106420455 -14.516277175250167 -26.967509909451053 186 134 112 255
-35.105377350838779 -14.001316492033993 -26.480653063658735 178 126 105 255
-35.586486630261618 -13.412795639961075 -26.052251193530253 171 119 98 255
-35.986295477825792 -12.674796909284225 -25.739763173977565 164 112 91 255
-36.466543701832023 -12.087861566287302 -25.312030688751150 159 106 88 255
-37.146906766950536 -11.880403462942922 -24.596958747584353 130 78 60 255
-38.425696697801641 -12.814918897926532 -23.021369172860858 121 74 56 255
-40.018245281169186 -14.368460075832218 -20.991060333477378 204 157 141 255
-41.523952068055422 -15.782756688461006 -19.081000726796390 193 144 130 255
-42.348792331856430 -15.907710668532729 -18.148268495728985 188 139 125 255
-43.170922253283621 -16.037671630643160 -17.217658375424833 163 114 99 255
-43.714481792042449 -15.633432977139762 -16.688084340835474 154 103 89 255
-44.453465292423260 -15.617336720317752 -15.874843108195250 195 146 131 255
-45.307730712403355 -15.837769986580099 -14.892946152874430 203 153 140 255
-45.846676207531146 -15.442068578238093 -14.366997222932383 204 154 143 255
-46.345683705755022 -14.970323433765202 -13.898457704531893 193 144 132 255
-46.572280106936574 -13.953014435937803 -13.826144902284369 187 138 124 255
-46.761111963992064 -12.855651978922680 -13.809544801274285 179 131 120 255
-46.565456562409011 -10.970288261706230 -14.355330398567844 170 125 111 255
-46.834712378302115 -10.024043886157017 -14.223522200567288 154 114 96 255
-47.181302365399063 -9.234609735881492 -13.978910453905343 140 104 84 255
-47.642709571351745 -8.682570368036750 -13.566013123453672 129 96 78 255
-47.722769970044496 -7.336737878203110 -13.713051598486715 61 28 13 255
-47.842690092890223 -6.067119402215837 -13.802765750849630 95 57 48 255
-48.342692137063196 -5.593661856258052 -13.333563296944362 105 59 53 255
-48.766502293313380 -4.961318333404336 -12.976301962084790 148 92 92 255
-49.077244143243988 -4.088386949634469 -12.785991903145344 112 63 64 255
-48.976155133415034 -2.328168256006734 -13.205638276172550 78 49 45 255
-33.428847526309909 -14.286901951176361 -29.642633271095775 193 148 122 255
-35.255795587568969 -16.143623146358436 -27.286126874556516 197 145 124 255
-35.736139053879242 -15.555695580203775 -26.857563168054696 185 133 112 255
-36.135074376643587 -14.819226441802101 -26.545681111500926 177 125 104 255
-36.493633703719496 -14.007879654582837 -26.291882276866346 168 116 95 255
-36.731809640551404 -12.970532969796437 -26.211758073666545 163 110 92 255
-37.131143183458335 -12.233321463786666 -25.899558002728639 149 96 78 255
-37.730131198862580 -11.874589462656417 -25.298665733359826 125 72 54 255
-39.203962299936506 -13.187883462078275 -23.430373343544147 118 71 53 255
-41.107944973097688 -15.350612771350484 -20.934065673239189 203 156 140 255
-42.606877674971685 -16.766982955783988 -19.019632001129679 203 155 141 255
-43.270306841868319 -16.588118603879764 -18.315325921228521 164 115 101 255
-43.931991438079748 -16.412479150481545 -17.612387680389077 171 122 108 255
-44.670374033794232 -16.394077535161813 -16.796450978461081 149 100 85 255
-45.171935837491233 -15.916402430169853 -16.324788763285909 179 130 116 255
-45.672723850586550 -15.440162942451366 -15.853738098591180 207 157 146 255
-46.172740065150123 -14.965356356666632 -15.383298318912864 199 149 142 255
-46.904414876356896 -14.959368127954463 -14.572633696244253 192 142 133 255
-47.286317944237013 -14.254392114493072 -14.274113666209416 193 143 132 255
-47.475693303873385 -13.157790916653084 -14.258724374749903 182 133 125 255
-47.474350307623936 -11.666225664566866 -14.525052547998996 172 128 116 255
-47.666658884712717 -10.564235355808705 -14.507394081384916 163 124 107 255
-48.088949556885851 -9.934163114230842 -14.150825833893720 150 114 96 255
-48.358904528708351 -8.987684131015726 -14.019449995651428 138 106 91 255
-48.553760895235285 -7.881036877409883 -13.999842801557037 61 33 19 255
-48.485372025673726 -6.214499637221877 -14.371701875808014 52 25 14 255
-48.984654371077085 -5.741185236390436 -13.901963187145043 51 23 15 255
-49.333055668414588 -4.948783491161976 -13.656284140742656 107 72 67 255
-49.569436484709200 -3.914967655443036 -13.577764394849737 124 89 87 255
-49.620297737273575 -2.476602412774128 -13.776908956786372 31 12 7 255
-34.709043764589154 -15.543076995828358 -29.356626437875320 195 149 124 255
-36.122606896591890 -16.659493451585661 -27.579859248625610 200 145 128 255
-36.682519842288059 -16.221931433726695 -27.034595686928355 190 138 118 255
-37.160919567896428 -15.636761275693914 -26.606781359459944 178 126 105 255
-37.478297160227498 -14.752679589222055 -26.412303081110736 166 113 95 255
-37.756092973057264 -13.792624505700758 -26.275630501354698 157 104 86 255
-38.034546415971590 -12.831353812784869 -26.138442342751176 145 93 74 255
-38.472680141104377 -12.171468342564253 -25.768963950597055 121 70 51 255
-39.623933043228078 -12.877866717039467 -24.358437552260710 74 28 13 255
-41.126165524580131 -14.277710789998537 -22.431751930428305 203 155 141 255
-42.739762842726947 -15.919097182947269 -20.337416482677668 204 156 142 255
-43.403277097998156 -15.737405166066907 -19.630568375748908 187 138 124 255
-44.221656025688404 -15.865994420662105 -18.695200388442061 152 103 89 255
-44.881201756811237 -15.691639503622753 -17.991464885591057 151 102 87 255
-45.539007606239622 -15.520503392924297 -17.289095932830776 189 140 127 255
-45.923542039722292 -14.810559894682825 -16.988416999224057 198 148 140 255
-46.578718339597586 -14.644294617284203 -16.288119046587951 188 137 133 255
-47.155062276035508 -14.325485291827761 -15.703186694327570 189 138 133 255
-47.499583188644579 -13.540396453833552 -15.460679747721684 191 141 132 255
-47.844303062743833 -12.754951899882087 -15.218027993791083 183 134 129 255
-48.189223947855126 -11.969148899424056 -14.975230806371911 172 127 118 255
-48.458212830884506 -11.025451448170884 -14.845535386758144 168 129 114 255
-48.727888804011187 -10.080500362666896 -14.715316522634311 160 123 107 255
-48.809120689035467 -8.738236375276813 -14.866751668706513 139 106 93 255
-49.156192021725460 -7.948524881850915 -14.622330224344381 83 56 43 255
-49.277960503074056 -6.680504792540717 -14.715243961544587 21 3 0 255
-50.263092616783780 -7.246637986805979 -13.515353647949013 10 1 0 255
-49.563823041118738 -4.215430213030743 -14.841173963595878 11 0 0 255
-49.578782673952503 -2.697523420018854 -15.098237236046003 12 0 0 255
-35.821472161971514 -16.502346362592192 -29.299545189279513 196 151 127 255
-36.987074520545008 -17.175156806364726 -27.871221452804804 193 147 127 255
-37.384781343585729 -16.440786401442580 -27.560142995150414 193 140 124 255
-37.942615795322837 -16.005492719540371 -27.015050219278123 181 130 113 255
-38.259843006781438 -15.122341777357292 -26.821294925679354 168 116 99 255
-38.577485542140323 -14.238421549985389 -26.627212563442555 158 102 88 255
-38.816170008920210 -13.202917606032031 -26.549269147104354 142 91 77 255
-39.214021779422922 -12.468267701760453 -26.238066328030641 114 69 52 255
-39.887932365834502 -12.264700397389277 -25.520603722272455 48 10 0 255
-41.031996962516303 -12.977266145516410 -24.109113023255247 204 166 147 255
-42.367442070023458 -14.079896801338833 -22.411979020710163 180 135 120 255
-43.736124734684182 -15.269847444950301 -20.661660441878752 185 137 124 255
-44.864941035386607 -16.010580828303006 -19.262107296357385 169 121 111 255
-45.678378063688115 -16.144154019411076 -18.326765938479809 154 104 95 255
-46.063164225643831 -15.433656352823988 -18.025807285761573 160 111 103 255
-46.254891120705864 -14.336204395535617 -18.011815013402270 151 102 95 255
-46.794108459537938 -13.935323205541408 -17.481317334584986 95 46 42 255
-47.370676968063819 -13.614172173536787 -16.894423058937065 98 49 45 255
-48.022477795348195 -13.451493922549673 -16.194312780173590 113 64 61 255
-48.291350743461294 -12.509012203765963 -16.065636531713750 150 101 96 255
-48.902902649006492 -12.271989339834249 -15.424221682838294 156 111 104 255
-49.285697599471305 -11.565245432859172 -15.124891858402208 170 130 120 255
-49.517423167090072 -10.542710125903113 -15.052501813953114 162 124 113 255
-49.411335882397665 -8.805761561362658 -15.489072858223409 139 106 96 255
-49.721044529943583 -7.936643456056288 -15.301337219681216 121 97 86 255
-50.218193471220204 -7.464880515447987 -14.831053770554831 15 2 0 255
-50.416378774646489 -6.355662272013632 -14.812157468117050 8 4 0 255
-48.795074069955731 -1.320400955618425 -17.548797548648622 1 3 0 255
-36.728174810358126 -17.090915460437145 -29.532724180764149 195 149 126 255
-37.688788850237017 -17.393529545144276 -28.395813189203665 197 147 130 255
-38.126190659909298 -16.734096734579623 -28.026074112899636 197 144 128 255
-38.563281099628057 -16.075234524571357 -27.656574553857894 185 134 117 255
-38.841101375404548 -15.117183098520428 -27.521782007354005 171 119 102 255
-39.198817364195321 -14.308240916758706 -27.269428288596401 161 105 92 255
-39.556708908126154 -13.498973223554344 -27.016936005660881 145 95 80 255
-39.914777427409661 -12.689378450471281 -26.764305024696711 117 72 56 255
-40.351539143615270 -12.031116834046827 -26.395056655787585 56 20 3 255
-40.905408621469519 -11.601576850917382 -25.851612045510166 151 114 96 255
-42.238576702683162 -12.699460155933934 -24.147961091572427 157 113 100 255
-43.760376737964521 -14.190638830308274 -22.159106675750706 107 62 53 255
-45.197578202327634 -15.541395800453415 -20.291495304759792 181 133 124 255
-45.971090907140677 -15.596224488114359 -19.411072582967620 165 115 109 255
-46.433870474003101 -15.038270748321509 -18.993968448007337 144 95 89 255
-46.857705459325288 -14.403916625147531 -18.634866458635202 129 80 75 255
-47.587595384928591 -14.391000484640131 -17.816121026999042 121 72 68 255
-48.277098906890856 -14.304348595650623 -17.056507631490064 147 98 94 255
-48.926579848935020 -14.143290133727589 -16.355742605133628 119 69 68 255
-49.308813250299778 -13.437477501067065 -16.056754096715196 111 65 60 255
-49.691008020282254 -12.731749840347277 -15.757808447373947 135 92 85 255
-49.997785209532125 -11.868655671964092 -15.572932072864489 152 112 104 255
-50.117159229872229 -10.610017842046716 -15.672317192762677 152 115 106 255
-49.901139752523306 -8.635822291676703 -16.281851205740139 140 109 100 255
-50.323541901462875 -8.004237826373441 -15.923984810029310 100 74 67 255
-51.154973766265485 -8.248917680692671 -14.943340667776681 11 0 0 255
-52.206022304947481 -8.978014056163431 -13.625738089299858 2 1 0 255
-37.472016808776402 -17.383127688689370 -29.999898461752935 196 149 128 255
-38.589235836657451 -17.983110204735169 -28.624115529876804 198 145 129 255
-39.025559304036022 -17.325215240526745 -28.254799700229853 196 143 127 255
-39.302883606582213 -16.369108297444029 -28.121348615933130 187 135 119 255
-39.501761335567579 -15.261949346011590 -28.105004754755583 176 123 108 255
-39.820071236070817 -14.378106114547990 -27.911614046201606 165 109 96 255
-40.099488380586934 -13.418126849265064 -27.776518692065821 148 98 83 255
-40.418754841071632 -12.532515498476869 -27.582378094158685 119 74 59 255
-40.738441369252627 -11.646129244677127 -27.387909629274247 63 28 11 255
-41.603823495255028 -11.823421359603230 -26.376355272083345 54 21 4 255
-43.203975797687633 -13.455020533974732 -24.260451072190847 82 44 31 255
-44.757888344746050 -15.024058655515432 -22.208596931448170 121 78 71 255
-45.957234712662455 -15.916258049922732 -20.684962332157056 147 102 96 255
-46.882204505675929 -16.279449126181191 -19.571073838926537 191 142 137 255
-47.343604711380408 -15.723224260035465 -19.154290242144668 153 104 99 255
-47.880924162881357 -15.322724357022963 -18.622382008270478 165 116 111 255
-48.493441921976199 -15.079281979985296 -17.975914284803764 183 134 130 255
-49.180437267647903 -14.994229254335153 -17.215452015631371 186 137 133 255
-49.789736001888187 -14.756754472675254 -16.571524051685486 180 130 129 255
-50.246577305819130 -14.209002967542688 -16.158357593515518 169 123 121 255
-50.514786307418291 -13.269821678718472 -16.032123583653231 146 105 101 255
-50.783682196138500 -12.329387203849564 -15.905366356090667 128 90 84 255
-50.754213716199359 -10.756292878394561 -16.234998424127326 142 106 100 255
-50.764624312881935 -9.257529997887218 -16.505579103858565 142 112 106 255
-50.963118310035611 -8.151243715328320 -16.489687506357257 43 20 15 255
-51.903199102321167 -8.634652794197962 -15.336261630956159 8 0 0 255
-53.208645100075017 -9.922943618695456 -13.618324492959090 6 6 0 255
-53.257540552693641 -8.501151538373392 -13.831004484971800 2 4 0 255
-52.575397193351321 -5.470232165936864 -15.173010085709080 1 3 0 255
-38.294335834737268 -17.823267690939588 -30.347097806839599 199 150 130 255
-39.328060662181031 -18.275525550545751 -29.086814883199736 200 147 131 255
-40.080622509478815 -18.213886188133358 -28.243977720661007 196 143 129 255
-40.436108395749841 -17.409641461011745 -27.993905553954562 187 135 121 255
-40.713042754569358 -16.455277872207603 -27.861708044088175 176 123 109 255
-40.794424794992182 -15.124096558759277 -28.023555869187589 169 112 101 255
-40.995036772010280 -14.015496430560262 -28.007488000675693 151 100 86 255
-41.079789429472328 -12.678087807932371 -28.166696221039615 122 76 61 255
-41.166410038784079 -11.337229845064996 -28.324443231960316 65 30 14 255
-41.952571879549325 -11.361124396718083 -27.427102753042874 25 0 0 255
-43.934071830988671 -13.752839421154931 -24.720046283817169 159 124 112 255
-45.404889437120602 -15.168987895013345 -22.779275538987719 172 134 125 255
-46.408127610406083 -15.677559298535783 -21.542856819546358 170 127 121 255
-47.522288811337830 -16.424063774478299 -20.135032032316559 198 150 146 255
-48.173938412907319 -16.253632337636247 -19.427594358490694 194 145 141 255
-48.937962239819512 -16.318455561177643 -18.547616669720412 175 126 122 255
-49.358287839037430 -15.689697130925083 -18.190439827719274 192 143 139 255
-49.664942643619497 -14.828099026435126 -18.006836483683713 194 145 141 255
-50.009712603852535 -14.043714856491476 -17.765214208350812 181 131 130 255
-50.467347419679271 -13.493683634419881 -17.350672088977973 91 46 45 255
-50.849595003804254 -12.787706781324118 -17.051544538101638 80 40 36 255
-51.157180160543959 -11.924446833622056 -16.867265458823169 132 96 90 255
-51.279247905786036 -10.665853610232205 -16.969195607731308 140 108 101 255
-51.514189215404954 -9.641602148235052 -16.898203637632406 106 81 76 255
-51.750065430167055 -8.615643713075485 -16.826498330720000 14 0 0 255
-52.392031611798473 -8.463259505623768 -16.126789340867361 6 2 0 255
-52.922154144485603 -8.074671675219378 -15.599233866204344 3 3 0 255
-53.634249615858991 -8.088002695534442 -14.788279273540695 2 4 0 255
-54.927695787535995 -9.389201588292906 -13.071154076821415 2 4 0 255
-39.154342226802896 -18.337223132316041 -30.632730366593279 201 150 132 255
-39.907526933050463 -18.271029439327577 -29.786250469784591 201 149 135 255
-40.619053041061022 -18.134544027359112 -29.000912621934617 196 143 129 255
-41.210694976274539 -17.777789753913879 -28.395025803602124 190 138 124 255
-41.722714805667223 -17.273633767672578 -27.908537262888444 180 127 113 255
-41.804357225822969 -15.944847567596526 -28.072847255142506 173 116 105 255
-41.926798595032210 -14.687934475053936 -28.176682070831845 155 104 91 255
-41.934429385036736 -13.201384241803737 -28.455999610330338 113 68 53 255
-41.750953027542067 -11.331656127299397 -29.027598480127750 64 31 14 255
-41.763889355173291 -9.835308235197772 -29.302765279448408 24 0 0 255
-44.124655147648781 -12.983595720189300 -25.999337050501850 163 130 115 255
-45.974779754391662 -15.161046754406925 -23.466617381610405 172 135 125 255
-47.127921477761106 -15.975679813782250 -21.993156284757674 162 118 112 255
-48.123835583961892 -16.491797509332883 -20.756925273507449 205 155 153 255
-48.963970880681359 -16.706724497948244 -19.756791024061158 204 154 153 255
-49.763319392768707 -16.849763875886822 -18.817129813661779 143 93 92 255
-50.031789019016472 -15.912114595564333 -18.692558140993924 87 37 36 255
-50.037689923188495 -14.428824489959197 -18.973289824134838 68 18 17 255
-50.120931732423756 -13.097160082869095 -19.136418405075943 77 28 24 255
-50.504989913327250 -12.387749616114178 -18.835790913922665 133 86 86 255
-51.037993760790670 -11.992175865977742 -18.304437856572491 162 119 117 255
-51.569999725119573 -11.598461807238749 -17.773881163799757 145 109 103 255
-51.915986129574492 -10.812188542204865 -17.531638409510407 135 106 98 255
-52.262183449227223 -10.025544690488857 -17.289248173800246 17 1 1 255
-52.535065972251687 -9.079871493799459 -17.161340272307172 9 0 0 255
-53.175082484963824 -8.928433268534661 -16.460696044914755 5 3 0 255
-53.082925204930120 -7.184723186162216 -16.903946714123549 2 4 0 255
-53.103086274673927 -5.675278701969944 -17.173688620763386 1 4 0 255
-54.758353819597460 -7.771208787679171 -14.879349264251431 0 3 0 255
-37.913010190357198 -16.413008953410440 -33.801011819899060 200 152 129 255
-40.209342714972848 -19.220779789144387 -30.617109387624794 204 153 136 255
-40.762720855516420 -18.785918710006911 -30.068275698616617 202 150 136 255
-41.471971181401727 -18.650599514869384 -29.281903654670259 199 146 135 255
-41.944585380673942 -18.071179284244522 -28.854041885625350 191 138 127 255
-42.494621316029452 -17.642479827163868 -28.307813319857729 187 131 119 255
-42.693843262818760 -16.539984049020035 -28.296111933882173 179 122 111 255
-42.816719453052130 -15.284775288846646 -28.401930729589395 158 106 94 255
-42.670856676449404 -13.497899283868435 -28.920270802627897 122 74 62 255
-42.335794568766133 -11.326168302978516 -29.731110836871665 64 29 16 255
-42.696139222860012 -10.513522536909647 -29.477767281009534 21 0 0 255
-44.051476762193573 -11.681521439718153 -27.694696853454502 52 26 20 255
-46.125417483661721 -14.312633893879280 -24.800413384426975 51 12 7 255
-47.618385816097401 -15.813893410753678 -22.794105827738093 178 134 127 255
-48.535808407050567 -16.175275109450070 -21.671525384611357 207 158 154 255
-49.298688951340438 -16.234660130241622 -20.785444114525944 208 159 155 255
-50.059113246402859 -16.298592699099459 -19.901295248242008 203 154 150 255
-50.629389074344232 -15.979433349106159 -19.310398440213049 200 151 147 255
-50.711977741649108 -14.651843049793342 -19.476696464992472 186 136 135 255
-50.945645234192398 -13.632669621153809 -19.409227644389745 173 124 120 255
-51.031527352746224 -12.299023014259546 -19.572972853174178 164 116 114 255
-51.415757651249933 -11.589236942131720 -19.272157168107924 143 101 97 255
-51.836890845786399 -10.958170193068383 -18.913591242142871 119 84 78 255
-52.515466629883974 -10.879658369039930 -18.151366524928022 40 13 6 255
-53.045302949684668 -10.488440850480231 -17.621107432717963 22 6 0 255
-53.574149593623090 -10.099072266610904 -17.091642362367878 11 3 0 255
-54.065553837371169 -9.632020120503455 -16.620386192671020 3 3 0 255
-53.756845503429304 -7.411838020291611 -17.410808817291667 2 4 0 255
-53.126760211520661 -4.463507474064784 -18.712736988647066 0 3 0 255
-53.477942594676705 -3.668072637292312 -18.466831287526873 0 2 0 255
-52.965978121984719 -0.942214139282555 -19.589711731951923 0 3 0 255
-38.816600513428057 -16.999834099430245 -34.029681501372323 199 152 130 255
-40.749473665022606 -19.142672736017801 -31.376769628401831 206 155 138 255
-41.576409145145391 -19.226430419368342 -30.407797766432680 205 152 139 255
-42.088314097245899 -18.720117205335754 -29.919202804451828 200 147 137 255
-42.443757036859054 -17.916820780275373 -29.669969752385555 195 141 131 255
-42.915765871780209 -17.337697606198731 -29.241820685278867 192 134 124 255
-43.387227417827887 -16.759583652582023 -28.814098440756965 183 126 115 255
-43.665364903235712 -15.806081487653330 -28.683817675509147 163 110 99 255
-43.559813507772162 -14.096336928027995 -29.146103634001491 122 72 63 255
-43.227450011894121 -11.926563581686366 -29.961266526331798 54 17 8 255
-43.357936525154997 -10.659806550209680 -30.063454027794137 25 1 0 255
-44.441888591224583 -11.294297418416676 -28.688738758379174 19 0 0 255
-46.470268302072697 -13.846737233542797 -25.844201525176970 199 161 151 255
-48.109907165040340 -15.652275406834406 -23.596193906588667 198 152 144 255
-48.987305075058316 -15.935844013452709 -22.529302196890455 198 150 140 255
-49.635973770202554 -15.762933464549860 -21.816795901313981 199 151 141 255
-50.207967882850085 -15.438667604952741 -21.222762657798796 198 148 141 255
-50.629311434976273 -14.806696112822806 -20.863553594313572 192 142 135 255
-51.162062306525158 -14.408445301431584 -20.329483898864424 184 134 130 255
-51.545371426659216 -13.700257914754644 -20.029293931339936 171 122 118 255
-51.891653710406700 -12.913981693718114 -19.787323441791358 164 113 110 255
-52.201272587403963 -12.048946491915274 -19.603289025476016 136 93 88 255
-52.474591480943872 -11.104482215867421 -19.476907320817247 94 61 54 255
-53.004998184039536 -10.710644392217944 -18.944749471483846 39 15 8 255
-53.789967204032479 -10.872099806229414 -18.008794050285047 18 5 0 255
-54.608649594446490 -11.117801762914951 -17.017247358147642 9 4 0 255
-54.191343653649241 -8.665642571747696 -17.986758325925734 3 5 0 255
-53.996192026391313 -6.682144566618945 -18.607065010812420 0 4 0 255
-53.876925708293314 -4.851497337939691 -19.109551280426331 0 3 0 255
-53.868731033821092 -3.255206313187728 -19.437454024513130 0 3 0 255
-53.863170816807823 -1.654078182169883 -19.763321593498887 0 4 0 255
-39.835099122346492 -17.807493922162450 -34.074799802535267 198 150 130 255
-41.524820744111537 -19.508212526919891 -31.776178764348202 206 154 140 255
-42.505038735288537 -19.889199887600171 -30.565118269588595 206 154 140 255
-43.015371376363873 -19.384605273041132 -30.076654984982213 202 149 140 255
-43.408725918590847 -18.657700709191403 -29.768451786085535 198 144 134 255
-43.724798105126837 -17.781290063758291 -29.579870893210398 196 139 128 255
-44.156751913335185 -17.129209286514765 -29.211883164388837 186 129 118 255
-44.358198945516762 -16.026142219683294 -29.201720324855501 164 111 101 255
-44.369557904323472 -14.543556731525484 -29.488178140540811 122 73 64 255
-43.925756579526634 -12.148185189515601 -30.485702469217159 40 2 0 255
-44.133294137970509 -11.033868311985316 -30.470772420258868 34 7 0 255
-45.175448804837245 -11.592710659007224 -29.152104687783861 20 0 0 255
-46.855446181312260 -13.457550534220246 -26.831559428711046 101 70 58 255
-48.489553069827934 -15.261041954622101 -24.576512876458480 186 146 131 255
-49.402712567172955 -15.619805730183145 -23.447543412204396 192 143 130 255
-49.975824414257275 -15.291543859926151 -22.850844932406346 197 147 135 255
-50.174860911888857 -14.192980903540956 -22.842616721522205 194 144 133 255
-50.709516939278444 -13.789647307639143 -22.305606269886141 187 139 130 255
-51.354292980162711 -13.621305514336228 -21.593716970773642 179 129 122 255
-52.071186369312258 -13.612025240758385 -20.766262194322508 171 121 114 255
-52.491468797062197 -12.981615850059882 -20.407514863989945 150 96 94 255
-52.874795306527801 -12.273357779159227 -20.107275538019366 130 89 84 255
-53.184969314945960 -11.407983692551568 -19.923442957976079 78 51 42 255
-53.459155103035016 -10.462975664434907 -19.797362955313559 22 6 0 255
-54.169867366415886 -10.465207534994221 -18.974834351386903 12 3 0 255
-54.407801444010474 -9.441076083198823 -18.906735251345765 7 5 0 255
-56.522764118290652 -12.548530517934722 -15.832051322711237 3 5 0 255
-55.066284163070733 -7.786214326811944 -18.479838781060408 0 4 0 255
-54.912227422185808 -5.878802467301057 -19.043850636168713 0 3 0 255
-55.083224476828974 -4.686157904893719 -19.087370683502655 0 3 0 255
-55.184458937856164 -3.330146385105991 -19.244653895261280 0 4 0 255
-54.861885954420174 -1.003451847247391 -20.088476734776691 0 3 0 255
-41.044854965419802 -18.983147004385557 -33.813700841562763 199 150 131 255
-42.337476328568144 -19.947521039468398 -32.113625678190772 207 153 141 255
-43.275439688397341 -20.255181475044736 -30.960339756563542 206 154 141 255
-43.862005892701774 -19.900103140597480 -30.351288820019931 205 150 143 255
-44.293137110369997 -19.249101949371607 -29.983537260388601 200 146 136 255
-44.647122326433305 -18.449082199556869 -29.735986651868302 198 141 131 255
-45.039584472444815 -17.723745892035026 -29.428407715702861 189 135 123 255
-45.355627297659140 -16.848050499048043 -29.240462538324039 167 114 104 255
-45.367627329116345 -15.367900989343582 -29.529774235955585 133 81 72 255
-45.154354446729968 -13.429312919082889 -30.174867528196103 56 18 1 255
-45.247417377687441 -12.090945030219103 -30.340910532197853 46 19 2 255
-45.643924614705895 -11.358142608605647 -30.030170566832624 31 10 0 255
-46.716745248119054 -11.999753271089446 -28.651708908810036 17 0 0 255
