ply
format ascii 1.0
element vertex 658
property float x
property float y
property float z
property uchar red
property uchar green
property uchar blue
property uchar alpha
end_header
-57.347917881442896 -10.473712560908126 -12.099691925380171 0 3 0 255
-57.956397430774331 -10.155883868799478 -12.014323320277565 0 3 0 255
-58.857382074207862 -9.973898627507495 -11.886013812231024 0 3 0 255
-58.392737197013304 -9.173471821108379 -11.958234341197542 0 4 0 255
-57.343082567868976 -8.101499113379901 -12.116419679554436 0 3 0 255
-56.293673102096477 -7.023424055490253 -12.274640849622866 1 4 0 255
-56.901997275511491 -6.709756167386033 -12.189409751999797 1 7 0 255
-54.780522473061723 -5.122502618767498 -12.505255444792517 2 8 0 255
-57.338461824565343 -5.724744523782036 -12.133615569346517 0 6 0 255
-59.311047613991121 -6.064074809741911 -11.847932046414407 0 4 0 255
-58.164615311380686 -4.928995614314161 -12.020644063638464 0 3 0 255
-56.433780410453465 -3.507142213992665 -12.279346453535418 0 3 0 255
-56.359731423762526 -2.873489427057848 -12.294569296069227 0 3 0 255
-56.675409496531358 -2.427975254090910 -12.252524680561550 0 3 0 255
-54.458299425986553 -0.749042037724479 -12.582988856540560 0 3 0 255
-55.358563772760675 -0.585878534726461 -12.455061724649454 0 2 0 255
-10.151512204673793 -27.472776212021145 -19.523023089254032 195 183 146 255
-8.217606992578339 -26.171091780039731 -19.814601526902131 199 170 143 255
-8.932602687430460 -25.666828650746311 -19.712229380808218 201 166 146 255
-10.726334537529397 -25.498663553747122 -19.449364105892009 204 167 149 255
-13.010027187709909 -25.492683766676464 -19.113552219230122 206 169 151 255
-13.233973805777879 -24.853651351171152 -19.084146648797891 209 172 153 255
-14.144215258213677 -24.432874615143902 -18.952612846046570 213 176 157 255
-14.466032377504945 -23.829355633641342 -18.908626480188182 214 179 160 255
-15.179891133279710 -23.353752016920566 -18.806284791846700 217 182 163 255
-15.991613320848018 -22.913834661021014 -18.689359560975682 215 180 161 255
-16.999172724557525 -22.542502994952812 -18.543261498939891 212 177 158 255
-18.006515008793514 -22.176648393198732 -18.397171439182593 211 176 157 255
-18.621702992524405 -21.685736055742865 -18.309449353737101 213 178 159 255
-19.530680897697209 -21.296841148064146 -18.177966236748709 216 178 159 255
-19.949649260000371 -20.747008049107549 -18.119441102868670 217 179 160 255
-20.564434294256358 -20.266282257068440 -18.031745734810109 215 174 154 255
-21.179088956530393 -19.788854511551449 -17.944060239008969 215 172 153 255
-21.597752009679482 -19.246755888466780 -17.885564236532304 208 165 146 255
-21.918407977121859 -18.672615562978052 -17.841668398144236 202 155 136 255
-22.238998484633214 -18.100142383522325 -17.797783629748430 195 148 128 255
-22.755320807158967 -17.598916843072544 -17.724731605958013 182 135 115 255
-23.075759527045676 -17.030305983628736 -17.680870629775164 173 125 105 255
-23.689764659566066 -16.569345968655668 -17.593254223364404 167 116 97 255
-24.205774408912504 -16.076054395086217 -17.520240472984163 164 112 94 255
-24.525965496578863 -15.513746115517208 -17.476419099440797 166 110 95 255
-24.748247392961275 -14.916939326047910 -17.447201207841303 169 112 95 255
-25.557491913820684 -14.539697674373997 -17.330462320481210 169 110 92 255
-26.073094917849289 -14.056745391684700 -17.257506553943990 168 112 93 255
-27.371093477809836 -13.872106574898936 -17.067852274001332 155 104 85 255
-31.407271158491227 -14.736658704045453 -16.469713946446625 184 137 117 255
-38.180727347250325 -16.673058008944579 -15.463090542294573 206 159 142 255
-41.628164939142124 -17.362845883447974 -14.952518240093546 206 158 149 255
-42.728376622521324 -17.158798031255500 -14.792105614647788 152 104 99 255
-44.903704569884354 -17.381967780701615 -14.471226257153212 97 52 47 255
-46.101078407086106 -17.231299101431290 -14.296257272129978 198 153 147 255
-47.298196946750522 -17.087084547083876 -14.121305331454671 189 145 134 255
-48.495060382883537 -16.949319712081987 -13.946370694736011 185 137 126 255
-49.300804020223040 -16.660485407821412 -13.829812135171686 180 131 120 255
-50.008673298911162 -16.336284790164342 -13.727861719183061 173 125 115 255
-50.325616350224408 -15.856148516961824 -13.684289450927537 153 108 99 255
-50.837866340015580 -15.457963008112856 -13.611557488953636 121 80 73 255
-51.643032374270916 -15.183800851038058 -13.495075658391691 76 41 35 255
-51.959717635520235 -14.710261714947720 -13.451564293418535 56 33 23 255
-54.034075084619616 -14.976246678615709 -13.145449896407275 22 13 1 255
-53.374035709550952 -14.098000309821060 -13.247883302784437 11 7 0 255
-54.276236458488796 -13.880511776853368 -13.116893320448767 11 7 0 255
-53.616335254104740 -12.998878215771626 -13.219375325815044 5 4 0 255
-54.518330869704698 -12.786632472971874 -13.088430091416910 1 1 0 255
-54.444157449598549 -12.155678110163890 -13.103416914771053 0 2 0 255
-55.345884396302125 -11.950274784339697 -12.972517063981588 0 2 0 255
-56.052270431578449 -11.663858581731176 -12.870822335183689 0 3 0 255
-57.441472665712325 -11.683233728113450 -12.667009326416832 0 3 0 255
-57.757274333868310 -11.232344953667109 -12.623727587325551 0 4 0 255
-57.682840858263859 -10.608163579508883 -12.638840228912578 0 4 0 255
-58.193636953752673 -10.247139330163876 -12.566426886072655 0 5 0 255
-59.484514559490577 -10.242615473688360 -12.377298032412760 0 6 0 255
-58.727367947806215 -9.310257841851680 -12.494642556861670 0 6 0 255
-57.482895509574035 -8.149521061234339 -12.684987375934483 1 4 0 255
-56.433692304846431 -7.071703318501122 -12.846183244762742 1 4 0 255
-55.774653354066004 -6.169065842989141 -12.949041633298464 0 5 0 255
-56.675275765835295 -5.991976985112132 -12.818429044136998 0 3 0 255
-56.698590590146921 -5.406809367273596 -12.819193508472651 0 4 0 255
-58.086176391208340 -5.467366584136172 -12.615661745040065 0 4 0 255
-57.622176962191844 -4.653596750373453 -12.689463696767639 0 3 0 255
-57.840275158862624 -4.163671105606639 -12.661133483150451 0 3 0 255
-56.499703261682896 -2.923441169871310 -12.866374312940181 0 3 0 255
-56.523101183738589 -2.336497312878933 -12.867310479904447 0 3 0 255
-56.059544348843872 -1.511876840037360 -12.941267754802453 0 3 0 255
-7.611457537049830 -25.252858290919775 -20.635678525003748 188 171 138 255
-10.973961522917705 -25.564060772267894 -20.130075457549459 199 164 143 255
-12.668873280196351 -25.375756146744052 -19.877139613477645 202 165 146 255
-13.088899625079335 -24.797114617214589 -19.817417774037175 206 172 153 255
-12.724604541504448 -23.972643749182637 -19.876596550676133 204 171 150 255
-14.124721631982396 -23.709144719194313 -19.668265604361174 208 173 154 255
-15.132504976147175 -23.327092940357332 -19.519389708402137 213 178 159 255
-16.238067739808230 -22.982345908455841 -19.355659841925295 213 178 159 255
-17.049433471163439 -22.547347235302183 -19.236523067507129 212 177 158 255
-17.664674297090244 -22.052023188479708 -19.147117558500604 212 177 158 255
-18.475713394109562 -21.625273193907319 -19.027997731650281 216 181 162 255
-19.678394448056054 -21.334515470986020 -18.849442025084130 220 183 164 255
-20.195213674684368 -20.818106778911456 -18.774925323569612 219 181 162 255
-20.320193934912879 -20.170696139701434 -18.759862989706910 219 179 159 255
-20.738916403082783 -19.625015827075217 -18.700227204319461 216 173 154 255
-21.255462680765021 -19.115530273095317 -18.625741162554156 210 167 148 255
-21.771900477060797 -18.608794829225261 -18.551266521956101 205 160 139 255
-22.386119572950662 -18.139326045068387 -18.461942942812215 196 149 129 255
-23.000209131359924 -17.673139223074671 -18.372631917853418 184 136 116 255
-23.418433063500657 -17.140109948598365 -18.313055441023415 176 128 108 255
-23.640855901130635 -16.538615077639975 -18.283213720880575 168 117 98 255
-24.058928978091899 -16.009430836329756 -18.223664407249650 160 109 90 255
-24.672588169527614 -15.554171950761329 -18.134408285116990 161 105 88 255
-25.286118839469623 -15.102174092188307 -18.045167243494532 162 105 88 255
-25.801706662945691 -14.617023650411525 -17.970802334091253 163 104 86 255
-26.121580205377512 -14.061227812931861 -17.926174531107826 163 107 88 255
-26.636976378735909 -13.580958555739485 -17.851842142577823 154 103 82 255
-28.814566582996719 -13.736108563684027 -17.524897855871082 139 92 70 255
-35.782496772731236 -15.740059135963648 -16.469805181822672 207 160 140 255
-41.184730888548870 -17.178185011334918 -15.652497784314804 207 159 145 255
-42.578028897959314 -17.086834657123717 -15.444489314791575 153 106 97 255
-43.873288947701667 -16.964728267305020 -15.251358963742597 143 98 91 255
-45.363729641707039 -16.926754559929620 -15.028525234952518 173 129 121 255
-46.756132758736840 -16.858016050837264 -14.820570095365703 182 135 125 255
-48.050530669520754 -16.757698967378559 -14.627493888064890 176 128 117 255
-48.953866072241425 -16.506858615524422 -14.493879284787603 171 124 111 255
-49.759325411100519 -16.221192888574450 -14.375144834586294 157 113 102 255
-49.880890510904834 -15.660387614554253 -14.360456545313333 117 78 68 255
-50.588423699824688 -15.341195804998279 -14.256623657259482 78 42 33 255
-51.491117476862740 -15.106644836713883 -14.123089344094616 72 40 32 255
-52.588907635205942 -14.958349559726742 -13.959853332358612 58 37 26 255
-53.393569193039724 -14.692943303820400 -13.841221807701899 28 18 6 255
-53.417091964570574 -14.101659901855058 -13.841503392125375 17 11 0 255
-55.100000661462815 -14.216423563904655 -13.589162110143150 14 8 0 255
-55.025750291841547 -13.587776295918133 -13.604351645047849 8 7 0 255
-56.610542457487696 -13.673807937576569 -13.366914297413771 3 4 0 255
-57.024054898116503 -13.260236003460705 -13.307841937360145 2 4 0 255
-56.559377875178200 -12.465180755376636 -13.382554506298881 2 4 0 255
-55.899700438690559 -11.581550305120729 -13.487020604250354 1 5 0 255
-56.898464448771790 -11.427706167041734 -13.338851560972905 1 5 0 255
-56.921665741557405 -10.844880196465212 -13.339334947136493 0 4 0 255
-57.432496919563022 -10.480427416052081 -13.265531126138235 0 4 0 255
-57.943227444044538 -10.118555539103923 -13.191753851977651 0 5 0 255
-59.038876120481433 -10.024693114014894 -13.028821647982632 0 5 0 255
-58.769402892263400 -9.313513237829980 -13.074008408369703 0 4 0 255
-57.817631411764665 -8.287106498379870 -13.223277052452936 0 2 0 255
-57.450908299767093 -7.525442638278747 -13.283395948571965 0 3 0 255
-56.402060207865304 -6.444204830129081 -13.447603390502685 0 5 0 255
-56.425399370107556 -5.858362782669971 -13.448333925900009 0 5 0 255
-56.351309390853089 -5.226486048040456 -13.463963516722231 0 5 0 255
-57.056671294453594 -4.962964477246302 -13.360700732145283 0 5 0 255
-57.079974376778836 -4.378213537211366 -13.361531427628925 0 3 0 255
-58.466971362551874 -4.446744178669206 -13.154263739055679 0 3 0 255
-56.639635762953731 -2.973386076441912 -13.437635084587335 0 3 0 255
-55.689181220403839 -1.914483737101207 -13.587251447166913 0 3 0 255
-54.933701502009257 -0.944917533712996 -13.707178259064612 0 3 0 255
-9.358714931743236 -25.055747888445666 -21.097196897524206 179 179 137 255
-10.759378601785386 -24.771408437953070 -20.884994059010758 188 167 137 255
-10.689437149857099 -24.033659659690315 -20.899803813222597 197 167 143 255
-11.207569965699065 -23.481509868187530 -20.823816246240874 199 171 147 255
-12.901575719203720 -23.307490582317271 -20.566233429208694 201 169 148 255
-14.497225808605265 -23.111192963120686 -20.323793465106078 206 174 153 255
-16.288484095831251 -22.987258358264654 -20.051096840021245 208 176 155 255
-17.001722860071652 -22.520148468513113 -19.944875013989275 209 177 156 255
-17.616853306673875 -22.024535243762770 -19.853794882082006 211 179 158 255
-18.427742720259090 -21.597491742381678 -19.732458003657115 218 185 165 255
-19.728129681660619 -21.339331343918033 -19.535467204999676 225 188 170 255
-20.538618258419177 -20.922410698904883 -19.414151288571652 222 183 166 255
-20.467718297851775 -20.208920406009895 -19.429039576497892 218 180 161 255
-20.886348618463927 -19.663492049226051 -19.368275231690035 217 176 158 255
-21.304891779463958 -19.120277206486705 -19.307522194651639 215 172 155 255
-22.016989874394682 -18.682018167459930 -19.201384072240927 209 163 143 255
-22.631066950274942 -18.213065763281449 -19.110391071823607 200 153 133 255
-23.342873752833469 -17.782183199386637 -19.004279154070076 189 142 122 255
-23.565287495295308 -17.179826183490874 -18.973841589083506 182 134 114 255
-23.689820191990918 -16.543255486809898 -18.958549807006868 173 122 103 255
-24.009985295144816 -15.978451464831153 -18.913008308208326 164 112 94 255
-24.623534994753953 -15.522896688483016 -18.822086091675182 159 104 84 255
-25.236956250919292 -15.070602423426052 -18.731179746453087 155 98 79 255
-25.654659542432938 -14.548749517748064 -18.670553437322468 154 96 75 255
-25.876709410421114 -13.955714766385825 -18.640207468218868 150 95 73 255
-26.098717248921076 -13.363768882632712 -18.609878684865180 148 97 73 255
-27.298310293696460 -13.145074837874574 -18.428250172895893 137 90 67 255
-31.821214581450278 -14.207398521594143 -17.732161159603017 162 116 93 255
-39.079889021095624 -16.351715756301772 -16.612402829965383 205 159 142 255
-41.645912543272033 -16.710699794771699 -16.218986470544287 206 160 146 255
-42.941022805058168 -16.585853264219153 -16.022301372023591 181 137 126 255
-45.115238052767666 -16.815095475450605 -15.689449337896932 117 73 62 255
-46.409698482049237 -16.706667357775260 -15.492802233308673 176 129 119 255
-47.996945425533340 -16.722543867621070 -15.250779051122258 165 118 106 255
-48.509405948972272 -16.313896333005971 -15.175225994283558 158 113 100 255
-49.510093005587294 -16.106136261175564 -15.024034018404812 134 93 81 255
-49.338703442535461 -15.424753067345662 -15.054446721255161 80 45 33 255
-50.046162600139780 -15.103907507897944 -14.948693377901144 72 41 30 255
-51.436912958585395 -15.069972564771604 -14.737036647190315 64 36 28 255
-51.655887895363236 -14.554843013207517 -14.706987992539979 49 31 19 255
-52.265274040948128 -14.204710380343059 -14.616433417279900 29 19 7 255
-52.191323502186549 -13.568897994133849 -14.631829507197402 20 14 2 255
-54.849947362513831 -14.095445102338147 -14.223537392697700 15 9 0 255
-56.044292030358690 -14.009426244009660 -14.042254929373115 7 6 0 255
-57.140814429603751 -13.887732354464148 -13.876127751212643 4 4 0 255
-58.041988229210801 -13.687203640343355 -13.740289624388438 1 3 0 255
-58.650330122951914 -13.363599301047529 -13.649875098742648 4 6 0 255
-56.625042964018803 -11.885231014457858 -13.968089361505179 2 6 0 255
-56.453217314344329 -11.215365626832252 -13.998800540179872 1 5 0 255
-56.573988466424510 -10.674585491707731 -13.984139865107402 0 5 0 255
-56.889754879005295 -10.221621111454382 -13.939240073096087 0 6 0 255
-57.692934844425167 -9.989989914573627 -13.818697161530977 0 6 0 255
-57.716082438783502 -9.408656592100471 -13.819257924283079 0 5 0 255
-57.836710399810499 -8.871694718797997 -13.804715101058186 0 5 0 255
-57.664939184471734 -8.200794845274828 -13.835609246026834 1 4 0 255
-58.954985876143155 -8.204403322411679 -13.639504660396483 0 3 0 255
-57.711312711547492 -7.036570436954676 -13.836956400346942 0 3 0 255
-57.637083261147239 -6.408624974537418 -13.852816679035755 0 3 0 255
-56.783534913045713 -5.413070824228782 -13.989804334059265 0 4 0 255
-56.612046072868623 -4.735391280505965 -14.020875698485455 0 4 0 255
-57.998964400463564 -4.798907243926209 -13.809788365557608 0 3 0 255
-56.366614795737377 -3.422887779266404 -14.067994319693710 0 3 0 255
-58.727038922593806 -3.962255968656478 -13.705589997293458 0 3 0 255
-57.289732367610412 -2.672939006471367 -13.933605473506326 0 3 0 255
-8.486954552115378 -23.331821316140619 -21.964911694231816 180 179 133 255
-9.495180781121519 -22.928472710467560 -21.810489800129076 194 175 140 255
-11.972873220920917 -22.999762918083164 -21.425000670969986 203 173 148 255
-13.470344299381338 -22.769179680604580 -21.193572962080488 205 173 152 255
-16.045022976434325 -22.896766103588647 -20.792703442783967 207 175 155 255
-16.366366160621567 -22.300477444891541 -20.746153826998956 207 175 154 255
-16.981450651571549 -21.802954137447770 -20.653399018569864 211 180 158 255
-17.890180099101030 -21.406623343097863 -20.514440727167901 218 186 165 255
-19.190372740995997 -21.146808695863967 -20.313876361615698 221 184 166 255
-20.392380855498345 -20.860911148499866 -20.128728468624281 221 182 164 255
-20.615198691808388 -20.247183582641014 -20.097633251815608 218 178 161 255
-20.935854536993247 -19.668299742587962 -20.051145003768617 220 177 160 255
-21.354316411928522 -19.125065845653282 -19.989264635872040 218 175 158 255
-21.968413303716005 -18.652534692566519 -19.896589340655950 212 166 148 255
-22.680230843470440 -18.217805104409123 -19.788523858681430 204 157 137 255
-23.391897549992905 -17.786896131474052 -19.680472505313652 194 147 127 255
-24.005584825984897 -17.324747237790177 -19.587839219478987 187 139 119 255
-23.934416560369641 -16.618587185094924 -19.603044321281807 177 126 107 255
-23.863269590591102 -15.911917903324166 -19.618263920111744 167 116 97 255
-24.281127320848384 -15.384064903654235 -19.556482674916701 163 108 87 255
-24.992257324479425 -14.966799801962651 -19.448508440433763 156 101 78 255
-25.507687338264276 -14.480518866832725 -19.371357688659280 152 95 71 255
-25.534188463938506 -13.813572848227935 -19.371239740815930 146 92 66 255
-25.951705551136286 -13.294416415119983 -19.309527573699093 142 91 66 255
-26.857853207048038 -12.963497491180789 -19.170819272204149 137 90 65 255
-29.229793970451937 -13.199705494746468 -18.801086411790578 132 86 62 255
-34.630591009892555 -14.619248753612894 -17.953883508277990 208 162 142 255
-39.932499451670736 -16.030436271618328 -17.122104596769120 201 155 139 255
-42.204547243267712 -16.283631251802717 -16.767836206679014 194 150 137 255
-43.792277964778435 -16.279271733029063 -16.521408293904464 143 99 87 255
-45.672703959852583 -16.400024809019257 -16.228791878346819 176 132 121 255
-46.869049211878490 -16.257278790713556 -16.044016514526810 153 110 97 255
-47.869825376284552 -16.042229890531416 -15.890068053805066 109 69 54 255
-48.382157507562880 -15.634324567430909 -15.813156172046746 87 53 38 255
-48.308571005390775 -14.989596825050043 -15.828685131745424 55 28 14 255
-49.211259967155172 -14.746113145559491 -15.690205941683288 62 39 25 255
-50.601831070650121 -14.709700973037386 -15.474733159863881 59 37 26 255
-51.699294908816739 -14.558621098108063 -15.305492450592801 44 27 14 255
-52.210969811529054 -14.167460513318204 -15.228695162714374 28 20 7 255
-52.917706038639039 -13.861458392255983 -15.121115206673579 16 12 0 255
-55.283009599580481 -14.265225523687505 -14.751697316160062 12 9 0 255
-55.111226755604179 -13.594997117277913 -14.782798406130290 9 9 0 255
-55.037042030068591 -12.965678238493950 -14.798523125461884 5 6 0 255
-58.571831282785467 -13.902435989211455 -14.244323797776069 2 4 0 255
-58.984944863073537 -13.494918059423469 -14.183077303550341 2 4 0 255
-56.960038470738255 -12.017366249545674 -14.506969479599285 0 4 0 255
-56.690713330395909 -11.305131741883443 -14.553615064962990 0 3 0 255
-56.518955476552009 -10.634587455864605 -14.584887014247450 0 3 0 255
-57.029644814778806 -10.268707499968158 -14.508354751360152 0 4 0 255
-57.150335541428035 -9.729545614673015 -14.493472805161012 0 4 0 255
-56.881157167836335 -9.013849933898570 -14.540244699580747 0 4 0 255
-57.001863275688947 -8.474419167298763 -14.525427248381270 0 4 0 255
-57.317440424741278 -8.024939624998268 -14.479830138389765 1 4 0 255
-57.925255657645465 -7.712077042933331 -14.388045690248546 1 4 0 255
-58.045846987533878 -7.175712766308678 -14.373325915900026 0 4 0 255
-60.017213105394660 -7.505928136241366 -14.065905075485396 0 3 0 255
-56.339011241445775 -5.186898919059061 -14.652139997112386 0 4 0 255
-55.485899424167059 -4.184909839707643 -14.791611356798107 0 4 0 255
-56.191031563491578 -3.920296663031039 -14.684595265250366 0 3 0 255
-61.666988599789619 -5.946307770989407 -13.822588138522534 0 3 0 255
-59.840057880139142 -4.481609945572401 -14.116252720131122 0 3 0 255
-54.119748798269029 -1.117727776970497 -15.026353012296497 0 3 0 255
-9.967007436618417 -22.348100903090710 -22.461593399430605 184 175 135 255
-12.541839126643367 -22.458799707226277 -22.053602995260697 197 174 145 255
-12.863541162730570 -21.851885845246144 -22.006181153833623 202 173 150 255
-15.045790509322757 -21.856283732853981 -21.660921402879815 205 175 151 255
-16.444234887033247 -21.613799380472798 -21.441083708094119 210 180 156 255
-17.842376811949805 -21.378947161159161 -21.221258497183420 217 185 164 255
-19.142321595768635 -21.118827748990071 -21.017121946923062 220 185 166 255
-20.148333268724372 -20.766296701290244 -20.860025235639419 220 183 165 255
-20.664761629476459 -20.252049878146352 -20.781318510781453 222 181 163 255
-21.572532241074185 -19.875379106460286 -20.639922748002370 221 178 161 255
-21.892996575098181 -19.299770281800477 -20.592591700810218 219 173 157 255
-22.017712940672027 -18.657340357294686 -20.576623559825578 211 168 151 255
-22.338068120962532 -18.084525231761603 -20.529318481995126 204 161 144 255
-23.245277388746160 -17.722078995671723 -20.387978392655008 195 150 131 255
-23.956674965515390 -17.294419196374008 -20.278003595662788 188 141 123 255
-24.081131731015148 -16.658625029420179 -20.262092580263214 178 131 112 255
-23.814416216906125 -15.881023561292537 -20.308895169833747 166 118 98 255
-24.232203953279452 -15.352877038238375 -20.245991851018083 162 112 89 255
-24.845438787311537 -14.899178360204928 -20.151756904963698 154 104 81 255
-25.654056617458082 -14.521542053292535 -20.026191327756308 148 97 74 255
-25.778290020033381 -13.891521320565786 -20.010364391628826 145 93 71 255
-26.097971174158630 -13.335935174832031 -19.963207572121092 140 88 66 255
-26.613035983136285 -12.856397894478604 -19.884721796625705 140 88 65 255
-27.518845649567083 -12.529489418485724 -19.743559652882723 139 87 64 255
-29.694589100249146 -12.698216832281062 -19.398655223191454 129 77 55 255
-35.777510943784733 -14.399705185945649 -18.426809889670736 212 164 145 255
-41.077661348660683 -15.828297223961542 -17.580380087083832 201 155 140 255
-43.153553812164091 -16.013460563352851 -17.251216060812162 193 150 134 255
-44.057089932085717 -15.743949587056875 -17.110162249460409 184 139 127 255
-44.765139101183934 -15.401063776209341 -17.000478494643993 190 149 137 255
-45.668316207785097 -15.140666066820074 -16.859468927964024 59 23 11 255
-46.961810787650080 -15.043654123959357 -16.655785501559855 57 28 15 255
-47.962181460967230 -14.833881998397771 -16.499147302091366 42 21 5 255
-49.157551932349520 -14.709822857697716 -16.311183880695786 47 30 14 255
-50.547857999113376 -14.673091788677809 -16.091895149982896 52 34 22 255
-51.254780220521468 -14.358812765521961 -15.982350344820354 36 23 11 255
-52.059129677739435 -14.089241771333263 -15.857155727880752 24 17 4 255
-53.448686540149566 -14.071490514543385 -15.637938496581981 17 13 1 255
-54.155085668637525 -13.770507740810359 -15.528467962290279 11 9 0 255
-53.495766259978950 -12.888007155194373 -15.638470688574422 6 7 0 255
-52.544012117858358 -11.875425613068117 -15.795528377711271 4 6 0 255
-54.127984331772865 -11.958235908866939 -15.545064973886646 2 4 0 255
-55.516601066298193 -11.964372548369184 -15.325976438141531 2 4 0 255
-56.319935247630468 -11.720681145970261 -15.200965723018662 1 5 0 255
-56.733155060250624 -11.308597115028235 -15.138685097930598 0 4 0 255
-57.341248380789779 -10.985408717642116 -15.045082184324350 0 3 0 255
-57.949219567782336 -10.665346206109390 -14.951508316815477 0 4 0 255
-57.777429774652347 -9.996693589395420 -14.983374558063296 0 3 0 255
-56.826137771108847 -8.972952509736800 -15.140687415334284 0 3 0 255
-56.362235898530940 -8.166186345315197 -15.219654998444057 0 3 0 255
-56.093295216005032 -7.446119586081167 -15.267305605836704 0 3 0 255
-58.259722222184394 -7.850436265774292 -14.923057102420387 0 2 0 255
-61.886698330638524 -8.946267959233793 -14.343664055630832 0 3 0 255
-61.617277214194218 -8.238456323450393 -14.391406472768089 0 3 0 255
-57.063236684725467 -5.511049767960628 -15.129039332384799 0 4 0 255
-53.776012919073395 -3.357679629524100 -15.662919416075262 0 4 0 255
-57.986084187947853 -4.758584479057532 -14.989565137993424 0 3 0 255
-57.717275368460150 -4.035681078206849 -15.037478363280186 0 3 0 255
-53.263087233283642 -1.292361973458867 -15.759676002674205 0 3 0 255
-56.206632103780265 -2.112224535314510 -15.290237969469977 0 3 0 255
-56.424732773462523 -1.618525980341460 -15.259881114601946 0 3 0 255
-15.683908456558299 -22.053848340817510 -22.264292435645480 201 178 147 255
-16.200940211603950 -21.521770842884735 -22.184138300699146 207 180 153 255
-17.500950115811690 -21.253448587129114 -21.976416462017774 213 184 162 255
-18.898554512615220 -21.025106842968185 -21.752761037479225 215 184 164 255
-20.002263459666693 -20.704898894968352 -21.576960834772059 219 184 165 255
-20.225050996661537 -20.089791920070681 -21.544695903891615 221 184 166 255
-20.839166479339013 -19.610632913089404 -21.448656174537696 221 183 164 255
-21.453152119994570 -19.134765494449823 -21.352630072225601 219 178 160 255
-21.871364882290550 -18.593699897817871 -21.288510976580859 215 172 155 255
-22.485112869063471 -18.123864103590037 -21.192513600142242 205 162 143 255
-23.392132148473308 -17.761656224331716 -21.048693126731784 198 153 134 255
-23.907800232046156 -17.264132868570357 -20.968673422423024 185 138 120 255
-24.032245945137220 -16.628051494377885 -20.952453677810766 179 132 114 255
-23.961134163247834 -15.921354389056262 -20.968141585278836 168 120 100 255
-24.183315938482536 -15.321729083957507 -20.936008595502983 166 116 93 255
-24.796441608096188 -14.867731831348564 -20.840110588063553 159 109 86 255
-25.507175158209293 -14.453390836424433 -20.728285858073562 150 100 77 255
-25.631408599334435 -13.822809960012705 -20.712153522172848 146 94 72 255
-25.853336113848684 -13.229717886172864 -20.680095028207788 143 91 69 255
-26.270629481198995 -12.712130716728510 -20.616165875712547 142 90 67 255
-26.883224608535386 -12.271662685025845 -20.520367020347770 142 90 68 255
-27.691057397826171 -11.909927968949148 -20.392699316284045 138 86 64 255
-29.670779204639160 -12.008747283665883 -20.073711308731369 124 73 56 255
-35.654168085404535 -13.688253463452540 -19.100993718720993 191 143 128 255
-40.659750119398325 -15.015055514630404 -18.287752759462201 200 157 141 255
-42.539780895118867 -15.126791563698745 -17.984781007233487 198 151 138 255
-42.954977218832255 -14.662252534182301 -17.921009995877284 195 155 144 255
-44.151034156072910 -14.514797371311829 -17.729701038488919 77 43 33 255
-45.151622539416906 -14.294500795983055 -17.570306258692035 42 15 4 255
-46.249596329556738 -14.119467924167438 -17.394990397460582 36 18 4 255
-48.908709431565313 -14.593198067648686 -16.964574141165777 36 23 10 255
-49.615747086980264 -14.272460244331782 -16.853087921008523 36 24 12 255
-51.103152741206912 -14.281199563499555 -16.614063646024952 27 16 7 255
-52.395133723298983 -14.215995911598355 -16.406954883001326 22 15 3 255
-52.906497984949823 -13.827667423476171 -16.327435966930828 18 14 2 255
-51.954779291663129 -12.819020467944910 -16.487129670078765 12 10 0 255
-51.588408485196254 -12.055690198365369 -16.551179346318904 6 9 0 255
-51.417150294424289 -11.374252717296429 -16.583367541335370 2 6 0 255
-52.415938447850721 -11.199723888410318 -16.424233041165515 1 5 0 255
-54.291919025994076 -11.413994878892026 -16.121609641104861 2 6 0 255
-54.120453344383350 -10.737939929612239 -16.153886512073569 1 5 0 255
-55.703452763469244 -10.837412074310876 -15.899156342347254 0 3 0 255
-58.553052637061313 -11.509898815729983 -15.437143084077270 0 2 0 255
-58.283763427670863 -10.799813711384857 -15.485456307914241 0 2 0 255
-57.722240543297033 -9.956093650599797 -15.581646109304380 0 3 0 255
-56.186610089118346 -8.666666836085042 -15.837348502183779 0 2 0 255
-55.820296657796206 -7.902482922545545 -15.901720322458075 0 3 0 255
-56.330703971378824 -7.538954470030390 -15.822597157806811 0 3 0 255
-58.594070257714947 -7.988788575284730 -15.456436071995924 0 3 0 255
-59.590992103879955 -7.861816508192334 -15.297630998236620 0 3 0 255
-59.127149388477875 -7.056297683503544 -15.378092690164557 0 3 0 255
-54.963754247241440 -4.505306867845434 -16.064673940880262 0 3 0 255
-54.403208573959830 -3.637587352105797 -16.161183665301088 0 3 0 255
-55.984241878630968 -3.787221491350834 -15.906834386259298 0 3 0 255
-59.534569293625680 -4.299703031398835 -15.334415907366441 0 3 0 255
-57.708855624929242 -2.823372250931456 -15.638450088452771 0 3 0 255
-55.883565078005262 -1.336506629588129 -15.942544506915333 0 3 0 255
-56.198946710760907 -0.889749397251975 -15.895747697592178 0 2 0 255
-16.349266445434580 -21.559201351547031 -22.863899602050765 193 189 147 255
-17.453274617339588 -21.225871500910657 -22.685044255180550 205 188 156 255
-19.535600458447249 -21.227459893006568 -22.344017331013909 220 185 163 255
-19.758422707715397 -20.610388920282105 -22.311156707718034 219 183 164 255
-19.883366453175512 -19.961025376086013 -22.294526033377146 225 188 169 255
-20.497404343634798 -19.480762571245705 -22.196817282745748 221 184 165 255
-21.306937793069864 -19.071732953036360 -22.066687069496524 222 180 161 255
-22.018496848368670 -18.632829211042036 -21.952790074240319 217 173 154 255
-22.436531406085635 -18.094215770578799 -21.887561605816181 205 162 143 255
-23.441162736455169 -17.766486601800054 -21.725043932619194 198 154 135 255
-23.761190799350203 -17.198836904026564 -21.676065208830813 186 141 122 255
-24.178913485433839 -16.668159440828759 -21.610885751518111 182 135 117 255
-24.205557052875804 -15.997307801094735 -21.610591943773294 175 127 110 255
-24.623151461228815 -15.469921423979713 -21.545447333583304 167 119 97 255
-24.942933692417796 -14.908583889632354 -21.496538186865507 161 111 90 255
-25.458084737251426 -14.421681007239286 -21.415214533335110 154 103 82 255
-25.484602091177862 -13.754139400865924 -21.414994284683253 148 96 75 255
-25.413425835468900 -13.049665361359516 -21.431010434499790 145 94 73 255
-25.830692658750621 -12.530700930894312 -21.365964340667048 146 93 72 255
-26.345548680263931 -12.051372118596575 -21.284723545063287 148 93 72 255
-27.055624578246949 -11.650232661502343 -21.171072425680869 150 95 76 255
-27.863204367791980 -11.290877944028693 -21.041228204132622 143 89 72 255
-29.256461931125415 -11.165555897193272 -20.814109914338310 118 67 50 255
-33.871226362933669 -12.320198021055319 -20.051878595810230 140 92 76 255
-38.289746058450987 -13.422523261400471 -19.322105924544367 221 176 163 255
-40.364687685899270 -13.610748519128222 -18.981549088369285 195 158 146 255
-42.829575034996253 -13.967745654169562 -18.576151971671905 136 105 94 255
-42.366303402012335 -13.149057787944400 -18.657268276278501 44 21 10 255
-46.294098855251605 -14.123481443458743 -18.008676502088719 35 19 7 255
-48.562416478301571 -14.436426487271930 -17.635786378535848 26 17 2 255
-48.976693088568652 -13.993226609381310 -17.571032541837411 28 18 6 255
-50.463878766110014 -14.000022830103148 -17.327924394532793 21 14 2 255
-51.365543747749598 -13.768927733588981 -17.182141221232420 16 11 0 255
-51.584358411267374 -13.253818396414673 -17.149901346563190 14 11 0 255
-50.535474292767077 -12.199850568325630 -17.328507599667411 9 9 0 255
-50.949356447337749 -11.766830373344703 -17.263893442433123 3 7 0 255
-51.363158309398045 -11.335884344137952 -17.199308844678662 2 6 0 255
-52.946641757002965 -11.415068484165474 -16.940148998924435 0 4 0 255
-53.067746613280576 -10.863671429147914 -16.924275076258915 0 3 0 255
-54.845633089688647 -11.041653865288765 -16.632736711371514 0 3 0 255
-55.941003949136189 -10.927213287074949 -16.454748103107079 0 3 0 255
-57.718204790818021 -11.122544272573535 -16.163263791663333 0 2 0 255
-57.643924920760924 -10.497376905684945 -16.179948562586127 0 2 0 255
-56.790349567775252 -9.519856499274226 -16.326414507283609 0 3 0 255
-55.449951990025539 -8.316176488979139 -16.554012799631195 0 3 0 255
-55.570774645257444 -7.772307412636110 -16.538372748001514 0 4 0 255
-55.496817824452989 -7.139286918078980 -16.555207345021024 2 5 0 255
-57.759830356838137 -7.586612315821625 -16.182815284517694 2 5 0 255
-58.269845839388694 -7.230578945568041 -16.102401635756067 0 5 0 255
-58.098306736100056 -6.557991967274162 -16.135563720113062 0 3 0 255
-56.466719480738334 -5.196304670231555 -16.412072550059726 0 3 0 255
-55.030168170058403 -3.917474141194049 -16.656192877914080 0 3 0 255
-56.318868605788992 -3.929476189844962 -16.446174101222695 0 3 0 255
-61.986143179770579 -6.048472041641844 -15.506216626989506 0 3 0 255
-64.052191321670051 -6.461920500064409 -15.166465896175026 0 3 0 255
-56.778339226119442 -2.354155552967896 -16.384093886006234 0 3 0 255
-55.439909054911766 -1.101976789575232 -16.612237442454443 0 3 0 255
-19.389718430675487 -21.166716727092606 -23.063890708974405 208 189 154 255
-19.808170584876677 -20.615408821051815 -22.997467050799862 219 187 160 255
-20.030906658879303 -19.999460495987577 -22.964035470538008 221 184 163 255
-20.547009727939809 -19.485744012435504 -22.881148674768831 217 179 158 255
-21.454176522749748 -19.110654414821312 -22.732319648836956 215 176 155 255
-21.872238112322691 -18.569275829657869 -22.665952397618263 213 172 150 255
-22.387984835183261 -18.064609054561700 -22.583111781274233 204 163 143 255
-23.196906436432101 -17.667017522594577 -22.450821423924843 196 153 134 255
-23.419155503376004 -17.063487713188096 -22.417480572817361 188 143 124 255
-24.032319275657358 -16.602343593086545 -22.318202770179219 184 138 120 255
-24.254439791903110 -16.002111861845975 -22.284896834253750 175 128 112 255
-24.867389703909652 -15.546416406278396 -22.185656306538881 168 120 100 255
-24.893967998355919 -14.877209763046082 -22.185364040156202 162 114 94 255
-25.311333257297917 -14.353610204682397 -22.119138984225920 155 107 87 255
-25.240184646693365 -13.648841144274414 -22.135373866668409 153 102 83 255
-25.266733820397661 -12.980476436125755 -22.135141295441493 151 100 81 255
-25.586277638677132 -12.423735925418086 -22.085466919926311 152 99 79 255
-26.491680876531831 -12.093475270476091 -21.936889344913645 155 98 79 255
-27.103964250131327 -11.654822671758552 -21.837798308886562 158 101 82 255
-27.618488932099808 -11.181378790075499 -21.755218817682142 152 95 78 255
-27.937665814974281 -10.634042490288479 -21.705638734876999 139 83 68 255
-28.354391827379970 -10.126859716387997 -21.639596241690164 119 66 52 255
-31.406236578549994 -10.670124397755828 -21.128420474244784 89 43 29 255
-34.164651525792578 -11.112799815858978 -20.666734001627511 191 151 140 255
-36.922469166852096 -11.570551915546631 -20.205074465949330 197 166 156 255
-41.240775675872499 -12.677555940055413 -19.479644030724046 83 59 50 255
-45.558141775333098 -13.808266843869305 -18.754239555961639 35 19 8 255
-47.533453552893008 -13.998456293204399 -18.424557777131561 20 12 0 255
-48.045305006634777 -13.592698242683937 -18.342213828568624 25 19 5 255
-48.849628408422888 -13.311727750372228 -18.210435214466180 15 10 0 255
-50.141355766303832 -13.239942268254580 -17.996246738583473 10 8 0 255
-51.530312330810062 -13.216363354057705 -17.765598170017313 8 9 0 255
-51.164104315393502 -12.452798145123282 -17.831756387651978 6 8 0 255
-52.065253458811156 -12.230343278354226 -17.683604226227693 1 5 0 255
-52.088973842494624 -11.634064867452679 -17.683873045480475 2 6 0 255
-53.184765540651227 -11.503398006224543 -17.502804851542919 2 6 0 255
-53.500729179126637 -11.037721470999699 -17.453672171170147 1 5 0 255
-54.693585597798375 -10.959458435465223 -17.256176121635455 1 5 0 255
-54.911908559025761 -10.456096258192943 -17.223595791203017 1 5 0 255
-55.617282846356659 -10.170790226750782 -17.108605311824967 0 2 0 255
-54.764006939359746 -9.190130697395730 -17.257471370789823 0 3 0 255
-55.274475372571487 -8.819901162784461 -17.175528150444883 0 3 0 255
-55.590073860495011 -8.363782664941894 -17.126598302086947 1 4 0 255
-56.100364771249787 -7.998147153014472 -17.044724888934667 0 6 0 255
-56.610556543930898 -7.635070653707473 -16.962886889950894 3 6 0 255
-56.828591060246652 -7.139421700261920 -16.930555809670942 4 7 0 255
-58.020011751302320 -7.097822763969475 -16.733356471237364 0 6 0 255
-57.751214843172590 -6.378802615622760 -16.783554253328603 0 3 0 255
-56.509288512009419 -5.199434496489602 -16.998708525370482 0 3 0 255
-54.489176465161933 -3.643828772619926 -17.345848051689863 0 3 0 255
-55.388493021893339 -3.468554609154367 -17.198283270587126 0 3 0 255
-61.054737364819573 -5.584714140091052 -16.242620649705323 0 3 0 255
-61.564048316368627 -5.244341423912786 -16.161079541991825 0 3 0 255
-56.918146356753340 -2.404279472577983 -16.953729752576727 0 3 0 255
-19.075469710119222 -20.355210974516481 -23.817820599644087 208 197 160 255
-19.982813182874878 -19.971076525022582 -23.666479286388707 195 156 134 255
-21.085530622117631 -19.659249920389854 -23.481632687503101 188 144 125 255
-21.796917942574538 -19.217544230037504 -23.363845623077303 215 171 152 255
-21.726053487408791 -18.505767877579771 -23.380157868641724 209 167 145 255
-21.752961735304496 -17.828001457342666 -23.379724351210335 204 163 141 255
-22.659540200760148 -17.463265912782830 -23.228466287177362 196 154 134 255
-23.468195092608795 -17.068376888050039 -23.093987174764003 189 144 125 255
-24.276678519400662 -16.677837121529535 -22.959527421044847 185 140 122 255
-24.498736482867002 -16.078123364010622 -22.925644866471842 177 130 114 255
-25.209243592938691 -15.658793768118443 -22.807984114118646 172 124 104 255
-25.040412888728468 -14.918125013014176 -22.841177675881859 165 117 97 255
-25.457687224157240 -14.394767623227452 -22.773835534272870 159 111 91 255
-25.288879898563721 -13.653583750161005 -22.807068995544235 158 107 88 255
-25.510738564381256 -13.059069061428147 -22.773287496149450 156 105 86 255
-25.830200644083163 -12.502840369253050 -22.722769514725563 159 105 87 255
-26.540136256855646 -12.098128728986850 -22.605239791491833 163 106 87 255
-27.152300533815207 -11.659441323679943 -22.504493278984931 162 105 87 255
-27.471500721276897 -11.109933707005723 -22.454047524733546 163 106 89 255
-27.497833549598795 -10.447172388050177 -22.453902586218256 148 90 76 255
-27.621760282924640 -9.822942861052795 -22.437024751611702 133 77 62 255
-27.843249008766207 -9.238049626719160 -22.403414910380171 108 58 43 255
-29.918522017518995 -9.396999332195676 -22.051422263285218 81 38 24 255
-32.773819667701900 -9.882162118768562 -21.565390896436512 100 66 55 255
-38.164752654533373 -11.413430859292276 -20.643669668717045 77 52 41 255
-43.456971855239402 -12.934440324138478 -19.738734819550793 34 18 8 255
-43.871698192169333 -12.475838195695061 -19.671748392354935 22 14 1 255
-46.724243698191060 -13.030446142002845 -19.185829090417364 22 19 4 255
-48.991139421748443 -13.356366834350410 -18.800487942111879 20 16 4 255
-51.160051499547706 -13.653658206385941 -18.431932753383570 12 10 0 255
-51.183852224467245 -13.055163606961585 -18.432095115180637 4 5 0 255
-52.767227364985501 -13.120984858768693 -18.164148750180814 3 4 0 255
-53.375641009075935 -12.777421453707575 -18.063819228481464 2 6 0 255
-52.911964177233898 -11.974298916067326 -18.147869032112361 1 5 0 255
-53.227927555894553 -11.507061718145110 -18.097880406277902 1 5 0 255
-53.543832820358517 -11.041346757554223 -18.047924641971932 0 4 0 255
-54.054518867748129 -10.662899863352905 -17.964483570401939 0 4 0 255
-54.078061526308915 -10.071314912970607 -17.964873721304230 0 4 0 255
-54.199009246935901 -9.523029193971169 -17.948539946151769 1 3 0 255
-54.222555987170637 -8.931473802617006 -17.949002325980253 0 3 0 255
-54.830368140509620 -8.603533790376332 -17.848940835662695 0 3 0 255
-56.509079492843284 -8.765214445568589 -17.564549571698258 0 3 0 255
-56.727112356764479 -8.268472518102229 -17.531598845005767 0 4 0 255
-54.998232437076723 -6.877273374828533 -17.833906172835675 0 3 0 255
-56.699749517077578 -6.466649720877470 -17.550309506152288 0 3 0 255
-55.166114401776895 -5.151230156528655 -17.819232906807052 0 3 0 255
-57.330263429665280 -5.569386746385248 -17.451242318299826 0 3 0 255
-57.450858731909108 -5.030675133998486 -17.435295099973665 0 3 0 255
-53.096602955055744 -2.358115024861732 -18.190493025090198 0 3 0 255
-58.979670812167910 -3.979885697458656 -17.186547572196758 0 3 0 255
-56.474434575773643 -2.171130463341427 -17.623410695949801 0 3 0 255
-20.325854593525946 -20.076435696830870 -24.301291352523954 169 156 115 255
-21.526085724937985 -19.799078545113119 -24.096390983028947 146 106 79 255
-22.041783047089297 -19.290494244382060 -24.010731962755550 146 101 80 255
-21.970914745181403 -18.579244842545421 -24.027279152211484 190 149 129 255
-21.802335077278116 -17.832992660158069 -24.060872659905797 201 160 142 255
-22.415570077250266 -17.363898233018830 -23.958231413197247 196 153 135 255
-22.930965539127527 -16.863032306242616 -23.872640119950979 191 146 127 255
-23.739354180791679 -16.470839733952843 -23.735975255500378 183 140 121 255
-24.156814152992922 -15.940653443187230 -23.667454196037504 176 133 114 255
-24.769546213033237 -15.484357147998978 -23.564892082475765 171 124 104 255
-24.893810678695814 -14.850695904313028 -23.547503663109488 169 120 103 255
-25.311026332871279 -14.326770436558192 -23.479044939473788 163 116 98 255
-25.337571377227675 -13.658357287865755 -23.478729171873347 158 111 89 255
-25.559389408460362 -13.063816639124298 -23.444375148083978 160 109 88 255
-25.878791281491289 -12.507559354924439 -23.393014271377893 166 112 92 255
-26.393359435697533 -12.027863824809600 -23.307617701488702 170 115 95 255
-26.907822517028592 -11.550857734727629 -23.222246232240146 170 115 96 255
-27.422180761504052 -11.076536316095513 -23.136900502274841 166 110 93 255
-27.643687819125290 -10.490045529945931 -23.102670028904498 158 99 83 255
-27.572440434277723 -9.788951617251868 -23.119554915918663 145 89 73 255
-27.598778374726180 -9.126111864074275 -23.119437383565206 123 75 57 255
-28.503069928859730 -8.815072533906061 -22.966082507348339 95 51 35 255
-30.187486446565146 -8.823753375097695 -22.676521220011942 72 34 21 255
-37.065879359285304 -10.305000837535317 -21.484428611221411 45 26 15 255
-41.186505255739917 -11.355099311457096 -20.769220777820628 19 9 0 255
-42.673832037915560 -11.335870676828378 -20.513837701317577 13 9 0 255
-48.937637761266330 -13.319593709136811 -19.424037892865556 20 16 4 255
-50.813703597009834 -13.493598120681369 -19.100593893183493 15 13 1 255
-52.299509846571453 -13.512782523189671 -18.845297455433887 7 7 0 255
-53.005371904085820 -13.207810428588303 -18.726268394095378 2 2 0 255
-52.834105158039705 -12.530400867194857 -18.760538932668211 1 5 0 255
-52.760319256165047 -11.893885336335330 -18.777813210820305 1 5 0 255
-53.465930446337609 -11.595402595344936 -18.658881308228558 0 4 0 255
-53.879166349265745 -11.172792481424452 -18.591072822823591 0 4 0 255
-54.487122309807006 -10.837987277657831 -18.489237828218158 0 4 0 255
-54.315845033474318 -10.161159067060282 -18.523681185706387 0 4 0 255
-53.852483771634724 -9.352886459801539 -18.609254354535530 1 3 0 255
-54.362911550084277 -8.978638798503525 -18.524557960823053 0 3 0 255
-56.138875404366189 -9.178393644425498 -18.218492772855242 0 3 0 255
-57.719768038386576 -9.299300568318714 -17.946520858564966 0 3 0 255
-56.088267855183545 -7.960315708541401 -18.236625337263682 0 4 0 255
-53.386576229075672 -6.119527850131860 -18.714131092912005 1 4 0 255
-51.269378744604893 -4.533650435466555 -19.089501550157202 0 3 0 255
-57.859080438684174 -5.801755392677279 -17.950537165385128 0 3 0 255
-57.882333951709029 -5.218231270841628 -17.951356788061219 0 3 0 255
-58.100117262619847 -4.727305134711500 -17.918153405443121 0 3 0 255
-59.484852381607851 -4.797253586549274 -17.680580529462382 0 3 0 255
-56.201880051140336 -2.621619150451380 -18.260718213760661 0 3 0 255
-56.905963075789373 -2.362860158926424 -18.142483930627797 0 3 0 255
-54.693421622437739 -0.683275330620404 -18.535368035732631 0 3 0 255
-21.673244594174520 -19.837848664719019 -24.760843569754847 122 107 68 255
-22.188830820224211 -19.329509558307052 -24.673791931673271 110 71 48 255
-22.508862624980281 -18.755448855011267 -24.621363172737475 136 93 75 255
-22.144841625649832 -17.941528214692070 -24.690070186481343 172 129 109 255
-22.953328378216042 -17.542760397622544 -24.551162278460900 184 141 122 255
-23.175496744688076 -16.938088007936244 -24.516088515115058 183 141 122 255
-23.886024543254592 -16.511088299919791 -24.394522908741216 182 139 120 255
-23.912714668373752 -15.838814648953672 -24.394092184999401 181 136 117 255
-24.134723365250522 -15.238267372870283 -24.359077438393157 174 129 106 255
-24.454338280094390 -14.674939169755390 -24.306782026053710 170 123 105 255
-24.578614778294479 -14.040458811875070 -24.289111572239328 163 118 97 255
-24.605244239241927 -13.369864759416771 -24.288764616460632 161 115 92 255
-24.827107462830440 -12.773138582597312 -24.253837911990821 163 115 93 255
-25.536956648539274 -12.363500021313044 -24.132429724381247 169 119 99 255
-25.953873640528542 -11.845219577358051 -24.062950285511498 177 121 104 255
-26.468291075921400 -11.366829596544193 -23.976195781731107 176 123 105 255
-27.275323562769131 -11.005157517323255 -23.837565603870203 180 124 107 255
-27.594374509511340 -10.456377855080390 -23.785466765057215 166 107 91 255
-27.718260443878080 -9.832090746332867 -23.767996876836484 156 99 82 255
-27.647045960031591 -9.130671778016151 -23.785156312126446 134 86 66 255
-28.356099387581736 -8.741405133022212 -23.663940258960018 109 62 44 255
-28.577408180802365 -8.159073135160682 -23.629256876085428 80 38 22 255
-29.773767255686465 -7.974082918238366 -23.421599250445617 63 28 15 255
-32.627342287755880 -8.473833183911353 -22.919865107950926 60 32 21 255
-38.112460714339647 -10.073795826972372 -21.951049835924934 44 21 9 255
-44.571148950666696 -12.108346198721577 -20.809259999803139 20 6 0 255
-44.693135991420121 -11.532276252409602 -20.792032466075533 11 12 0 255
-49.687868991148690 -13.005719727301909 -19.909808662761804 11 14 0 255
-50.783731601255454 -12.856600825348565 -19.719637033171850 16 14 0 255
-50.417856971290604 -12.090529622588335 -19.789007507072618 9 9 0 255
-50.636612216926949 -11.572960440570085 -19.754607716498761 1 3 0 255
-52.413926873876704 -11.729365999552201 -19.443427693790504 0 2 0 255
-53.314247221226140 -11.514419129873403 -19.287987913895122 0 4 0 255
-53.922208339136375 -11.176430384265629 -19.184485053779959 1 5 0 255
-54.237907259669839 -10.712961773691319 -19.132920859835103 0 4 0 255
-54.748287297075507 -10.337288615444137 -19.046789919700750 0 3 0 255
-54.479699336718284 -9.616894828420470 -19.099108552143328 1 3 0 255
-55.574051742526706 -9.506326751227320 -18.909240733612478 1 5 0 255
-56.473501400039197 -9.313671208391128 -18.754011787513342 1 4 0 255
-57.275439319431285 -9.081524930582972 -18.616121025997266 0 3 0 255
-52.238290243333211 -6.183820393820625 -19.516424144854660 0 3 0 255
-51.775587959632020 -5.361833201098619 -19.603561715928826 0 3 0 255
-52.188647408035308 -4.942314129437051 -19.535016840267211 0 4 0 255
-58.072692986155005 -6.479395513706663 -18.498251806022353 0 3 0 255
-57.123302312615209 -5.438048252051004 -18.672074355931649 0 3 0 255
-57.049393955368402 -4.806188076340774 -18.690208596854426 0 3 0 255
-59.017554178360200 -5.147843589885355 -18.344984822728144 0 3 0 255
-60.596377156305095 -5.313496813175718 -18.069013218787980 0 3 0 255
-59.258320459256282 -4.079560791177059 -18.312252057837625 0 4 0 255
-55.198773384143550 -1.516007453245791 -19.040130915199903 0 4 0 255
-22.335834581736151 -19.368556403294647 -25.336264372930763 93 89 49 255
