ply
format ascii 1.0
element vertex 656
property float x
property float y
property float z
property uchar red
property uchar green
property uchar blue
property uchar alpha
end_header
6.014505317951148 -22.662373744274532 10.970626404337139 189 144 125 255
5.776715959473819 -21.712129745121956 11.135388543572844 184 142 123 255
6.073232582570711 -20.024626563653811 10.829978380830028 176 138 117 255
6.580146126422846 -18.036138036682871 10.339045863898036 168 132 108 255
6.816713554426457 -16.410453100485142 10.085632078126878 158 125 100 255
6.944158884991509 -14.928095674700955 9.927974415828373 146 114 89 255
7.599331209967943 -12.696427318798243 9.305201019266121 138 107 79 255
8.249696967504434 -10.455967964363850 8.686109003654707 129 99 73 255
8.789725111489815 -8.356607609974873 8.163709075092470 122 90 67 255
10.220390027151353 -4.971506398831366 6.855613915361005 113 86 64 255
-1.100319490847340 -2.770920951054904 16.195448892994079 169 113 96 255
-2.213835129397069 -3.133831597677954 17.134353517801458 205 153 136 255
-2.816905829615280 -2.715765048333424 17.621432750779434 200 156 137 255
-3.166061696531244 -1.904809900944258 17.883608593651616 165 129 107 255
-3.162214506584149 -0.539276200299298 17.832820067580712 111 96 65 255
33.437624262994177 -19.478934967511805 -13.231047766939128 209 171 152 255
32.264230653149468 -19.554889041819223 -12.246820166877001 208 166 147 255
31.601324262408525 -19.024898467069306 -11.711606873167170 205 160 138 255
29.645951834841611 -20.065774237543053 -10.038363877908921 200 159 134 255
26.799372686936920 -22.213918350668337 -7.579538489833141 196 155 132 255
26.315134220560338 -21.497634676800317 -7.200633638777163 198 157 135 255
24.993114669301576 -21.815244927464505 -6.083494061743778 200 159 139 255
21.835321143539431 -24.420839804575650 -3.347849675953341 200 159 139 255
20.469649646425694 -24.829800835854257 -2.190941524697053 199 158 140 255
19.219203263319741 -25.107398525885003 -1.135207273911419 199 161 142 255
17.917099422773646 -25.461638064347795 -0.033510678512897 201 163 142 255
16.729487392697081 -25.683167993376458 0.967578375171030 203 167 145 255
16.096743038519548 -25.208792586381634 1.479273110905609 206 170 148 255
15.465036336430984 -24.736346728787169 1.990143690210459 211 175 153 255
14.834367824352938 -24.265830487466076 2.500190551068243 217 182 160 255
13.766560907855791 -24.364467017139987 3.396511344367696 219 184 162 255
12.537797201714653 -24.681993197669158 4.435386713511036 218 183 161 255
11.530870947511005 -24.720968707302774 5.278577235153591 215 183 160 255
9.982635554498017 -25.480744527568703 6.600687578327950 216 181 159 255
8.602441645504797 -26.034658579298906 7.774751976424056 220 184 162 255
7.443351724439083 -26.308674701383211 8.753698654831538 222 184 163 255
6.828138651679950 -25.866639029505961 9.251710416142203 221 180 160 255
6.699223963893644 -24.774312781566181 9.319332162350520 209 166 147 255
6.300175144203109 -24.043347032007460 9.626007346793926 198 155 136 255
6.223232669755021 -22.875025953607945 9.647359542842480 186 143 124 255
5.502271132111275 -22.581823545826495 10.239159473647874 185 140 121 255
5.423995108107562 -21.411093302625460 10.261505385324256 183 139 120 255
5.184397853593623 -20.458574182032550 10.426696107271823 177 137 116 255
5.475994299667548 -18.766764793066358 10.120704540894394 168 132 108 255
5.870615944594306 -16.921222272857506 9.722935613436050 161 127 102 255
6.102821495998256 -15.291883073911208 9.468855013893517 149 117 92 255
6.649091858989806 -13.210453794391128 8.935635649165391 141 110 82 255
7.191043748482741 -11.121126225660447 8.405723824454924 131 101 75 255
7.886408544735815 -8.799128825695675 7.739019345572189 122 90 67 255
9.520916136640494 -5.115246655287194 6.237266631049579 110 85 62 255
-0.406731623381518 -0.802375310349817 14.374366093842298 165 113 94 255
-2.381435076000031 -2.493519122564408 16.086948893722763 179 124 107 255
-3.489890147735565 -2.860477227759532 17.026805255442412 205 153 137 255
-4.091007839135756 -2.444431497654136 17.513826506861818 194 148 130 255
-4.087899968991536 -1.080395292165122 17.460962712944024 150 119 94 255
33.151922618640327 -19.079035110390521 -14.281035677083253 208 180 151 255
32.092750264003513 -19.017636389049443 -13.393363071036845 207 171 149 255
30.643121346531075 -19.437099543801509 -12.159205342213937 201 162 139 255
28.581408163732107 -20.614912188065148 -10.381697287373612 198 159 134 255
25.184595922679506 -23.447915528676873 -7.418930748644556 194 156 133 255
23.977190728896971 -23.627754530037066 -6.397592910133199 196 159 136 255
23.274408456613571 -23.194204921860035 -5.823819744518829 204 166 145 255
21.517262748887021 -24.075765512125486 -4.313713543420590 204 163 143 255
19.488854215341263 -25.314797298319803 -2.561997767570887 206 164 145 255
18.186698368723285 -25.662952550199236 -1.454709661847716 208 165 146 255
16.998899790332189 -25.878888051965674 -0.448608224576958 204 164 143 255
16.200081383798675 -25.611322598767629 0.212082161201039 204 167 145 255
15.677779076105111 -24.995974971108325 0.627064356488006 208 171 149 255
14.717411430286120 -24.945142430466660 1.431757861082303 210 175 153 255
13.759548498297534 -24.898926370010400 2.234500110438177 216 181 159 255
12.749607870938291 -24.928208759940588 3.083873990715546 219 184 162 255
11.633495576643213 -25.104766553594743 4.028086758867659 217 184 161 255
11.009666010475968 -24.645308722151839 4.534239448009373 213 181 158 255
9.844713844839418 -24.903318467799721 5.522574624704703 214 179 157 255
8.520960685600244 -25.383061941001813 6.652831755215630 218 182 160 255
7.363337551812435 -25.654543065214909 7.635491561833192 220 184 162 255
6.586146219631928 -25.426848945279204 8.279324368225616 220 179 159 255
6.133096073952572 -24.767732153162086 8.634226174577066 214 173 153 255
5.465929976689296 -24.399885954013911 9.180198802752443 202 159 140 255
5.388374407265729 -23.232564508291063 9.200054545626585 189 146 127 255
4.935885082755362 -22.574528052929480 9.554476185517416 180 135 116 255
4.909627611411821 -21.330339523221113 9.528244360213478 176 133 114 255
4.563018879814706 -20.524551158761852 9.787998271725485 173 132 112 255
4.428218562213118 -19.423297837707935 9.858424599796052 166 128 105 255
4.715263087106337 -17.727853769279022 9.551571430050615 163 128 103 255
5.157464586825341 -15.804036592197946 9.105563769433900 151 118 93 255
5.806358483813028 -13.575380824198959 8.474162364847757 145 113 85 255
6.397938258741220 -11.412615655803705 7.893431623329946 134 104 77 255
7.299282203168502 -8.792082717328100 7.034827838613296 120 90 64 255
9.135387203136503 -4.808242829773178 5.338421505427561 104 81 56 255
-2.249808984617630 -1.382814482376773 14.763578787015120 165 112 94 255
-3.961233576387087 -2.690441718269085 16.251274163016262 184 131 113 255
-5.013701672436042 -2.983866379522397 17.146310903361041 189 136 120 255
-4.861101098766710 -1.383921478012951 16.956013100158998 166 124 103 255
32.030014445627671 -18.345349600680265 -14.643700558749458 205 179 149 255
30.302569076624110 -19.101702614261740 -13.154946587403856 199 165 139 255
28.301508330684669 -20.209381832890102 -11.421073501049875 200 160 137 255
24.913919183598011 -23.039716322082114 -8.447260663964130 197 161 137 255
23.597109802395067 -23.354922872462481 -7.323050380717007 201 165 141 255
22.284270953188070 -23.677441154242388 -6.201927320003733 208 170 149 255
20.643179672252614 -24.421695576895246 -4.786715494780395 208 170 149 255
19.118022888806991 -25.037359334667940 -3.474588374521659 211 170 148 255
17.763193001367227 -25.453567334096249 -2.314321094635545 212 170 148 255
16.247566980621713 -26.086760134718531 -1.009584210983292 207 166 146 255
15.669876825190727 -25.539611714671935 -0.544280949192682 206 168 147 255
15.038221165582797 -25.064136885251855 -0.030555214149501 207 170 149 255
14.462241630530173 -24.520177892721051 0.433381533427564 210 174 152 255
12.960300275615964 -25.178560171670085 1.727488159852101 215 180 158 255
11.735271851182659 -25.491722650493330 2.773880230273363 217 182 160 255
10.622511614925429 -25.669565579845141 3.720017306275679 216 181 159 255
9.946179465680189 -25.282884841684506 4.274929284703148 213 180 157 255
9.379185252653571 -24.755512880527391 4.731842036500694 213 181 158 255
8.058322431784887 -25.234225251696387 5.865741373190758 215 180 158 255
6.903021303420786 -25.504736542023522 6.851458356610806 216 181 159 255
5.858522599014321 -25.637237111394427 7.738052581331317 216 178 157 255
5.513018697719247 -24.833675440920189 7.996769336113800 214 176 155 255
4.740002848529031 -24.611016398034906 8.639815762982323 205 164 144 255
4.501706690278951 -23.662872956821815 8.802159739141871 194 152 132 255
3.943708064696722 -23.152115898508612 9.252032200805132 182 139 120 255
4.129218615949924 -21.616331298405640 9.032848974863839 174 131 112 255
3.782824202963695 -20.811219854860326 9.292174610838288 168 126 107 255
3.753095007214057 -19.563187777318376 9.266278781506287 163 122 100 255
3.721726574039110 -18.312165588749906 9.241631056221593 158 122 98 255
4.319480054834884 -16.167576928311291 8.649789694123484 153 117 93 255
5.017554970431121 -13.865767140115679 7.966891167827271 147 113 86 255
6.024500875906966 -11.106755164209488 7.004765164875352 137 106 78 255
7.024939086172481 -8.335831536688943 6.047632129323262 125 97 68 255
8.227176217653323 -5.252570201026856 4.907508440422248 101 79 52 255
-2.375136792097749 -0.665007889124581 13.662278654227691 176 129 109 255
-4.333466397964770 -2.363240979985903 15.383508687639676 160 109 91 255
-5.534065474599686 -2.891972176365300 16.417803264580158 152 100 82 255
-5.683071013547931 -1.766496832122471 16.497479234509171 163 116 98 255
31.683483912916387 -18.012086993448918 -15.646976712752405 199 194 151 255
29.792316684549291 -18.970389916209911 -14.002535814471628 202 173 144 255
27.350866985673690 -20.622033291703787 -11.862061355967455 197 167 142 255
25.473758182078598 -21.606182509571823 -10.228512163155415 200 166 141 255
22.882536331212805 -23.493960137623930 -7.951072508856782 206 171 149 255
21.738792023364908 -23.609875561469437 -6.976329674765907 213 176 157 255
20.156838408022026 -24.284162485447723 -5.606314527681775 214 176 156 255
18.690195843260909 -24.829451787197286 -4.339586317574799 213 174 153 255
17.228258005349403 -25.383395057699204 -3.076507123932345 213 172 150 255
15.935467288758304 -25.736822431564036 -1.965401613169774 212 171 151 255
15.357643570829197 -25.188248544463022 -1.498901150079604 209 171 150 255
14.780614479360452 -24.641157979283832 -1.033037091558697 206 169 148 255
13.986590023694703 -24.377129602068976 -0.371169674245266 209 173 151 255
12.433781336116340 -25.105035009620622 0.976232396023988 214 178 156 255
11.482402471919073 -25.063216128710792 1.780925279464270 216 180 158 255
10.425366812433253 -25.168145423972646 2.681424313026525 216 181 159 255
9.749039749410940 -24.779555864023365 3.238110406808914 216 181 159 255
8.804812112192337 -24.750911015090963 4.037238285844467 216 181 159 255
7.433369470265177 -25.300776751422489 5.223189141282575 216 181 159 255
6.280757236936751 -25.570989049996001 6.211682467729588 217 181 159 255
5.452452916131904 -25.414494151820918 6.907028733714242 216 178 157 255
4.892911296143922 -24.899674680122303 7.359232726260416 215 177 156 255
4.014804381460948 -24.822122272082254 8.100132751999695 210 169 149 255
3.510694744267113 -24.238745807058081 8.502388349860269 199 157 138 255
3.219071960607494 -23.364087108753608 8.712069751795212 188 145 126 255
3.244196062735512 -22.048862160395402 8.634423192088377 179 136 117 255
3.161957657264367 -20.877250094831396 8.653903678718734 173 130 111 255
3.078323815901911 -19.703094720803676 8.674444705624524 165 124 102 255
3.150782377623699 -18.304482025673963 8.553070924064542 158 120 97 255
3.587733256029367 -16.382625047732375 8.100366064528657 152 116 92 255
4.177610617906936 -14.230508837707987 7.508181933042010 146 112 85 255
5.492753625317334 -11.025077360261776 6.256207066078957 135 104 76 255
6.487877106658289 -8.254241024354371 5.294053343967335 122 94 65 255
7.839703781765337 -4.945887194036857 4.006559544099588 103 80 53 255
9.752739768423993 -0.794095484736431 2.207302658271146 49 36 15 255
-3.958478919694471 -0.856542387477020 13.828304814196031 163 115 93 255
-5.606816824501379 -2.090358992506822 15.278036330080937 140 89 69 255
-6.304745890142158 -1.832585866954673 15.858402499695700 141 94 74 255
-6.554962786021918 -0.863718091175031 16.028877236868141 147 110 86 255
27.289764239370641 -19.944398844128727 -13.105923957483014 198 168 143 255
23.423382137104113 -23.386408658378599 -9.658950668020594 202 170 145 255
22.941601008799154 -22.672861849649991 -9.280298790878703 213 178 156 255
20.861833382630948 -23.955281372342654 -7.451518358617193 216 181 161 255
19.449354940991213 -24.422925736386219 -6.227492857784995 215 178 159 255
18.151075049064019 -24.760268807288440 -5.106579865554465 215 177 156 255
16.802020168640809 -25.174400513965480 -3.939020383483694 216 178 155 255
15.730304055475983 -25.247776534932484 -3.022917687681002 218 177 157 255
15.206605542668171 -24.627402971279992 -2.604574388185796 211 173 152 255
14.411557204072523 -24.358818100772169 -1.939434963343132 206 168 147 255
13.672540043753941 -24.023134513116929 -1.325038764724241 208 170 149 255
12.068877770792483 -24.819851024978647 0.076331539802226 214 176 155 255
11.064804217507401 -24.847514258496659 0.932659450057741 215 177 156 255
9.794022643292067 -25.235471191533577 2.032214067506004 217 179 158 255
8.957369201470556 -25.060571783058322 2.736860363318272 217 181 159 255
7.854495827428309 -25.246858724790513 3.684359574876936 216 180 158 255
6.487233047947512 -25.797686045914958 4.873304056896700 217 181 159 255
5.338042520053392 -26.068941087924316 5.864011111140684 219 182 160 255
4.725148933338829 -25.624953760597521 6.365987810003020 218 180 159 255
4.166456596618588 -25.110505617198896 6.818636964470755 216 178 157 255
3.502486930626702 -24.742759114567889 7.367488099632567 212 171 151 255
2.998550079040086 -24.158881214748305 7.770369099421117 206 164 145 255
2.759136365438877 -23.210744326201734 7.931668290472970 194 151 132 255
2.729745670859870 -21.968278815797618 7.900927135061579 184 140 121 255
2.541065856146020 -20.943337746448719 8.015556055072068 176 131 112 255
2.456334972418830 -19.769291037400421 8.034976709343397 167 125 103 255
2.527128748828659 -18.370847942194644 7.911898383009998 159 119 97 255
2.961089469131679 -16.449302102303903 7.456125912639607 151 113 90 255
3.339158277275914 -14.595148167479039 7.050954337893216 146 110 84 255
3.921406320150709 -12.435953162196967 6.458240850895152 132 101 73 255
5.639119606268650 -8.621853557686734 4.824491605002407 120 90 62 255
7.605407814925798 -4.414265817530236 2.961431535560450 106 81 55 255
-5.435586228433408 -0.894981254700838 13.904945859704583 130 79 57 255
-6.777903700795036 -1.661505444380566 15.082153616353082 150 100 79 255
-7.226559106541202 -1.009222371220972 15.434805575000468 141 95 74 255
24.404626660053452 -22.741035914041220 -11.779115295665491 201 172 146 255
23.478846550115549 -22.568849495553309 -10.994803816070373 209 177 154 255
21.619544170040740 -23.566386731836161 -9.357114517525190 214 182 160 255
20.315896564844650 -23.887862919062997 -8.226482688434828 220 185 165 255
18.906618028139434 -24.354671888374497 -6.998708666439882 218 183 163 255
17.283083502188731 -25.106625833177361 -5.574315821406287 217 180 159 255
15.992330003510006 -25.451829967494604 -4.453694263707888 218 180 159 255
14.868853141124134 -25.595296677275940 -3.485652611104854 220 180 159 255
14.183116713865275 -25.185477395469434 -2.918033091708082 214 176 155 255
13.932189030113506 -24.216996320023327 -2.748577448871828 210 171 150 255
12.869566238834182 -24.302625213083758 -1.835380806763595 208 170 149 255
11.378368469620455 -24.958393087166854 -0.528865131321766 210 172 151 255
10.268888699423485 -25.127642963374143 0.428286327599551 215 177 156 255
9.108945967654108 -25.373878403226598 1.432191746714068 215 177 156 255
8.434706621228997 -24.985275411452960 1.990830717998847 215 179 157 255
7.066799443335725 -25.528200672216343 3.186501102414383 215 179 157 255
6.236710817083804 -25.362351066075320 3.888860320910709 217 179 158 255
5.142570542763480 -25.559821546179194 4.834109892556143 218 180 159 255
4.370220175074707 -25.330381283880058 5.484060722043523 217 179 158 255
3.599643847965723 -25.104209915139961 6.132630321899882 217 179 158 255
2.989385755600949 -24.663533498092420 6.633987521255079 214 173 153 255
2.643800844789382 -23.860711052007701 6.891943755574204 208 165 146 255
2.298039296350112 -23.057579873579698 7.150021994518369 198 155 136 255
2.109548581953874 -22.034356133636805 7.263234790154854 189 145 126 255
2.024871698015801 -20.862514140438407 7.280661966656794 180 133 115 255
1.886561923139681 -19.761837602099575 7.347291781512752 168 124 102 255
2.059803364035389 -18.215479081419090 7.126506565693148 160 119 97 255
2.438413905280242 -16.367729432877013 6.715902032428403 153 112 90 255
2.346579894844211 -15.182817518999229 6.738792223757002 145 108 82 255
2.719117658351990 -13.323959214459620 6.332840552507264 132 101 73 255
4.172298621493923 -9.887248234123405 4.928494024193071 122 92 64 255
6.904488185345258 -4.558447696575968 2.341331146653090 102 75 50 255
-6.857641639098233 -0.858163070571436 13.937495879516490 141 90 69 255
-7.651790936512072 -0.758356053816783 14.612040511450232 123 75 55 255
23.804233267846996 -21.410285977278846 -12.588776471524966 213 183 159 255
21.124847892591333 -23.431356898816745 -10.186799514787225 221 190 168 255
19.550228792640297 -24.095641615986324 -8.800695732138024 220 188 168 255
18.199251788674104 -24.493522334778191 -7.619858865551407 221 185 165 255
16.743512599849907 -25.037591321236135 -6.341865344924855 217 181 159 255
15.075009665652033 -25.868067926630999 -4.867036447217288 216 180 158 255
14.117377225674431 -25.803385139691443 -4.046962180811818 215 177 156 255
13.324620128449453 -25.533664928242814 -3.378640755544893 212 171 151 255
13.343649799874129 -24.215571494250895 -3.459292828714410 208 167 147 255
12.229335831175177 -24.371048339782249 -2.493867561173090 207 166 146 255
10.634451909799282 -25.167508147617241 -1.084100270922931 210 169 149 255
8.991370768820190 -26.044740531954290 0.371016489219699 215 174 154 255
7.996120234115352 -26.080344366115327 1.228184385247062 215 175 154 255
7.484134436325974 -25.479949511156804 1.638894737343179 213 175 154 255
6.759629203152286 -25.166401872453918 2.246260054254037 213 175 154 255
5.877215426016789 -25.070708876899005 2.999972540412443 214 175 154 255
4.678917895080389 -25.410582943329246 4.046449237752256 216 175 155 255
3.378541672073425 -25.901552522490817 5.188027974519059 215 177 156 255
2.768525212766264 -25.459747918215328 5.690655536029965 216 178 157 255
2.475502699000288 -24.584445851925580 5.899632331573116 213 172 152 255
2.287133241492199 -23.562800328362158 6.011494897033060 207 165 146 255
1.835782554106231 -22.904594248598784 6.367132076296429 201 158 139 255
1.750793869128444 -21.734286371253347 6.382847396325133 195 150 131 255
1.560069077690343 -20.708365167443446 6.496484152569337 185 138 120 255
1.368438093631084 -19.680795374614974 6.610806813108297 173 127 106 255
1.227828685910339 -18.577666046686943 6.677572856232700 161 119 97 255
1.655932226015096 -16.656966910256017 6.215571579275604 154 113 91 255
1.615053299717687 -15.398477705573868 6.189005904881128 142 105 79 255
2.088160521643601 -13.391197542361681 5.684071086478525 128 96 69 255
2.917281395263956 -10.852844208365553 4.847181711160118 120 89 61 255
5.588104059886859 -5.602968152417247 2.294840850353893 106 79 55 255
7.886015790727384 -0.853213297670379 0.087440397810298 29 8 0 255
22.479089176689826 -22.301411675475549 -12.666237712253633 213 185 162 255
20.519645504704016 -23.433544630017593 -10.916351125973506 219 185 168 255
19.003463342418286 -24.028411778217048 -9.576605071535909 221 185 169 255
17.764342414580000 -24.287539041818121 -8.493223167642213 222 182 164 255
16.148850891370643 -25.037885858002511 -7.059865026344880 217 182 160 255
14.267910248996287 -26.145321993857635 -5.379139783107746 216 180 159 255
13.096351892244826 -26.359655693404164 -4.356459087120584 213 177 153 255
12.521544341079561 -25.811879537076010 -3.887894708678573 206 168 145 255
12.324212190409554 -24.774960357943314 -3.770204552618964 205 164 144 255
10.998496728113054 -25.212977038786278 -2.603092510567990 206 163 146 255
9.355596076442936 -26.081972975798919 -1.140173195694729 213 167 151 255
7.718376842815275 -26.961407701235316 0.318350443866791 214 171 152 255
7.046649846944348 -26.573546422623423 0.878636984544357 215 172 153 255
6.695414276876562 -25.760810388645098 1.140530646733851 214 171 152 255
6.237843562308001 -25.090633206543373 1.501483274281725 215 172 153 255
5.462843006843769 -24.850982325034579 2.158435651957262 219 174 155 255
4.425443436713977 -24.974003164147945 3.060415426243253 218 174 155 255
3.391038564544687 -25.102531255148847 3.960073657274165 215 172 153 255
2.727764574521899 -24.730275864812995 4.513750914725563 215 172 153 255
2.223184727920767 -24.142743959138301 4.919421374684987 212 169 150 255
1.823854816736286 -23.410697585037781 5.226836986917874 208 164 145 255
1.215692216545364 -22.970780121856023 5.729438325594117 204 159 140 255
0.973296734443267 -22.020243225646539 5.890190808010686 197 151 131 255
0.886183541873407 -20.848172429898568 5.905565648235381 190 144 122 255
0.642098137128642 -19.894562340919862 6.067596138222427 179 133 110 255
0.604302820073144 -18.644187895211189 6.036374522747138 167 121 98 255
0.771336581489010 -17.094370336672455 5.813025948583658 155 112 87 255
0.884266664619901 -15.614116823110891 5.639926871379004 146 105 80 255
1.457186040364462 -13.458495998279034 5.035229763709197 129 95 67 255
2.384307150281927 -10.771051377517608 4.097589807747113 118 82 55 255
4.736791406341297 -5.971969296716424 1.821617048932325 101 71 47 255
7.280236643416117 -0.848021630009555 -0.635806926579619 30 8 0 255
19.641647098221711 -23.778330255858236 -11.391931337084145 218 182 164 255
18.021070700783497 -24.511116598790807 -9.947021596528714 219 183 167 255
16.839793199048216 -24.702314530134601 -8.911928585177975 218 180 161 255
15.445559458222817 -25.176621975810320 -7.677121922146938 216 179 160 255
13.084003985293805 -26.908290057958027 -5.536568964381246 216 178 159 255
12.024087944061023 -26.985318128363247 -4.612883977358933 211 175 152 255
11.719578866999399 -26.090027568808523 -4.396054968008059 206 168 147 255
11.361024280066829 -25.264051446013980 -4.128691022033365 203 162 142 255
10.039300819025698 -25.703048704976908 -2.958777566782999 209 166 147 255
8.561662256826935 -26.361352134986873 -1.642009636220450 214 168 151 255
7.195483270609031 -26.887269530067925 -0.428967494084674 217 174 155 255
6.205697175004929 -26.924631765573025 0.431649366015705 217 175 155 255
5.748774498401019 -26.255172134616657 0.792539175884741 216 174 153 255
5.503719642730914 -25.300651925801901 0.954512248597268 216 171 151 255
4.783095355638778 -24.989655107003472 1.563120218310445 216 171 151 255
4.064002612224414 -24.681483613197486 2.170532736991419 216 171 152 255
3.188871525766473 -24.592386402086788 2.924900133483192 211 169 149 255
2.525609066356992 -24.218227240832476 3.480352814104975 212 169 149 255
1.654516334317634 -24.136565002794470 4.231581786338268 210 167 148 255
0.890001445956159 -23.913558011623508 4.882851957406046 209 164 145 255
0.179297166358708 -23.620841498443326 5.483735088601890 205 160 141 255
-0.062651168396712 -22.672139879180918 5.643201956467834 198 153 131 255
-0.201677409128422 -21.575388989876501 5.705526960687763 192 146 123 255
-0.393522857280061 -20.550190419132150 5.817452276434011 182 135 113 255
-0.586273302124710 -19.523343556731135 5.930064332389207 170 124 100 255
-0.059954179561402 -17.457537686652870 5.363819134912120 157 113 88 255
0.102916873443519 -15.904051883403270 5.140001824341823 146 105 79 255
0.928562632485750 -13.376775133114762 4.289615034209845 129 93 65 255
1.799498554087791 -10.764163411535435 3.395405937168704 111 76 50 255
4.294498476418596 -5.740982661231897 0.964567027533633 99 68 45 255
6.521609351197725 -1.068560658512865 -1.215304427608572 35 10 0 255
20.658504782736600 -23.058517451238799 -13.575011623705194 210 193 160 255
18.222265669685868 -24.807810247897038 -11.355191886063409 217 181 161 255
17.095090388476592 -24.924926714768446 -10.366162291303851 218 183 164 255
15.646899436658430 -25.461584711151090 -9.074283427665478 217 180 161 255
14.257335612318741 -25.937748072848194 -7.836856660605974 217 179 160 255
12.657040804617708 -26.699628137735999 -6.400064720753392 219 178 160 255
11.921003152230270 -26.357891212644233 -5.777288061494232 213 177 155 255
11.347157831898386 -25.809508455477783 -5.307267047799741 211 173 152 255
10.774110576172831 -25.262611251976040 -4.837881311812566 203 162 142 255
9.029046825422370 -26.263205683246127 -3.261865590963566 211 168 149 255
7.928405930840995 -26.429174952700350 -2.293457876776728 214 169 150 255
6.406480118251238 -27.166872458649038 -0.926428552831112 218 176 154 255
5.419182993381042 -27.204666663007515 -0.063898735299460 218 176 154 255
4.540280612965830 -27.105188754187338 0.696585852734245 217 172 151 255
4.401435968397436 -26.010390937815515 0.757269234693837 215 170 149 255
4.103706478029949 -25.128344793844576 0.968122576528287 213 168 147 255
3.595734805503611 -24.532903197200739 1.377972417383432 214 168 147 255
2.774317208399196 -24.370875488309309 2.084848199390422 210 168 146 255
2.007131065467831 -24.140279880626167 2.740669865019584 211 169 147 255
1.085450801665729 -24.130484731799896 3.543281600686356 212 167 146 255
0.218245296527897 -24.052566299710350 4.294653221505428 206 161 140 255
-0.543005205067487 -23.832895894426713 4.945864616633031 204 159 138 255
-0.940410184949371 -23.104230411334129 5.251935428154553 199 151 130 255
-1.131335610377704 -22.082089273087263 5.361881762381188 193 145 123 255
-1.374646729792914 -21.131926945091209 5.521435999186053 184 136 113 255
-1.310464813831402 -19.737462037998597 5.388524690293565 172 126 102 255
-0.940981041900471 -17.894676468758689 4.964835819324378 155 111 86 255
-0.523963630060535 -15.971036236482831 4.495256805101576 144 103 75 255
0.246186306528557 -13.518755021541779 3.688790848471314 133 92 67 255
1.366914392315778 -10.533149059257056 2.547405416176446 114 79 54 255
4.053679393019678 -5.210357176664274 -0.087547032409219 95 65 42 255
17.565532082531973 -24.878334143391669 -12.030964823731466 214 185 161 255
16.440856022480688 -24.995166319429330 -11.039348805268105 215 180 160 255
15.480979327123833 -24.911242804894755 -10.203525211559622 216 181 161 255
13.878841607056870 -25.661533746185796 -8.757703593220498 216 177 160 255
12.550186625076321 -26.075043925177937 -7.570607311896310 219 177 161 255
11.600154617917610 -26.009249137388537 -6.742438055694208 216 180 159 255
10.652630684363032 -25.948076721077513 -5.916222392942160 215 177 156 255
9.973825926131980 -25.541382631598026 -5.345057144490625 209 168 148 255
8.977588009475596 -25.558586408212221 -4.471750982542659 213 170 151 255
7.719112513839860 -25.933241661262684 -3.348428456996800 217 172 153 255
6.517486040214834 -26.244502924050778 -2.278523120825241 217 174 152 255
5.003064339905933 -26.988166737172065 -0.910049590573692 219 174 153 255
3.914890607813192 -27.172187548132456 0.053212790214502 217 172 151 255
3.407566358125393 -26.577078359190807 0.463356251509083 214 169 148 255
3.057962314581829 -25.768219376942312 0.723172490467078 213 166 146 255
2.446852699198928 -25.318150087771329 1.232444992733690 212 165 145 255
1.680355078349379 -25.086139387146545 1.890218329326217 209 166 145 255
1.071700141815739 -24.640601563780393 2.397571875703903 209 164 143 255
0.567890452236611 -24.052013732519782 2.804936950932415 209 164 143 255
-0.246033239867216 -23.900739838758682 3.508809657520175 206 159 139 255
-0.954624382809754 -23.607308204499617 4.112319725791849 201 154 134 255
-1.455544495420980 -23.024057193739367 4.517423535002422 196 149 128 255
-1.801668432838198 -22.221688868531061 4.774457822712236 193 145 122 255
-2.096674779047987 -21.345406054587613 4.982499853401634 184 136 113 255
-2.136250521587982 -20.099218991814325 4.945741915696232 174 126 103 255
-1.666982435706018 -18.109513563149733 4.420947862941773 159 113 87 255
-1.405486795294991 -16.409462544314863 4.094618725353740 146 105 77 255
-0.639040557095427 -13.958753157560920 3.283253357905608 132 92 66 255
0.425976005234361 -11.049583382235198 2.184252859707925 111 77 50 255
3.405329863566465 -5.279682901862714 -0.754416765622324 92 63 38 255
-23.493742573998077 -0.719783292468833 22.531068851156249 195 151 128 255
-24.661043181932570 -1.429302611932826 23.593749307558284 191 143 122 255
-25.179173568779646 -0.981951700076024 24.021902763931507 170 134 108 255
17.555663893597426 -24.127637017289430 -13.324500556121421 210 189 158 255
16.001738374691541 -24.790804903524929 -11.918127888312142 214 182 161 255
15.633598928963977 -23.947994226803473 -11.644067743859637 213 178 158 255
13.926755030115800 -24.832680666436289 -10.090106074477035 215 178 160 255
12.492934384562403 -25.381585775109670 -8.796223235768025 218 179 163 255
11.117117566085483 -25.869587804872879 -7.556993211216536 218 181 162 255
9.852112484948776 -26.226228785525564 -6.423041221912342 220 182 161 255
9.015501247592084 -26.030113163046252 -5.698689267248000 218 177 157 255
7.757466958365598 -26.399581797827665 -4.570148911640558 217 174 155 255
7.031489796786587 -26.071796253550019 -3.950953809201366 217 172 151 255
5.938240616355927 -26.241600377706249 -2.979230600944106 219 174 151 255
4.848232176813013 -26.417366855437024 -2.010022109349933 219 174 151 255
3.446810214316912 -27.025860373925013 -0.741261987394324 218 173 150 255
2.573295648751099 -26.929484488745629 0.021354871714010 214 168 145 255
2.067433964219788 -26.336251568937627 0.431118500053060 213 167 144 255
1.562129118713102 -25.744055136088605 0.840438907427711 212 166 143 255
0.901517647563878 -25.368961998966512 1.399221299040022 207 162 139 255
0.138529419011860 -25.140738048793537 2.056746298557698 205 160 137 255
-0.002153044597065 -24.046152010478124 2.115525212513518 205 160 137 255
-0.556695708865533 -23.531015321478378 2.572669526711593 204 158 135 255
-0.956035717008973 -22.798611336561208 2.880407242730286 198 152 130 255
-1.612032038349810 -22.432046414344427 3.435573928453465 196 149 126 255
-2.113069380983347 -21.847766009473844 3.841522978192785 193 145 122 255
-2.562447428121061 -21.190931957973930 4.197721821019741 186 137 114 255
-2.756611257514066 -20.165635255774305 4.307583282070084 175 128 102 255
-2.595670013098385 -18.620461227895419 4.074267687548002 158 113 86 255
-2.183652387284326 -16.699234942198188 3.597804010578102 146 102 75 255
-1.319922983742941 -14.100693444587250 2.683854384543508 132 90 63 255
0.244701075614984 -10.445303238075553 1.090737756458282 111 76 48 255
3.059201299107201 -4.899520317868337 -1.713845239163931 92 67 39 255
-22.630377065841969 -0.951192701216655 20.643736906390558 192 165 135 255
-24.355383618627627 -2.639285955776245 22.261190607722398 203 160 142 255
-25.612073054127961 -3.513189921532216 23.418449288441650 206 160 144 255
-26.358073299322200 -3.483306335151156 24.072930296306708 203 154 139 255
-26.689149368571492 -2.708613272601667 24.318297149219887 192 145 127 255
-26.928915281238687 -1.766748146088105 24.473455360825540 180 138 118 255
17.004040154747429 -24.061675220637454 -14.106100843165905 201 196 154 255
15.561080244226304 -24.586661013366324 -12.798540408107044 210 177 153 255
15.513137252410161 -23.329750315254643 -12.833134974908972 211 178 157 255
14.076416794929230 -23.866229185363323 -11.530428826143265 217 181 162 255
12.271800478592468 -24.896578983643849 -9.872327302028054 220 183 165 255
10.579815536086841 -25.799644277118460 -8.321591317933951 220 183 164 255
9.423607702465091 -26.015966524276678 -7.286486378262509 222 184 164 255
8.323748485793573 -26.168715592619549 -6.305097629767545 221 180 160 255
7.332612271633565 -26.187006638352102 -5.428057541058138 216 174 153 255
6.344229243516907 -26.210366887664065 -4.553157418531242 213 168 147 255
5.621082711521836 -25.885496951580876 -3.934034020853034 217 172 149 255
4.637595760087834 -25.917873880291637 -3.062941280512803 217 172 149 255
3.186587475799143 -26.595283234193914 -1.739132147784971 217 171 148 255
2.053311583399193 -26.853799102314980 -0.721824631247387 216 170 147 255
1.443607519035510 -26.403173717260046 -0.210730265785855 212 166 143 255
0.938722229045879 -25.810923052028414 0.199030368057720 209 163 140 255
0.537924425906937 -25.075705038066133 0.508021609961759 206 161 138 255
-0.224304887780619 -24.846208070190897 1.167432009908055 204 159 136 255
-0.624109024586147 -24.112838900770441 1.475633022456321 205 159 136 255
-1.126641437477815 -23.524956453004989 1.883531404366863 206 160 137 255
-1.423505447289472 -22.646525161510681 2.091838368411288 201 155 132 255
-2.232343918919298 -22.498535077893962 2.797393592394343 199 151 128 255
-2.783992881795598 -21.987545582548620 3.253383202119835 198 148 125 255
-3.334840492425514 -21.478035752317766 3.708746048241949 189 139 115 255
-3.630934052501061 -20.601058160080385 3.916421595492835 178 131 105 255
-3.674099329934194 -19.353263468985062 3.877817562714768 160 114 88 255
-3.365067105520154 -17.582832135444306 3.495891790283707 146 102 75 255
-2.353413180622937 -14.763866543235338 2.428697112259385 131 92 61 255
-0.694549511326869 -10.961679475774105 0.729207767052401 114 78 49 255
2.459881134357659 -4.894189686623577 -2.430960453710298 92 71 39 255
-24.337767252884106 -2.989399657674653 21.127931594524767 218 173 154 255
-26.008285492578295 -4.599772089310477 22.703054246764395 216 169 155 255
-26.753242238708367 -4.568811316226459 23.359503635536754 215 169 156 255
-27.542050578781129 -4.624349516803420 24.060033432465161 213 166 152 255
-28.054480102324874 -4.185108043893365 24.485968484256830 205 154 137 255
-28.566158919446224 -3.747224002533130 24.911343004479107 197 149 133 255
-28.486191328670600 -2.224175308475878 24.747276078558798 187 141 125 255
-28.635286332966473 -1.115704412616083 24.811106571562476 180 137 118 255
15.225695553904927 -24.245488949386157 -13.784125371965786 208 186 155 255
14.589605925668820 -23.744677588607772 -13.251035013956425 210 179 158 255
12.678683432481535 -24.903514504786358 -11.480803765341449 215 183 162 255
11.464179474916563 -25.174204388218328 -10.385259638881337 220 185 165 255
9.777150781106002 -26.077435853812517 -8.830071106396019 220 183 164 255
8.887978054404016 -25.945410569287901 -8.048962399450659 222 184 163 255
7.843051335108385 -26.027463172768506 -7.116003102607976 222 181 161 255
6.958775549194200 -25.904459528056208 -6.338705572777201 213 170 151 255
6.076765225101184 -25.785629932071373 -5.563171557668369 210 165 144 255
4.987792337673568 -25.953531133049978 -4.585709831427408 215 170 147 255
3.849875824391802 -26.198258902147160 -3.559934618027455 213 168 145 255
2.923696548057251 -26.165048608382392 -2.739799749199108 217 171 148 255
2.155849600556422 -25.922524573631023 -2.073535177410633 216 170 147 255
1.493418244875755 -25.540206862304160 -1.509747435995450 214 167 144 255
0.832276435519503 -25.160268885393236 -0.946967028400252 212 164 142 255
0.223999578083749 -24.710728443200196 -0.435551837362993 207 161 137 255
-0.640499083324727 -24.624145466999266 0.326367282234656 205 159 135 255
-1.246075104413649 -24.179584875400877 0.835676676709937 205 159 135 255
-1.748185738872820 -23.591649791700462 1.244015871344857 205 159 135 255
-1.994297669200080 -22.640371885246481 1.402000985000257 203 157 133 255
-2.852664435461833 -22.565083473875518 2.159149860482273 201 153 131 255
-3.657923652594462 -22.420634015055754 2.864749827665889 195 147 125 255
-4.207549859095991 -21.912169120628306 3.320279300745938 187 140 117 255
-4.351565972718731 -20.815031300155198 3.378325137837180 178 132 107 255
-4.446248573365352 -19.641807537636538 3.387733342585705 163 119 92 255
-4.139458294266035 -17.872320553580010 3.002848428009571 149 106 78 255
-3.233170027478934 -15.203460882708043 2.028618025616595 135 94 62 255
-1.431074734496946 -11.179228182549792 0.173024907240631 114 79 47 255
1.860176823462666 -4.888963625507472 -3.148529644229882 96 75 41 255
-21.951371512914164 -0.525334926047776 17.709138975597028 194 159 133 255
-23.675319980478150 -2.193964057314133 19.345618439854718 213 164 146 255
-25.576177029371252 -4.204424308611806 21.160883862827092 217 168 151 255
-26.872707080192640 -5.157759296224526 22.372502611875660 216 169 153 255
-27.615380941936792 -5.127974763311499 23.029983506771458 215 169 154 255
-28.082323601248333 -4.604425378462167 23.411327040210296 217 168 154 255
-28.821796541174990 -4.580478387550841 24.066371903088509 212 163 148 255
-29.377766096544917 -4.226765313491001 24.537576621416605 210 163 147 255
-29.661156501347506 -3.373501703713089 24.735077362321448 206 159 143 255
-30.080442278185274 -2.770706645256439 25.069153842747482 195 148 132 255
-30.679559897760555 -2.504375055958519 25.584274818229005 190 143 127 255
-31.187648377612817 -2.071822427457278 26.008044406268596 182 138 119 255
-31.291968643261100 -0.880591001175844 26.025187146411497 170 129 104 255
16.590930151032723 -21.709335029658803 -16.435025050716206 199 198 155 255
13.986518369772483 -23.746495278538958 -13.978277985081547 209 181 157 255
11.498133468094693 -25.664079765139292 -11.632886150401760 213 182 162 255
10.182034132088859 -26.075238492969760 -10.431940347526080 217 184 165 255
9.186519340713602 -26.077164189048375 -9.543800015590961 219 182 163 255
8.193758536195674 -26.084161940472882 -8.657801548975669 221 183 162 255
7.151268337837848 -26.166178352499514 -7.722544081557544 220 179 159 255
6.425944399593106 -25.832686580745332 -7.097452436781282 213 170 151 255
5.649914817111096 -25.572420712000508 -6.422347364578457 189 144 123 255
4.406607028579486 -25.951003694993915 -5.288568044346960 207 162 139 255
3.375254310470780 -26.053522527477213 -4.361963632068182 210 165 142 255
2.813759698664029 -25.521957314316438 -3.896052332222325 212 166 143 255
2.408321766537370 -24.778007559809907 -3.583279942621971 214 168 145 255
1.435029689145921 -24.820855879371351 -2.712418069765306 213 166 143 255
0.412982962769377 -24.940506538515308 -1.793044606608930 212 164 142 255
-0.503295801567702 -24.921745220290688 -0.977101233696317 208 162 138 255
-1.263274254599906 -24.691044109795143 -0.314482589236235 205 159 135 255
-1.919191372889173 -24.318798470626120 0.246023468990018 204 158 134 255
-2.522798558137595 -23.876298202877592 0.755252973407323 205 159 135 255
-2.870867242250512 -23.071450915245123 1.012777599072137 204 158 134 255
-3.726875403852404 -22.997085263220640 1.771263323632354 202 155 132 255
-4.428655431415251 -22.706974961027157 2.378025260141726 199 151 129 255
-4.724636860898016 -21.831481759213801 2.584429067031977 193 146 122 255
-4.768975637038608 -20.586491772778459 2.542134497414111 182 136 110 255
-5.016106150190609 -19.634402940556924 2.699924579949652 169 125 98 255
-5.314063377992198 -18.755308508052281 2.907830153753309 157 113 84 255
-4.711596192315085 -16.535931978843280 2.224676054862556 141 102 69 255
-3.115421527925434 -12.814942729679700 0.556672619991332 122 86 53 255
0.164414581543355 -6.530857954701105 -2.781220379804552 105 79 46 255
-23.199682610699483 -1.734874027473779 17.737973313503886 211 166 146 255
-24.686795643249184 -2.996109784821897 19.147120196661263 215 164 147 255
-26.076461671360477 -4.103641422461010 20.459278177240947 215 163 147 255
-27.232366717854944 -4.808848623384392 21.536547361768953 209 160 145 255
-27.882968899846929 -4.612498042871039 22.103965663922452 211 164 148 255
-28.441213121951535 -4.253103666006723 22.578322495069386 215 166 151 255
-29.270370846214405 -4.394078298298325 23.327172753110915 214 167 151 255
-30.142282056303628 -4.622834835037452 24.119934838718734 214 167 151 255
-30.650902110437272 -4.188195695537786 24.545144452891805 213 166 150 255
-31.248686818452853 -3.922424739962651 25.060984621078120 207 160 144 255
-32.024581024995314 -3.994812154302281 25.757899022788024 201 154 138 255
-32.440577656362223 -3.397574072818372 26.089881541192142 196 149 133 255
-32.588766080990013 -2.294229335577768 26.149802946277390 201 150 131 255
-32.604739390445900 -0.934719924283399 26.075008037205265 183 134 112 255
-33.243544856904919 -0.759823636313058 26.633503669396617 171 129 103 255
10.954748543405287 -25.595925709576875 -12.404796756141849 214 180 157 255
9.167728501207364 -26.629564719118804 -10.733389330521248 217 182 162 255
7.965041656059583 -26.910733802620484 -9.636575521921316 220 183 164 255
7.185411585992341 -26.641145256361284 -8.956175237235101 221 183 162 255
6.250678166669474 -26.584616291959037 -8.122375700746716 220 179 159 255
5.683656564740630 -26.041655103768505 -7.651037925720800 213 170 151 255
5.013337628873870 -25.640930603797102 -7.077519063735281 178 133 112 255
4.084670636018785 -25.595581843887459 -6.248444614532815 130 85 62 255
3.158513822872351 -25.554854375338152 -5.421320800044356 208 163 140 255
2.389918318755605 -25.305608855392933 -4.749521473256266 211 165 142 255
1.829348446267687 -24.774560689984582 -4.283229953986051 212 166 143 255
0.858062096512981 -24.816948092984603 -3.410076610920470 212 165 143 255
-0.367061265286566 -25.222986917817479 -2.284846060394784 211 163 141 255
-1.332232193094114 -25.276621211116407 -1.416434080402865 209 163 139 255
-1.937130297976609 -24.830166365631015 -0.904738712941423 205 159 135 255
-2.591934539275599 -24.458030695962606 -0.343300228472174 205 159 135 255
-3.092956609111781 -23.870438076798877 0.065733283334509 206 160 136 255
-3.694837525561951 -23.429551271190803 0.575071663689414 205 159 135 255
-4.396846818520686 -23.136710122417242 1.184151875890905 202 155 132 255
-4.996392317486738 -22.700127134215023 1.691671472311242 199 152 129 255
-5.141798056413450 -21.603926178246780 1.747557293760650 195 148 123 255
-5.288348792181893 -20.505632290622088 1.804318947791785 186 140 114 255
-5.736646972234041 -19.848954479096960 2.161376645275112 177 132 104 255
-6.184629995394516 -19.192861894786745 2.518184787039161 164 120 91 255
-5.834582967783774 -17.346988286092397 2.079292913953964 151 111 79 255
-4.493400351534518 -14.002139959200179 0.650715959848554 134 97 65 255
0.390812305723728 -3.887998113078879 -4.411475222957421 100 80 48 255
-23.001990695591786 -1.772268222189041 16.401886782863755 211 166 145 255
-24.717826289867105 -3.434344615548184 18.051980831588708 220 169 152 255
-25.832065725744485 -4.043831752203346 19.091685364225953 215 162 146 255
-27.079237812454124 -4.907029290750359 20.267714292763117 209 153 138 255
-27.730384609206055 -4.707413473404301 20.837653123963037 204 153 136 255
-28.470791515327818 -4.675760841236354 21.498972679383485 205 156 139 255
-28.937734664962562 -4.150588166512989 21.881820470412492 211 160 144 255
-29.765200535602048 -4.290921641319926 22.632837543518974 213 165 150 255
-30.545215380996297 -4.352426473655441 23.336009661508172 213 166 150 255
-31.323031564782156 -4.417949228859811 24.037500898684641 217 169 155 255
-32.053885205090580 -4.403745808705537 24.691525132430542 216 168 154 255
-32.782786800709175 -4.393106672641863 25.344059769228096 210 162 148 255
-33.198068024899896 -3.796744476522008 25.675895317853758 204 156 142 255
-33.524288006770973 -3.032018843068897 25.916536320320148 201 153 137 255
-33.850739755688636 -2.266847213214987 26.157375324730651 200 150 132 255
-34.619042068065795 -2.349715443366108 26.851630784507876 192 143 122 255
-34.944755582903667 -1.585855975016216 27.091939628140324 183 139 114 255
-35.314628170689360 -0.906827831515443 27.377588925735779 166 127 100 255
8.575829347443232 -26.629786799221336 -11.448754193340619 214 182 157 255
7.271208267698569 -27.049326822612215 -10.244908999206700 217 180 161 255
6.545292810302413 -26.710122398024566 -9.615071781183786 219 181 160 255
5.716703466007658 -26.513562113404362 -8.882851702352013 216 175 155 255
4.994100481990159 -26.180468561043341 -8.255600199076127 205 162 143 255
4.532331890510875 -25.498435162155090 -7.887559130488910 177 132 111 255
4.277830228723474 -24.534681602574892 -7.725807503942605 117 72 49 255
3.248427626868818 -24.631759093199832 -6.792346689548481 161 116 93 255
1.810070512473885 -25.302559085693787 -5.450652368204771 205 159 136 255
0.839011835502987 -25.341209096733763 -4.573823028354241 210 164 141 255
-0.129293140942309 -25.384925439857341 -3.699130514759673 211 163 141 255
-1.043716345176961 -25.362010005145578 -2.877611822227180 211 163 141 255
-2.057643526737877 -25.487552053839238 -1.956152694284981 208 162 138 255
-2.610611622985971 -24.969307085614076 -1.494663670299190 206 160 136 255
-3.467354441723216 -24.886752007139364 -0.729269559413439 206 160 136 255
-3.967344468057291 -24.300224985504286 -0.320264574206618 206 160 136 255
-4.517294552602948 -23.787548518907045 0.138867799839346 198 152 128 255
-5.066441830286095 -23.276354322469047 0.597372347520036 200 154 131 255
-5.665062435832311 -22.839902927035098 1.105629605224522 198 152 129 255
-5.861402847908550 -21.817501870779495 1.210783915395581 193 147 124 255
-6.258774921448037 -21.088286210902965 1.517395299682903 189 143 119 255
-6.705985775076186 -20.433141238481141 1.874042742290897 182 136 110 255
-6.903934549096164 -19.407809915834207 1.980418380544990 172 126 100 255
-6.407435790922449 -17.339546943089601 1.388734283321639 160 119 87 255
-5.667511367576822 -14.890386615793062 0.551282327090178 147 108 77 255
-4.784832964303661 -12.206631513486229 -0.431084883633048 130 94 63 255
-22.530123471100097 -1.326471262707059 14.778415446782162 207 165 145 255
-24.245794097338916 -2.978131283210359 16.438318312380773 215 168 150 255
-25.771744251114995 -4.315846503265334 17.905493917231610 221 170 155 255
-26.562888468439695 -4.353631821198064 18.620308721322175 208 155 139 255
-27.533517149314662 -4.724123118924695 19.519973907640320 200 144 129 255
-27.912028725691584 -4.029401529799770 19.812140788463523 195 142 126 255
-28.561602994453779 -3.830374695533919 20.382995245183110 197 146 129 255
-29.435003705500890 -4.048203357209616 21.184502541008868 199 148 131 255
-30.305717868719171 -4.270947863358572 21.983950090481358 203 156 139 255
-31.039290011304672 -4.248778512934166 22.642831656535122 208 161 145 255
-31.770905933860746 -4.230183540275391 23.300218150045623 214 167 151 255
-32.634300292136800 -4.466314884321037 24.094060118719426 214 166 152 255
-33.539474203940216 -4.791283603916099 24.931740763660684 216 168 154 255
-33.909704546038938 -4.111633658546452 25.217633927812784 213 165 151 255
-34.324137542982157 -3.516371932445509 25.549237776782888 212 166 150 255
-34.606037715580044 -2.667732209764893 25.743837487303466 206 159 143 255
-35.372116119954057 -2.751313948423558 26.439498568119120 200 153 135 255
-35.829049721311321 -2.243524216468984 26.815536557384490 195 148 130 255
-36.241766549377076 -1.651332418837853 27.145889819181775 188 141 121 255
-36.567021733747879 -0.888572561018805 27.385605370554600 184 137 115 255
8.715467640834532 -25.661113455893684 -12.896333692252114 211 182 152 255
6.838537738553271 -26.840745680325284 -11.113784324245700 213 176 157 255
5.644984683029264 -27.127465020222559 -10.013625947302614 216 178 157 255
4.974305517622213 -26.722189789535463 -9.436223587214442 212 171 151 255
4.356709297762251 -26.249188258079670 -8.911722945860788 203 160 141 255
3.895170904813000 -25.567121116116368 -8.543436641156973 194 149 128 255
