ply
format ascii 1.0
element vertex 640
property float x
property float y
property float z
property uchar red
property uchar green
property uchar blue
property uchar alpha
end_header
-23.750392015315370 -14.737222733268482 -24.567572826861891 134 90 68 255
-23.809935586572252 -14.165148781467977 -24.765794877797731 139 97 73 255
-23.741393280684406 -13.441569262757426 -24.584680799847376 149 106 82 255
-23.929138768696475 -13.024017156724938 -25.162156755539968 160 116 91 255
-24.181008380914932 -12.686959646570600 -25.929216650597482 168 124 97 255
-24.432940345304758 -12.354134835107516 -26.696205963478064 175 129 103 255
-24.460666047067065 -11.751072384778652 -26.799433586379621 178 132 109 255
-24.584550361183091 -11.266885580977117 -27.187068275474331 176 130 108 255
-24.996862147831379 -11.142501847172056 -28.427913624059556 166 121 100 255
-26.146262795609260 -11.945504290741013 -31.849108062100072 170 125 104 255
-27.680372604190836 -13.251352181058166 -36.407621086215244 170 124 105 255
-28.125078261592435 -13.203952849102620 -37.742739144803551 160 115 96 255
-28.217329509168138 -12.714844673866324 -38.035033536551111 149 104 83 255
-28.437830738808202 -12.391633876536986 -38.706445424551788 135 93 69 255
-28.722498000437369 -12.154815829202960 -39.567362951415731 121 84 58 255
-28.654638684006770 -11.464632188627107 -39.385606808811502 116 80 54 255
-28.170086908107407 -10.228307899694528 -37.971735799919287 105 71 43 255
-27.941984433899307 -9.321179686552128 -37.316148637908327 93 66 38 255
-27.874194716892390 -8.622369671263655 -37.134448655037346 88 63 35 255
-27.870561126168894 -8.007750126348299 -37.142280987110439 82 58 30 255
-27.802845293693309 -7.306941603740512 -36.960568262224598 74 53 25 255
-27.478656091244005 -6.258683144668240 -36.020766922458193 67 48 20 255
-27.154479628486030 -5.204791576119717 -35.081016839292943 63 47 17 255
-26.958584530053628 -4.320511098450879 -34.520332724006721 58 45 14 255
-26.794785257853562 -3.476833444338908 -34.054421930951719 54 42 13 255
-26.566877969687795 -2.541492463405135 -33.399032904563228 48 35 9 255
-25.954142172697715 -1.066559686685821 -31.606749918159863 43 30 7 255
-16.734467375337204 -28.855773937107884 -5.216220314341854 196 171 143 255
-17.115515643713550 -28.506495124087905 -6.363783985235443 209 174 154 255
-17.303323595803889 -27.985240735447960 -6.942280262218162 213 182 162 255
-17.877796942391697 -27.827602999446455 -8.658630180466304 220 187 170 255
-18.259030989684021 -27.497981145393268 -9.805912337713863 217 184 171 255
-18.608104672653411 -27.144337240127612 -10.858282357252307 216 182 170 255
-18.763885196629587 -26.611677355305389 -11.341679704090126 213 179 169 255
-19.113065204489914 -26.268407078172018 -12.393897466430730 211 177 167 255
-19.333387096027849 -25.805623503104030 -13.066800046131249 209 175 164 255
-19.585984662989148 -25.378311905102251 -13.834447621093801 211 173 160 255
-19.516293454340072 -24.636201809823248 -13.654033087408465 205 167 154 255
-19.736732398399738 -24.182723375149820 -14.326789426666693 201 164 148 255
-19.763789683959203 -23.538322067926231 -14.430732900331662 197 160 144 255
-20.113267925086049 -23.221749739124618 -15.482547843628709 195 158 141 255
-20.108147353459287 -22.548186033712000 -15.491638934983285 196 159 141 255
-20.425485854330930 -22.207301874965935 -16.448535474125634 199 159 138 255
-20.646146158323717 -21.771225146351526 -17.121017230671299 201 160 140 255
-20.995847218867766 -21.474162315564968 -18.172535636016875 204 163 143 255
-21.152112476998425 -20.978590510612236 -18.655341992773288 206 165 145 255
-21.598688268696861 -20.794831443441424 -19.991004495546548 205 164 144 255
-21.787308731810782 -20.341702975356938 -20.568449925697877 208 170 149 255
-21.943719293954274 -19.856920724999469 -21.051082442162254 206 168 147 255
-22.035656386545128 -19.304514435730596 -21.344156688120592 198 160 139 255
-22.321189510440689 -18.966263382119337 -22.205713398824855 191 151 130 255
-22.606782233339743 -18.632849153679061 -23.067194648660092 181 140 120 255
-22.860170943149129 -18.268301378777892 -23.833855101369238 170 129 109 255
-22.823222474850837 -17.581921622343941 -23.747772557273066 158 117 97 255
-22.818564050054107 -16.931469078924252 -23.756424001030723 149 111 92 255
-22.749392688150692 -16.207421861386777 -23.575595119393853 140 102 83 255
-22.873871488216494 -15.704518264066408 -23.963153932833904 136 96 76 255
-22.998393602746475 -15.203720159719666 -24.350672152935005 131 89 67 255
-23.090684063933779 -14.667436346160983 -24.643425889017777 127 84 61 255
-23.247569989593558 -14.208418311293002 -25.125586049381297 128 83 60 255
-23.210829064233380 -13.523273501479281 -25.039398488578570 141 96 73 255
-23.400082930531909 -13.106282937540840 -25.616196247422522 148 104 79 255
-23.460258489790235 -12.537784831687290 -25.814100379185930 156 112 85 255
-23.714182033942649 -12.203896789176085 -26.580212478846704 163 117 91 255
-23.806734381188548 -11.678201745401537 -26.872742425146413 170 125 102 255
-23.996195981690676 -11.272457309026422 -27.449333893945493 166 122 100 255
-24.218003137844207 -10.909595455622565 -28.120564298679682 154 112 90 255
-24.795080851106505 -10.990602781426205 -29.833340935592048 152 110 88 255
-26.018130431854388 -11.886997197412555 -33.439742249777254 169 124 105 255
-26.982984403678302 -12.479351369880774 -36.288384057732884 155 108 90 255
-27.172846247813098 -12.107894394657507 -36.864450514411089 141 97 76 255
-27.330465782844954 -11.698446511449902 -37.345782559325670 127 88 65 255
-27.455838353384678 -11.250189698450171 -37.732390536274039 113 78 50 255
-27.452052792207567 -10.637379671957234 -37.740272335725365 106 72 44 255
-27.092962724474120 -9.563370065827485 -36.706798206707020 100 66 38 255
-27.186152204126529 -9.073806241876156 -36.998678886561436 89 61 32 255
-26.956319772775643 -8.161146674821438 -36.343918946287033 84 59 29 255
-27.146518496694711 -7.799946359622552 -36.919731533503665 78 55 24 255
-26.916743303971501 -6.882848957737224 -36.264990928422606 72 51 22 255
-27.010106609718122 -6.394439781687097 -36.556782436081875 69 50 20 255
-26.812700930385844 -5.515596244403611 -35.996716870003411 69 51 21 255
-26.615320119577859 -4.633281956291356 -35.436675296749854 64 49 18 255
-26.385648801137890 -3.703404353607183 -34.782017554532928 60 47 15 255
-25.962093823415344 -2.503366869778532 -33.559571655758759 52 38 11 255
-25.344629883879648 -1.028267308953176 -31.769398430707383 41 29 5 255
-15.546897549472234 -29.779944560571806 -3.874969900067100 185 185 147 255
-15.930863958070148 -29.419416660093759 -5.021346197843314 198 178 150 255
-16.347351299776349 -29.094667139719135 -6.262355044048974 204 176 154 255
-16.504195825665860 -28.541153895442648 -6.745488773591148 210 180 161 255
-16.823399056791231 -28.139181870627539 -7.702171355556317 218 185 169 255
-17.272525494954721 -27.862776217190927 -9.037633060511013 217 186 169 255
-17.754191711428504 -27.624293433751433 -10.467697236187092 217 183 170 255
-18.008630066227369 -27.180029337903164 -11.234695430412671 216 182 172 255
-18.230640450061756 -26.709310614572985 -11.906925388507631 216 182 173 255
-18.485169071764687 -26.273530745287360 -12.673797582237398 215 181 171 255
-18.837178783948914 -25.936243628293340 -13.724693226198553 214 180 170 255
-19.059327937298448 -25.478367457632871 -14.396731506764866 215 178 165 255
-19.054145658865366 -24.800915752627347 -14.405889408507960 207 169 156 255
-19.243884339994736 -24.316606018745262 -14.983151438098332 204 167 151 255
-19.238746071483376 -23.640846401701367 -14.992272614921035 200 163 147 255
-19.558507975114793 -23.292355848119115 -15.948165544586260 199 162 145 255
-19.650895456363116 -22.718332905692520 -16.241257472026149 202 165 147 255
-20.035744842243801 -22.445325290651212 -17.386355476454384 206 170 148 255
-20.323178171392925 -22.078211716043498 -18.247356695367614 209 173 151 255
-20.773149281406333 -21.884987709008584 -19.581601038536434 211 175 153 255
-20.930710309566990 -21.392666605450543 -20.063796810638479 212 175 154 255
-21.348315376881644 -21.177796261797198 -21.303196706700362 211 174 152 255
-21.473471135671360 -20.658420673940967 -21.690620184062510 213 177 155 255
-21.663673143397403 -20.210964717858673 -22.267303136490909 206 171 149 255
-21.658882523371361 -19.555816059757646 -22.276060986423090 201 165 143 255
-21.914181630864434 -19.184037450887701 -23.041942760590075 190 153 131 255
-22.072004435382794 -18.709476511869980 -23.523842306911774 178 141 120 255
-22.359919769721657 -18.381441421456685 -24.384233634450027 166 128 107 255
-22.290238245939733 -17.659668170650704 -24.203609227941769 160 122 101 255
-22.350638727143377 -17.082790515906737 -24.401497773007321 150 112 93 255
-22.313518587301814 -16.396630242037915 -24.315489551454107 137 100 81 255
-22.439020892687367 -15.895097915688680 -24.702578167726500 129 91 70 255
-22.467000002420178 -15.283731829129280 -24.805776735948172 130 89 67 255
-22.495010693030892 -14.672846041517047 -24.908956368989550 127 84 62 255
-22.588104779537218 -14.138141829854931 -25.201335837242283 127 82 59 255
-22.616184269030413 -13.528739379015889 -25.304469802984585 128 84 60 255
-22.774414386684583 -13.073374989541080 -25.785993716662119 134 90 65 255
-22.770037699223550 -12.427308452048109 -25.794475214271955 142 98 71 255
-22.928356772860937 -11.975823452575469 -26.275920255345426 148 104 77 255
-23.054190932323010 -11.487740278628024 -26.662724974770782 153 113 88 255
-23.277681407706353 -11.120141770073587 -27.333252735562468 150 111 88 255
-23.436153191023408 -10.676728722492896 -27.814548102658080 140 102 79 255
-23.757376579211027 -10.435982961663569 -28.768700388133567 148 110 87 255
-24.696963695738532 -10.965962344574493 -31.519744189430668 159 118 98 255
-25.766860360290536 -11.673730835707488 -34.648867019300553 152 110 90 255
-26.283635964869319 -11.705159866922372 -36.170043157698672 138 97 74 255
-26.442484655823662 -11.293033161783086 -36.650854251013328 123 85 62 255
-26.568837266082454 -10.842099997322833 -37.037052321601493 105 71 43 255
-26.597588570195697 -10.268263036627673 -37.139527275705319 99 68 39 255
-26.333412259572157 -9.317616514302244 -36.390969883544102 97 66 37 255
-26.362229944948410 -8.742100389402424 -36.493432213255943 92 65 36 255
-26.163202598001533 -7.869786916604284 -35.934023676420281 88 63 33 255
-26.257206757421983 -7.378548783486906 -36.225558048663231 83 60 29 255
-26.090792877138739 -6.544792514885529 -35.760712716542713 79 59 29 255
-26.217443936278073 -6.097517941040081 -36.146740742377261 74 55 25 255
-26.116217894161437 -5.347449407111597 -35.870972810610994 73 54 23 255
-25.949898506468145 -4.507922243234674 -35.406143677657980 67 52 21 255
-25.653348371100037 -3.489138287796280 -34.563215217059138 60 47 15 255
-25.128852263895212 -2.154773392418306 -33.058650749754577 52 38 11 255
-24.571785895752882 -0.766849963172930 -31.459655440172611 41 27 4 255
-15.451731643106470 -30.272593756462811 -5.773816541558574 200 173 148 255
-15.544389061866568 -29.656178206436323 -6.067216598954502 208 176 155 255
-15.964166497410474 -29.333573417263636 -7.306736855820276 211 179 161 255
-16.024175741767067 -28.693777938831175 -7.505435778800091 213 181 166 255
-16.345915664308734 -28.293146970622047 -8.460973804334458 218 185 170 255
-16.667707669418419 -27.897988815976646 -9.416433291999454 216 184 169 255
-17.087706976292921 -27.599174188702733 -10.655614166793242 216 183 168 255
-17.442331189047138 -27.246321226020086 -11.705501449164871 215 181 169 255
-17.502511588418031 -26.621982414145819 -11.903967833144463 215 181 171 255
-17.791784127948858 -26.216491585678128 -12.764536925468718 217 183 173 255
-18.081107076958162 -25.815912442870172 -13.625033897485366 217 183 173 255
-18.337752341211385 -25.388598770176159 -14.390876799135214 217 181 167 255
-18.496252987979929 -24.869912380383767 -14.872920122939803 210 173 159 255
-18.687521789444205 -24.386146671615151 -15.449494438889502 206 169 153 255
-18.813361265554960 -23.840751665637285 -15.836876067477618 202 166 150 255
-19.037443458861446 -23.395712425505010 -16.507922739255378 202 165 148 255
-19.196093304808571 -22.888495195217061 -16.989783616970868 206 169 151 255
-19.616707065872887 -22.650093117447440 -18.228079912900824 210 174 152 255
-19.840934344606666 -22.217536784650491 -18.898935726273180 212 176 154 255
-20.294421866898873 -22.025383483285708 -20.231601430153091 214 178 156 255
-20.616997225087729 -21.704510276937071 -21.185960818857581 214 178 156 255
-21.136124745542730 -21.595087782458876 -22.707511996532276 213 177 155 255
-21.229575858922303 -21.044353889797208 -22.999894301925252 212 177 155 255
-21.388565003116213 -20.564996171922715 -23.481322310972388 203 168 146 255
-21.318312191141956 -19.842268298036970 -23.300962266176924 201 165 143 255
-21.477370078589885 -19.366393005401918 -23.782324426930700 183 147 125 255
-21.603711389649987 -18.857505125829292 -24.169113312917915 173 137 115 255
-21.828372954933798 -18.458634041242220 -24.839435022765770 164 126 105 255
-21.823748033353780 -17.809893923186010 -24.848054220530912 156 120 98 255
-21.884676211344939 -17.234119264516892 -25.045696339737077 147 110 91 255
-21.847338172109147 -16.549069449053064 -24.959774046196145 137 102 82 255
-22.006630996033991 -16.085678317686657 -25.440905275148424 131 95 74 255
-21.969348611513311 -15.401067720135373 -25.354953728164418 129 91 68 255
-21.997633217209312 -14.791020355522093 -25.458002759875399 125 84 61 255
-21.993175307932489 -14.143597036199765 -25.466534184481702 122 79 56 255
-22.054296859245113 -13.572345670411437 -25.664044367628264 123 81 56 255
-22.181009547404074 -13.078881116127107 -26.050511781188874 127 86 61 255
-22.176649151536452 -12.432848041438618 -26.058985676851847 134 95 66 255
-22.237881071878576 -11.864589696245019 -26.256416399220370 138 98 70 255
-22.331933863774594 -11.336519046100804 -26.548301373181772 139 103 77 255
-22.524382846648606 -10.928385899107084 -27.123585040461080 136 101 76 255
-22.749671601096708 -10.563131422548167 -27.793287333579201 130 96 71 255
-22.942229397298490 -10.161534314309634 -28.368456422627361 152 116 92 255
-23.528320863428988 -10.246466726150885 -30.077174541652852 157 120 99 255
-23.950549966298908 -10.138238012800898 -31.313434898157283 153 115 94 255
-24.569618321521801 -10.281859298556896 -33.116350706502033 135 97 74 255
-25.057605583866803 -10.271242153195871 -34.541293446382724 124 88 63 255
-25.381694556717775 -10.061768507572523 -35.493852007737843 110 76 48 255
-25.574658635467955 -9.691009697439213 -36.068528254604814 102 71 42 255
-25.505277723502374 -8.988079440683535 -35.887579362549332 101 72 42 255
-25.665539162287757 -8.579150340855918 -36.367728252503895 95 68 38 255
-25.465017074564003 -7.705811060147042 -35.808996524706430 90 65 34 255
-25.362928611951617 -6.957200418178530 -35.533598373528577 86 61 31 255
-25.260869357461672 -6.206773915518852 -35.258205553525073 83 61 30 255
-25.355688969375024 -5.714101457856202 -35.549390847985933 80 61 29 255
-25.286509675738316 -5.005179553296784 -35.368412623591780 79 60 30 255
-24.954875309850038 -3.944512411826807 -34.432056183084455 73 56 26 255
-24.656064942639176 -2.922270946062113 -33.590170409539297 67 54 22 255
-24.094756164968032 -1.540118386152884 -31.993008278968631 56 42 15 255
-14.019326086270041 -30.299616352597027 -3.784338730615474 201 173 149 255
-14.771794637743454 -30.249189624198053 -5.967713925870015 207 171 153 255
-14.964107605845754 -29.719321705935883 -6.544288671098570 211 176 159 255
-15.551955840636055 -29.543284202850160 -8.254861277187501 218 182 168 255
-15.810281896909174 -29.082260086150427 -9.020295514384372 218 181 167 255
-16.101613169829193 -28.655381666670877 -9.880162881142098 218 185 170 255
-16.294097478975843 -28.143377676256080 -10.456480673022128 216 183 168 255
-16.519583890888029 -27.664971251633318 -11.127238523050011 214 181 166 255
-16.811047972556835 -27.251528479922030 -11.986910875216978 212 178 166 255
-16.871764379806976 -26.627198091538247 -12.185138191176350 212 178 166 255
-17.064393087054100 -26.128402551635830 -12.761258097669156 217 183 172 255
-17.355984230331885 -25.727008599979840 -13.620752015016052 219 185 172 255
-17.746556703751466 -25.425442225948160 -14.763586998445106 218 182 168 255
-18.104212940948273 -25.098489681854730 -15.811860642801520 211 175 161 255
-18.297022773230211 -24.616617204241791 -16.387728743488196 205 169 153 255
-18.522855111992598 -24.170469505536644 -17.058006304365961 205 169 153 255
-18.682761021535796 -23.662692866633023 -17.539312811525548 206 170 152 255
-18.908677607306942 -23.223621919176338 -18.209481281983869 210 175 156 255
-19.332574134384672 -22.987910296247520 -19.446286739831436 214 177 158 255
-19.525601715365170 -22.524528036087546 -20.021870865765635 215 178 159 255
-19.883636908079652 -22.233395688157799 -21.069613497330124 216 179 160 255
-20.208739025665324 -21.914141080818965 -22.022829952603217 217 180 161 255
-20.665888143861309 -21.737646253220134 -23.353704840116052 215 178 159 255
-20.859119095061260 -21.291834877801080 -23.929020694203615 213 177 156 255
-21.085394623053233 -20.884136398929243 -24.598712030367693 192 156 134 255
-21.047693983879114 -20.199014261154986 -24.512952135555480 176 140 118 255
-21.076020483804982 -19.584175179797185 -24.616030920730594 153 117 95 255
-21.038358838240313 -18.898477996820517 -24.530259452615866 154 116 95 255
-21.198768537878408 -18.427968843857315 -25.010964660121402 154 116 95 255
-21.260188212954375 -17.851442226725439 -25.208395242322212 152 116 94 255
-21.354651696273578 -17.312458434816961 -25.500207411261243 145 110 90 255
-21.350107162757354 -16.664746889056005 -25.508780371143615 138 103 83 255
-21.411620201864068 -16.091066132630658 -25.706140561783940 132 96 75 255
-21.341093029134896 -15.369177642765464 -25.525894358580956 130 92 69 255
-21.303604551560170 -14.683729597537948 -25.440043164139979 126 86 62 255
-21.167073065100126 -13.884130272391189 -25.071023180410407 121 81 56 255
-21.228697148677867 -13.311014459297752 -25.268328150925441 118 78 52 255
-21.356407860978734 -12.815681320354798 -25.654369475137543 120 82 55 255
-21.550216673589659 -12.399745923588597 -26.229125714050923 123 86 57 255
-21.512871400172429 -11.714456910483221 -26.143209063611977 128 91 62 255
-21.607676616271590 -11.185332070114981 -26.434769219187672 133 99 72 255
-21.669490108202695 -10.618257355161447 -26.631928680227787 128 96 70 255
-22.028653276688985 -10.409820933967652 -27.678332546375799 130 100 74 255
-22.354850332102714 -10.167207599329700 -28.630286163877770 150 118 93 255
-22.681114375007837 -9.929882232991147 -29.582156466369952 163 130 107 255
-22.842246476987256 -9.495080143258889 -30.062178676395348 157 122 100 255
-23.201678202435431 -9.307784434237035 -31.108249124681009 134 98 74 255
-23.924656753421772 -9.578325160635060 -33.192034598592585 126 89 65 255
-24.449474099188308 -9.612446291603831 -34.709598059757326 114 79 51 255
-24.379540789743871 -8.905658001594361 -34.528934453090130 109 75 47 255
-24.673166627001990 -8.658585371361497 -35.385961384301567 106 77 47 255
-24.867708031564277 -8.289693545456032 -35.959915498818219 99 72 42 255
-24.863996141376745 -7.669197067249442 -35.967842142390111 96 69 39 255
-24.595896226188586 -6.706774758302899 -35.221153140719025 92 67 36 255
-24.426972476750620 -5.868794036451163 -34.757469550081453 88 66 35 255
-24.456408907080146 -5.287467312000672 -34.859714738671585 85 64 33 255
-24.353656208238831 -4.532350838170117 -34.584678499612238 83 64 32 255
-24.184815274107081 -3.687786449885934 -34.121024529629722 77 60 30 255
-23.949877822973065 -2.752136141524431 -33.468773077333367 70 57 25 255
-23.450461502524121 -1.457683160776995 -32.062117066131066 58 44 17 255
-12.945622413669994 -31.362703393463875 -2.828891653938797 192 186 147 255
-13.305332397205049 -30.958599967978756 -3.877029423975927 204 174 149 255
-13.864299884119276 -30.730911433438763 -5.491506912370966 213 177 159 255
-14.190923595121646 -30.311836204627966 -6.445053891955439 211 175 159 255
-14.584006192137338 -29.956123982603884 -7.587316998567843 215 179 163 255
-15.143181965047361 -29.753012834274827 -9.201453205134300 218 182 166 255
-15.503181127689317 -29.382303786872541 -10.249124508791482 216 183 166 255
-15.730389554746566 -28.898623594315282 -10.919167890901207 216 183 166 255
-15.791569746584244 -28.268708973330121 -11.117244867901917 212 179 163 255
-15.852768250594863 -27.639941813480348 -11.315302082322432 208 174 162 255
-16.179724875411068 -27.256779370446537 -12.268337641282187 207 174 160 255
-16.174539121141777 -26.570801553001019 -12.277583270475276 211 178 163 255
-16.302251114082978 -26.009270744632744 -12.664293116978598 216 183 168 255
-16.562885828713092 -25.575423578107731 -13.428423331463591 216 183 167 255
-17.022919206954285 -25.335771640540841 -14.758650612170044 215 179 165 255
-17.449795144945853 -25.071816223456182 -15.994413153014278 213 177 163 255
-17.710589627716232 -24.654031870548650 -16.758309778782461 206 170 156 255
-18.004662418425724 -24.273050655756705 -17.616490914342620 206 170 156 255
-18.265552784729124 -23.864242727371789 -18.380254060508179 208 172 158 255
-18.460019562043897 -23.393806196911029 -18.955267811715004 213 177 162 255
-18.853951920407127 -23.126176911235774 -20.096261747540723 216 179 161 255
-18.982032076697237 -22.596825142209312 -20.482482196027092 213 178 158 255
-19.243111479934242 -22.204836174060191 -21.245991061022949 216 180 161 255
-19.504240210118638 -21.817175384395739 -22.009434186167027 218 181 162 255
-19.898400604977851 -21.571186641497789 -23.150107718424493 221 183 162 255
-20.126389614958484 -21.158640660889986 -23.819084082750436 192 154 133 255
-20.454173404278137 -20.854499714894615 -24.770952134428200 144 103 81 255
-20.549256629615641 -20.309719496908130 -25.062546574438642 132 91 69 255
-20.644371858795267 -19.766544430907487 -25.354110521229472 132 93 71 255
-20.506733393931157 -18.975162502615134 -24.985501034220931 136 99 76 255
-20.568643708357172 -18.397336469122024 -25.182725995276940 149 113 89 255
-20.630583835859227 -17.820560393212986 -25.379927051512027 149 113 93 255
-20.692554322648078 -17.244828992894725 -25.577104012781945 147 112 91 255
-20.688030179148768 -16.596603799495142 -25.585673073328024 142 107 85 255
-20.617000706675498 -15.874259355477975 -25.405655432554710 135 100 78 255
-20.679054368628400 -15.300009296168383 -25.602780336931602 129 94 70 255
-20.641335561969015 -14.614051920827535 -25.517036984388284 124 88 64 255
-20.470558048331725 -13.776104155548623 -25.054179574437541 120 83 57 255
-20.466148807832639 -13.125969844558824 -25.062716701089073 114 77 51 255
-20.628135937549814 -12.667694409445417 -25.542594947944309 113 78 50 255
-20.856720203770735 -12.289352853084978 -26.210960191703833 116 81 53 255
-20.918970607959423 -11.720069536477041 -26.407947175795670 123 89 61 255
-20.981256980722122 -11.151772910007395 -26.604908150070571 123 92 64 255
-21.309828035923175 -10.900199305423754 -27.555893869057257 127 96 70 255
-21.605181555789528 -10.614186886200400 -28.412544084947939 138 108 82 255
-21.900597073730864 -10.332927746269505 -29.269118614767052 155 125 99 255
-21.996357295507281 -9.814742661671744 -29.560142400714312 159 127 104 255
-21.892431514160435 -9.054757495955670 -29.285678399061396 172 136 114 255
-22.154714252655737 -8.742035752110027 -30.047849554711121 153 116 92 255
-22.716679392022428 -8.803318354416049 -31.658069741488163 137 99 75 255
-22.979097425977201 -8.501405099565133 -32.420071327850110 125 88 61 255
-23.041807491867786 -7.953878313586358 -32.616633464300179 119 84 56 255
-23.304336721989813 -7.658691067640362 -33.378517489900986 112 80 52 255
-23.766715102264641 -7.620711911214187 -34.705660826330643 107 78 48 255
-23.996076822254096 -7.293032643726093 -35.373167367526577 102 75 45 255
-23.725978269189540 -6.328232766706961 -34.627393503879176 99 74 43 255
-23.622404817434486 -5.573840428697864 -34.352715884067834 95 72 40 255
-23.518859087027167 -4.817624160215971 -34.078044339885139 89 68 37 255
-23.448647833357654 -4.103104313119061 -33.897582803355789 86 65 34 255
-23.278546498431965 -3.255883945348060 -33.434517637250565 76 57 27 255
-22.941924105884212 -2.185367063831805 -32.500484699779179 67 52 22 255
-22.438759000624231 -0.887470315930955 -31.095534918522986 51 37 11 255
-12.724004917817979 -31.730214903193868 -4.347406994420538 208 183 153 255
-13.119970352554830 -31.357732660062183 -5.488554270647853 213 179 158 255
-13.616340053524354 -31.077011674965092 -6.912489717266993 215 182 166 255
-13.811712735828749 -30.546508697169941 -7.487706686283872 217 181 169 255
-14.174385792355338 -30.164006465948489 -8.534305015226096 218 182 170 255
-14.436744167616652 -29.699916387824331 -9.297972403885467 220 184 172 255
-14.899890392269938 -29.417077656971415 -10.627248310872091 217 183 171 255
-15.095423488670789 -28.903917017303286 -11.202218470367654 217 183 171 255
-15.324452150303770 -28.424084507573426 -11.871411397626815 210 176 164 255
-15.252343536553070 -27.675532376556902 -11.692139793902641 209 173 161 255
-15.682226690623281 -27.384296711241817 -12.926837281570016 209 173 161 255
-15.677089374132564 -26.699410749215190 -12.936050278505036 213 177 165 255
-15.939723590753886 -26.263346496888545 -13.699311410181593 214 178 164 255
-16.068513857397562 -25.706193013016986 -14.085496256947977 215 179 165 255
-16.532073174700400 -25.467605139986532 -15.414140717907742 214 178 162 255
-16.895273524418826 -25.140905062014653 -16.459939928932698 212 176 160 255
-17.225053357147090 -24.788009623486175 -17.411410816905970 207 171 155 255
-17.454446969321467 -24.343213318148855 -18.080086899790984 206 170 154 255
-17.650400934736922 -23.869513164275531 -18.654470564821878 208 172 157 255
-17.946845848858473 -23.498036647179347 -19.511498003709420 215 179 163 255
-18.243341958663578 -23.131442530665367 -20.368453267753409 219 181 164 255
-18.439425741467730 -22.669150435533865 -20.942663745778702 217 180 161 255
-18.468100038245126 -22.041136243303072 -21.045720630782171 218 181 162 255
-18.798222462710186 -21.720257767091638 -21.996715160215786 218 181 162 255
-19.128401614750572 -21.404782928164806 -22.947629779970470 215 177 156 255
-19.626116778702155 -21.267731312991970 -24.369513203591197 145 103 81 255
-19.922922389563013 -20.929524208055355 -25.226043552553449 144 102 80 255
-20.119282930116483 -20.490732612942239 -25.799893104770177 87 45 23 255
-20.148178357513530 -19.878093351749186 -25.902695994940842 112 71 49 255
-20.009580445856386 -19.087552740484938 -25.534505780411422 117 80 56 255
-20.005009620441484 -18.438646597419066 -25.543102537119807 147 111 88 255
-19.966952927807441 -17.753486968885809 -25.457501770182887 150 115 95 255
-20.029441911738274 -17.177235920028807 -25.654452808208589 147 112 90 255
-19.991427888770588 -16.491731918840287 -25.568836497449468 142 107 85 255
-19.919920391745478 -15.768608165597243 -25.389039864153716 136 101 79 255
-20.016002948940240 -15.230874651345957 -25.680117520439723 128 94 69 255
-19.978054568550178 -14.544407023432029 -25.594481682337971 124 89 64 255
-19.873090592131746 -13.781647673354897 -25.320508607335825 120 84 58 255
-19.768141201858228 -13.017198943209081 -25.046546104415995 113 79 51 255
-19.897861510131548 -12.519746641241326 -25.431712855592224 108 74 46 255
-20.195242325065180 -12.217647980285932 -26.287621779498863 108 77 49 255
-20.291528807756748 -11.686775538889009 -26.578539165840937 113 81 56 255
-20.387853815532480 -11.157430839905814 -26.869423933839414 130 99 71 255
-20.718922216609954 -10.905865852499218 -27.819296106518919 135 105 77 255
-21.050054703856745 -10.659600658800727 -28.769086138238180 147 117 89 255
-21.280653442217869 -10.298611572514119 -29.436377825259541 154 123 98 255
-21.276565416843980 -9.659353404217129 -29.444661805223689 161 127 102 255
-21.071291061819863 -8.776687568388482 -28.888143177400849 181 144 121 255
-21.570322025507693 -8.747810931803542 -30.308346563327120 173 131 109 255
-21.935277365147002 -8.562559221616908 -31.351933609680231 152 112 87 255
-22.300301797546851 -8.383115279558979 -32.395431148495135 136 99 72 255
-22.028080978082727 -7.418514112859128 -31.650601503770645 127 92 64 255
-22.191945653759490 -6.994124004148475 -32.129300137459921 116 85 57 255
-22.456498997131476 -6.698787964326286 -32.890283201878674 111 78 49 255
-22.821755980823809 -6.534937811423106 -33.933519441763991 106 79 46 255
-22.818040088699036 -5.907024440688588 -33.941522835905943 101 78 44 255
-22.780808635651809 -5.235937977813478 -33.855411885507891 97 73 42 255
-22.777162599197027 -4.607367553119403 -33.863390775184655 93 68 40 255
-22.672890965386671 -3.848012519106319 -33.589074605223743 84 64 35 255
-22.602203029058600 -3.130614093380203 -33.408854696255418 71 54 28 255
-21.961075329155094 -1.662729599740757 -31.629159198732879 63 50 23 255
-11.537072812733143 -32.004418757425327 -3.121935655365434 185 186 144 255
-12.441420326007190 -32.042020463687564 -5.674680260937691 212 180 155 255
-12.671957105739807 -31.531884241191563 -6.343507078071752 217 181 162 255
-13.003623235278042 -31.110799998433919 -7.294826166035051 218 184 169 255
-13.200534829164980 -30.580561131731372 -7.869354331003933 223 185 174 255
-13.599692148344090 -30.227245662538678 -9.008884754858656 224 186 175 255
-13.796678828397148 -29.705281410619193 -9.583295806422626 223 187 175 255
-14.162230072870344 -29.334002801453309 -10.628497432226538 221 186 174 255
-14.426708707002646 -28.879513968335331 -11.391122443936467 219 184 172 255
-14.691228546742167 -28.429419168822406 -12.153684671120260 218 184 172 255
-14.686089706779796 -27.741447788544150 -12.162929533186201 215 179 167 255
-15.119249999611284 -27.450735494413266 -13.396160595529977 213 177 165 255
-15.249023890763368 -26.889694675367366 -13.781946177656522 212 176 163 255
-15.648573333979897 -26.579619573106527 -14.920864718029208 210 174 160 255
-15.609814824254599 -25.868352484683371 -14.835840742455474 212 176 162 255
-15.975735103827972 -25.536197279603698 -15.880482391364808 214 178 162 255
-16.274262584431057 -25.146220285280208 -16.736768297017164 212 176 160 255
-16.606565367801466 -24.793317642758936 -17.687114382531036 208 172 156 255
-16.837735698870674 -24.348521074768612 -18.354998305465728 204 168 152 255
-16.967756187851748 -23.809396650577398 -18.740452420146994 208 172 156 255
-17.300201768819989 -23.470360121867699 -19.690594686533899 215 179 163 255
-17.565232795261636 -23.070239984157496 -20.452423878390903 219 181 164 255
-17.729101504097471 -22.573889083668377 -20.931848057929443 218 181 162 255
-17.724314064367377 -21.911287724021150 -20.940679818122334 217 180 161 255
-18.056946015228036 -21.589326216154419 -21.890566404324716 216 178 159 255
-18.490860472007526 -21.375767198817442 -23.122681390242633 200 159 139 255
-18.992330991095315 -21.238432255589416 -24.542893326124897 156 113 94 255
-19.190162605288805 -20.795337754897204 -25.116130481460942 119 76 57 255
-19.354287716586057 -20.320331443724555 -25.595224601617247 84 41 22 255
-19.484701020241360 -19.812598742526092 -25.980186285118890 111 70 50 255
-19.446390105289055 -19.128595894271513 -25.894687172826764 118 80 59 255
-19.509356504338939 -18.551886593728199 -26.091429983747759 153 117 95 255
-19.369817703636414 -17.758895860249098 -25.723684035833770 151 118 97 255
-19.264042527282584 -17.000203868415397 -25.450031529179881 145 111 89 255
-19.124518648191824 -16.203090803578235 -25.082320594845214 140 107 84 255
-19.086285747235323 -15.514869003330460 -24.996829342543037 135 102 79 255
-19.216887093200867 -15.012566543139087 -25.381652299871149 128 95 70 255
-19.347526671315094 -14.512367779519735 -25.766436948003502 124 90 65 255
-19.275605024590945 -13.787214662719677 -25.586845478063822 119 86 59 255
-19.136163812588848 -12.984688743876518 -25.219152396475579 112 81 52 255
-19.199355015584729 -12.410221182992345 -25.415772318582668 99 69 40 255
-19.465211621282663 -12.068667922081815 -26.176641455127339 96 66 38 255
-19.629801615866057 -11.614582805519845 -26.655316842724801 116 85 59 255
-19.726884994028126 -11.084721168795340 -26.945868710907888 133 101 73 255
-20.128002755644872 -10.911549193852082 -28.082704256458698 146 115 87 255
-20.427853083338448 -10.625558490711967 -28.937349319482990 152 122 94 255
-20.592639652960486 -10.184307160124789 -29.415807345162307 156 124 99 255
-20.487211702619135 -9.423448496096867 -29.142021925000563 165 131 106 255
-20.348018632905649 -8.620297471265019 -28.774224525691011 186 150 126 255
-20.343986025046036 -7.978110417210729 -28.782513401094377 182 140 118 255
-20.914374697839932 -8.034239620105282 -30.389029984307001 159 119 94 255
-21.045589973808575 -7.561791862568171 -30.773277460072961 146 109 82 255
-20.669985041978919 -6.466952093223000 -29.747377140248204 133 98 70 255
-20.970229289962049 -6.203949755757677 -30.601614216122442 121 89 61 255
-21.169153033319716 -5.819148129944622 -31.173775242472260 114 83 52 255
-21.469517375206848 -5.564740157169794 -32.027871906051530 109 82 49 255
-21.398171972573977 -4.845211993494004 -31.847966659392455 104 80 46 255
-21.698644753039900 -4.597206152374383 -32.701950265291657 95 71 40 255
-21.931579626354804 -4.267377428060016 -33.367885416612836 88 68 37 255
-21.927956314335972 -3.636473089322124 -33.375877764487967 78 64 35 255
-21.484920105210918 -2.436017430025970 -32.162121936348967 63 55 26 255
-20.670022677425820 -0.743549834247034 -29.914703542234008 51 48 19 255
-11.422835745511676 -32.451200991032920 -4.920255043345406 182 179 139 255
-12.130320935175192 -32.325981718510860 -6.905454622292893 210 179 153 255
-11.887434395614122 -31.424865747579460 -6.256398270946022 215 178 159 255
-12.119784225073516 -30.917515108929763 -6.924388571815598 219 181 167 255
-12.352168358684594 -30.414037781653562 -7.592324428424092 221 183 171 255
-12.686440625208064 -30.001221368868656 -8.542397984765216 221 183 171 255
-13.020760219449244 -29.593892354596974 -9.492394975803080 221 183 170 255
-13.423037867877738 -29.250988365420369 -10.630428944847779 220 184 170 255
-13.689543142166201 -28.795680485469376 -11.392158643321807 220 184 171 255
-14.024007331659305 -28.404789491859233 -12.341925018174635 222 186 174 255
-14.086831316731661 -27.777119908686288 -12.539246406679013 218 182 168 255
-14.557230659456962 -27.517211511197061 -13.865056691543430 213 177 163 255
-14.891835265884538 -27.141641067257666 -14.814605607987062 209 173 159 255
-15.362358712382857 -26.895894703911381 -16.140217417481409 208 172 156 255
-15.493257520296524 -26.344148674973141 -16.525407500427150 211 175 159 255
-15.590212532331506 -25.762981130026517 -16.816535176273220 215 179 163 255
-15.823083675734381 -25.311084920758233 -17.483732539736110 215 179 163 255
-16.022019845404401 -24.830838843374750 -18.056852730997292 211 175 159 255
-16.254969591665471 -24.386311262604721 -18.723940570374253 206 170 154 255
-16.420002312641287 -23.880174029551625 -19.202944682325295 208 172 156 255
-16.720992253200095 -23.508689863344372 -20.057945766549153 214 178 162 255
-16.886100244738486 -23.009085063775657 -20.536850291986866 218 181 163 255
-17.085227433012577 -22.545720829219775 -21.109714682950511 218 181 162 255
-17.182433056715894 -21.984239043454139 -21.400531647914022 217 180 161 255
-17.517586986430842 -21.662813036869451 -22.349288379539161 214 177 158 255
-17.920777052555692 -21.415452814260277 -23.485949831645087 198 160 139 255
-18.290037518524841 -21.139971523275577 -24.528529403107598 141 100 80 255
-18.523379651714350 -20.730943688743636 -25.195083480152931 136 95 75 255
-18.688773590634767 -20.255406334673921 -25.673617252115577 132 91 71 255
-18.752210126472946 -19.676325109554000 -25.870174423485111 130 90 70 255
-18.781672925446486 -19.062626013340108 -25.972735059338930 144 108 86 255
-18.879162805817174 -18.521344027969818 -26.263221116886513 160 125 103 255
-18.806664501317798 -17.800554458554117 -26.083842649291427 153 121 100 255
-18.700173433043190 -17.042162221789042 -25.810506298305398 146 114 91 255
-18.525677068979320 -16.208592174119829 -25.349262716148928 139 107 84 255
-18.419202629155336 -15.446337620479198 -25.075957989638425 133 101 78 255
-18.516806795668458 -14.906211320424646 -25.366381410811158 127 95 70 255
-18.580431543066240 -14.330079505947509 -25.562824855551440 123 92 66 255
-18.712116556871834 -13.830645643899672 -25.947135657587580 117 87 59 255
-18.537689542571172 -12.990316280413765 -25.485929475170110 108 78 50 255
-18.601398278012326 -12.415871715515578 -25.682318419367476 98 69 39 255
-18.733179594319395 -11.919727744708965 -26.066553031664455 95 65 37 255
-19.001088731715541 -11.581339674683377 -26.826475040344718 124 94 68 255
-19.098932989129082 -11.051230222968286 -27.116690169957764 147 113 85 255
-19.264865324747390 -10.601564799330575 -27.594722393303243 153 119 91 255
-19.600978565391358 -10.353151771944894 -28.542313430357950 160 129 101 255
-19.835066777664807 -9.990029834749308 -29.208070868714543 163 129 103 255
-19.865022460067266 -9.388945136929848 -29.310284248933215 174 138 113 255
-19.656782764470037 -8.504481848876409 -28.755105906801077 187 147 125 255
-19.788893243049557 -8.024767117290551 -29.139027701168374 188 146 124 255
-19.887010964433543 -7.505994557869329 -29.429006317253055 170 130 105 255
-19.883056343522995 -6.864638252462129 -29.437252024831025 153 116 89 255
-19.811054099862190 -6.139879764108215 -29.257692500892944 138 103 75 255
-20.113525363569664 -5.874724787061581 -30.110958403971551 126 95 67 255
-20.211803259277900 -5.361279928071724 -30.400811755449496 118 87 57 255
-20.207991062836626 -4.721974155144309 -30.408973236309691 110 82 50 255
-20.102074824589607 -3.954361627305730 -30.135473787454259 100 75 42 255
-20.370702115794998 -3.657700049899660 -30.894653851479660 93 71 39 255
-20.843681531457023 -3.624677728742185 -32.217020540546287 83 69 37 255
-20.805983716068482 -2.946223455023969 -32.131191991260295 73 66 35 255
-19.848916313468450 -1.084612356731299 -29.510895237703039 58 56 26 255
-11.795173507505211 -33.284041256236705 -8.030643652963477 168 172 129 255
-10.832591104173972 -31.802387120528039 -5.408965384345350 192 165 137 255
-11.032491337472948 -31.261680240298745 -5.982266848928788 206 169 151 255
-11.061441759436406 -30.582371579592404 -6.085719080673442 208 175 161 255
-11.466578163262639 -30.218931860056884 -7.222686018531192 212 176 161 255
-11.803369182470831 -29.804208771970920 -8.171655843017504 213 176 160 255
-12.277014231589703 -29.511767832441990 -9.496347829708071 211 174 158 255
-12.648110896147301 -29.138566490068868 -10.539096425032596 211 175 159 255
-12.985053271806919 -28.741646591123938 -11.487818820358427 213 177 161 255
-13.322043600800541 -28.350202534384806 -12.436464488250891 217 181 165 255
-13.590662719867282 -27.903672016169480 -13.197162996948094 217 179 165 255
-13.927746209701724 -27.522627008233115 -14.145662019987412 212 175 161 255
-14.264878863784475 -27.147045322478206 -15.094083902244904 210 173 157 255
-14.567845357196489 -26.745833441683317 -15.948504199512399 210 173 157 255
-14.870857851623796 -26.349536269999305 -16.802854311457111 213 176 160 255
-15.139697090900796 -25.926520274993848 -17.563217004851083 217 182 163 255
-15.340135975862395 -25.444072003128383 -18.135689458630878 217 182 163 255
-15.403716051053138 -24.836229094762345 -18.332473340828187 212 177 158 255
-15.569992917327184 -24.326821676002410 -18.810955795273145 207 172 153 255
-15.838984554438326 -23.918274873070189 -19.571104293590821 206 171 152 255
-16.108020662092088 -23.514076725274492 -20.331189010351096 209 174 155 255
-16.205944980621624 -22.947978556627206 -20.621732200288704 215 180 161 255
-16.303895247054342 -22.383521009989579 -20.912247238576242 214 181 160 255
-16.573047805237522 -21.989642592307590 -21.672175728326039 212 179 159 255
-16.944957659623327 -21.702269937415792 -22.713694243364387 214 179 159 255
-17.316925349028736 -21.420842129445262 -23.755126884682994 210 174 152 255
-17.449264849760254 -20.903166727730664 -24.139330255576937 194 157 137 255
-17.581636239002847 -20.387648339089608 -24.523497606733741 166 128 108 255
-17.851018693953378 -20.014834082105395 -25.283110689284996 174 136 117 255
-17.983462676702402 -19.504694608188785 -25.667191306709384 181 144 124 255
-18.081691367386426 -18.961019617474577 -25.957372147800243 177 142 121 255
-18.145699595471484 -18.382994350146731 -26.153663753065331 162 130 108 255
-18.106977908875521 -17.697368744179144 -26.068364188228855 153 122 101 255
-18.034018161572575 -16.974683209990374 -25.889210621623874 146 116 92 255
-17.824047815124374 -16.103850068753715 -25.334666135558905 138 108 84 255
-17.648333891566182 -15.266761179511377 -24.874000977568045 132 102 78 255
-17.575401570037798 -14.538815215500989 -24.694888352809357 126 96 70 255
-17.708051825177392 -14.035138236664636 -25.078811682537662 121 91 65 255
-17.943528351808297 -13.647072420975022 -25.744202251557823 114 84 56 255
-17.904933544064974 -12.957860345699430 -25.658882367149715 106 76 47 255
-17.934891995686783 -12.344790068939531 -25.761215656991340 94 65 35 255
-17.999146444068458 -11.770828306788900 -25.957356411308012 104 73 45 255
-18.234783718886234 -11.392450639668738 -26.622577386609493 144 112 87 255
-18.299110529226354 -10.821823467671138 -26.818652173451937 158 123 95 255
-18.500564824243455 -10.410011955652394 -27.389957938120432 166 132 104 255
-18.770616916002027 -10.080795977543062 -28.148831788573887 167 133 105 255
-19.109277492672859 -9.835791568036655 -29.095252625337480 171 136 110 255
-19.208046776487777 -9.314192177541216 -29.384969309942619 175 138 112 255
-19.135450514718201 -8.591392826748361 -29.205654831160160 178 139 115 255
-19.028593079148607 -7.826570353548917 -28.932546821254050 188 146 124 255
-18.716050108976887 -6.813502253188005 -28.096691105407928 173 133 108 255
-18.609220173399777 -6.043525312567752 -27.823622933242063 155 118 91 255
-18.708133902185878 -5.521502383916825 -28.113279496955784 139 104 76 255
-19.047110425934036 -5.294191198569337 -29.059380632143245 126 95 67 255
-19.214697472943840 -4.861309810611175 -29.536505446062108 114 84 56 255
-19.073702274681565 -4.049052081591910 -29.169603584488442 105 81 50 255
-18.967019863750096 -3.277148693996708 -28.896489108995013 96 77 46 255
-19.169018708748581 -2.890214619504860 -29.467300633403681 86 72 39 255
-19.130990852168622 -2.203601727817627 -29.381701698574062 74 67 36 255
-18.578515879300937 -0.863458627325784 -27.889670208382910 61 63 31 255
-9.697568113590904 -31.418149921976692 -4.385992928325010 183 158 127 255
-10.071193661890632 -31.014226086923316 -5.427924530809321 196 158 136 255
-10.169311219974617 -30.389258537352688 -5.718976586094783 202 163 146 255
-10.646358651650615 -30.081218427551249 -7.042309265303373 203 169 150 255
-11.089019052239792 -29.751907109489451 -8.271694777668444 206 170 152 255
-11.635089037375678 -29.517294997923599 -9.782498822806616 206 169 151 255
-11.940061602759783 -29.085144043134548 -10.636337415632312 205 171 152 255
-12.451804042053638 -28.836353446188639 -12.053096082280689 209 174 155 255
-12.687961774263513 -28.355685920890281 -12.719118903247818 210 173 156 255
-12.993072213525309 -27.939423763141804 -13.572735427941012 212 176 162 255
-13.263766384093870 -27.497542462924045 -14.332461768349646 211 175 159 255
-13.775737602887659 -27.275764095020477 -15.748845405810528 209 173 157 255
-13.943134131292524 -26.751274803938657 -16.226981091125765 211 174 158 255
-14.455222889973612 -26.543111375089197 -17.643174709537504 214 179 160 255
-14.622698613456691 -26.026828041104338 -18.121192143418313 217 182 163 255
-14.790204789074977 -25.513291436929407 -18.599168237415370 216 181 162 255
-14.716437220768356 -24.777328582106435 -18.420509044066307 212 177 158 255
-14.918466043954894 -24.299820244318440 -18.992222682307016 210 175 156 255
-15.258434269336547 -23.956413149260584 -19.939055100338095 207 172 153 255
-15.598453882993965 -23.618434833040340 -20.885809735136235 208 173 154 255
-15.697166668414766 -23.053154338059372 -21.175993116928822 211 176 157 255
-15.864868133661005 -22.556548000585352 -21.653711016917782 213 180 159 255
-16.067086549378914 -22.096444193429235 -22.225164207615848 212 180 159 255
-16.407284562433389 -21.775816694702314 -23.171663928314786 214 179 159 255
-16.609586031377276 -21.323290209180058 -23.743003501332197 211 176 154 255
-16.639479305617797 -20.701025544874980 -23.845458783285295 202 165 146 255
-16.910830669418090 -20.323360284948620 -24.604243045525777 203 166 147 255
-17.044256393928890 -19.809463707140054 -24.987923921432895 199 162 143 255
-17.212208997074526 -19.333120491312414 -25.465325040221529 186 151 131 255
-17.276707349419581 -18.752433283838357 -25.661425025714237 174 142 121 255
-17.341231063219055 -18.172804188107136 -25.857503008754605 162 131 110 255
-17.440281073159753 -17.630443296484756 -26.147304376619900 154 123 102 255
-17.401351761230472 -16.943729006582004 -26.062108386875707 145 116 92 255
-17.258925750144684 -16.146171948196454 -25.695695876152655 137 108 84 255
-17.047493145849458 -15.272362045237045 -25.141833435658697 131 102 78 255
-16.870567023601438 -14.432558753560471 -24.681736180808485 126 96 70 255
-16.969720560436755 -13.890521258363762 -24.971488121749360 122 92 66 255
-17.103417825856894 -13.387878171439652 -25.354934184518555 113 83 55 255
-17.133611945372294 -12.773013359588560 -25.457180538446067 102 71 43 255
-17.232862052242396 -12.235366353014797 -25.746845046072650 100 69 40 255
-17.366662530023376 -11.737906360284114 -26.130192702735059 141 107 80 255
-17.638574491098908 -11.398184133208758 -26.888343509347152 156 122 97 255
-17.668896929930625 -10.788393931798936 -26.990481359555389 163 128 100 255
-17.768291224100011 -10.257958190006050 -27.280008692366607 169 134 106 255
-17.936768228992491 -9.808491995739260 -27.756904343321736 172 137 109 255
-18.312440262688426 -9.601596607324140 -28.795932039904017 173 137 111 255
-18.515540260172841 -9.199197714236519 -29.366408918469631 172 135 109 255
-18.546042968339805 -8.597233888264242 -29.468387289199171 172 132 108 255
-18.265801543638219 -7.628411383512685 -28.727176354879759 173 131 109 255
-17.916496411315151 -6.572966422853597 -27.798645766549612 166 126 101 255
-17.532652238025520 -5.470615560094586 -26.776494888844923 147 110 83 255
-17.632296876048059 -4.944829049390577 -27.065863611963465 134 99 71 255
-17.731980630952705 -4.420505160760356 -27.355200111085367 119 88 60 255
-17.866242656968979 -3.939797777055972 -27.738172656144286 104 78 51 255
-17.516983272366303 -2.867035289606363 -26.809796707859903 90 75 43 255
-17.616767813657745 -2.343805312118164 -27.099077213950636 82 76 42 255
-17.336614731205557 -1.349296869656925 -26.358086512361922 66 66 32 255
-8.793154703090352 -30.513844803606517 -4.031915215571217 196 158 137 255
-8.822644194244646 -29.827242841115435 -4.135200816612979 199 162 144 255
-9.754221922560347 -29.886270634226406 -6.675588075169799 198 165 146 255
-10.616516890882806 -29.902132985873152 -9.028314103765069 202 166 148 255
-11.131923474118381 -29.639649384548662 -10.443577488197406 203 166 148 255
-11.196279526619549 -29.002315752131409 -10.640313473098018 205 170 151 255
-11.572979122529375 -28.633751305779157 -11.680517094655102 204 169 150 255
-11.949729226287346 -28.271204085580877 -12.720637377789757 207 171 153 255
-12.395944372805758 -27.975219355166885 -13.948101133050642 213 177 163 255
-12.946345630433399 -27.777958077512608 -15.456596526170500 212 176 160 255
-13.288552067259744 -27.404512376886643 -16.402734637255548 210 174 158 255
-13.457241986659199 -26.881102044925228 -16.880282749521911 211 175 159 255
-13.660675793482497 -26.391802110006623 -17.451489149561411 214 179 160 255
