ply
format ascii 1.0
element vertex 650
property float x
property float y
property float z
property uchar red
property uchar green
property uchar blue
property uchar alpha
end_header
-13.434538840423556 -16.153314253012638 -23.137569921613817 166 134 109 255
-13.043419849225785 -15.603266364920486 -23.423883211910038 166 135 107 255
-12.320839274006488 -15.191930620946650 -23.943063565231029 162 132 104 255
-12.426681719858692 -14.442552082919875 -23.880195143755572 160 130 102 255
-12.615423315971555 -13.658016345073705 -23.759129611533297 157 127 99 255
-12.389848587505583 -13.046458433123334 -23.929141995646148 150 123 94 255
-12.164239613965464 -12.436446502481814 -24.099183625568543 143 116 84 255
-12.104379153984070 -11.757241987746866 -24.152821305581654 136 112 76 255
-12.210320056849838 -11.007216269735281 -24.090045044495838 130 106 70 255
-12.316298159528117 -10.256553258895394 -24.027285376097382 126 104 67 255
-12.339396818971181 -9.541422340033435 -24.022764675298276 120 98 61 255
-12.528368542325836 -8.753285146611688 -23.901817614817446 114 92 55 255
-12.468592578625390 -8.074100131766940 -23.955561068471923 113 89 55 255
-12.740595532709847 -7.247375804534002 -23.776421642898384 106 82 51 255
-12.514960225801758 -6.642446064605082 -23.946666449961214 98 75 43 255
-12.952984481988750 -5.738761078468599 -23.651101124535927 92 69 37 255
-13.557060549513864 -4.756617801938575 -23.239078260754127 84 62 31 255
-14.576177955786818 -3.580170072764474 -22.535887550347240 76 55 27 255
-15.014620160855941 -2.665445833425579 -22.240328621806270 62 46 18 255
-15.785162086556340 -1.593384582655389 -21.711830261926281 47 37 9 255
-17.420874122022781 -20.135701241641144 -19.340535266671822 193 165 141 255
-15.792379380934847 -20.033773197489737 -20.503712863538084 190 160 136 255
-14.328764785463790 -19.878928785406046 -21.550164139144584 188 156 133 255
-14.021476764731403 -19.283992961298566 -21.778985210336401 187 153 128 255
-13.796756192771568 -18.658806979508313 -21.949425225856800 181 147 122 255
-13.241462012413564 -18.165900888928277 -22.353535859800473 176 142 117 255
-12.355490736611301 -17.808509558713936 -22.991338801152466 174 140 115 255
-12.461152175865891 -17.058518509491066 -22.928217305613032 170 136 111 255
-12.236206797683423 -16.441869707783653 -23.098774515562155 167 134 109 255
-11.845887388512892 -15.894298986864783 -23.386195133239227 161 131 103 255
-11.372819216546617 -15.383401161109390 -23.732069850108360 160 130 102 255
-11.809203560590930 -14.498502758401102 -23.435341090491107 157 127 99 255
-12.080302391228059 -13.679961687691986 -23.255459330786039 152 125 96 255
-11.689846286388473 -13.138372950734961 -23.542987913053082 147 120 91 255
-11.216608628715761 -12.634511992090466 -23.888978854779907 142 115 86 255
-10.991445371779321 -12.027700451367963 -24.059722192372050 133 108 76 255
-11.179893766234500 -11.244217379927179 -23.938341619643410 126 103 69 255
-11.285658147229725 -10.495468491408701 -23.875405532992403 118 100 62 255
-11.474206145966235 -9.709894049733407 -23.754051521049973 112 97 57 255
-11.911075333055010 -8.813771197825446 -23.457403586159472 106 92 50 255
-11.934232329498343 -8.098437630817585 -23.452945882937570 104 87 48 255
-12.371275106566998 -7.198012782851706 -23.156313739757394 96 80 41 255
-12.311737835946644 -6.518328986371657 -23.210330288365839 92 74 39 255
-13.080109945685678 -5.463702635552551 -22.679948098226532 84 67 33 255
-13.683065223855976 -4.479663009382634 -22.266446210556467 77 60 27 255
-14.534591807001675 -3.377447086283098 -21.677606817780656 69 52 24 255
-15.137868936606537 -2.384685496260062 -21.264099603243068 58 45 16 255
-15.906946365997015 -1.310719694679548 -20.733695262798193 44 35 7 255
-17.262819856652811 -20.732040633260098 -18.534241172679288 194 173 142 255
-16.297324461543241 -20.373149326009624 -19.232728764752238 187 155 132 255
-14.589778831406790 -20.305089584581879 -20.458819748176808 185 153 130 255
-13.458936927066276 -20.025324768306433 -21.274671242402263 181 149 126 255
-12.822535532889617 -19.560312393741356 -21.738865875229209 179 147 122 255
-12.598276935779523 -18.937590039908656 -21.909993584178437 175 143 118 255
-11.879201819509632 -18.512515329416246 -22.432886964299968 172 140 115 255
-11.159982807798059 -18.092279022149768 -22.955826300861787 170 138 113 255
-11.265420918925258 -17.344734001755384 -22.892541149743636 165 133 108 255
-10.875957137455600 -16.797519428092713 -23.181040218813365 162 130 105 255
-10.568917651314734 -16.219210544049957 -23.410941387587968 157 129 101 255
-10.426835136705222 -15.574966446827190 -23.523607391951060 155 127 99 255
-11.027366109816114 -14.623098129312382 -23.108589729159917 151 124 95 255
-11.380463684886308 -13.771081471636919 -22.869471403493094 147 121 92 255
-10.990856607870569 -13.230350269965641 -23.158093514955880 142 117 87 255
-10.683719821400643 -12.657141870886278 -23.388110632511996 135 111 80 255
-10.541629670888653 -12.015263631832056 -23.500876957130714 128 105 73 255
-10.564639042353690 -11.303087167113304 -23.496382554045312 119 99 66 255
-10.670233738025729 -10.554899518339354 -23.433261916862506 113 96 58 255
-10.941016495514191 -9.733695966162742 -23.252864314309448 108 94 55 255
-11.542209785637198 -8.764933152813555 -22.837884598475171 103 90 49 255
-11.813171966890224 -7.939174796009880 -22.657498295363013 100 85 46 255
-12.084207374808443 -7.111667498511338 -22.477121707498810 93 78 39 255
-12.272705717396036 -6.319671020749993 -22.355408026588151 87 72 36 255
-12.709120375822238 -5.413833634549562 -22.057745132164911 79 64 31 255
-13.476159724719707 -4.353901585708144 -21.525462614899851 72 57 24 255
-14.078106015315853 -3.365097661313399 -21.110487362237677 65 51 21 255
-14.928138104640908 -2.257281974150303 -20.519533267570495 57 44 15 255
-15.778371255169418 -1.143871995888603 -19.928569085087332 42 34 8 255
-16.057735501029697 -20.998438477014844 -18.486037130829686 192 159 133 255
-14.765248837562353 -20.767366069899040 -19.422434367480037 189 153 129 255
-13.307979849943763 -20.608138545918450 -20.476557786204239 185 150 128 255
-12.014940350250072 -20.394895748166903 -21.413096350656588 180 148 125 255
-11.379829955847555 -19.933179611096094 -21.879046223650079 177 145 120 255
-10.826874624199093 -19.443364957731887 -22.286203082654964 174 142 117 255
-10.602976513456326 -18.826599589307122 -22.458054650636996 172 140 115 255
-10.049835522633373 -18.343227887880090 -22.865280098511562 169 137 112 255
-10.401987055462740 -17.498201065259593 -22.625312027588222 163 131 106 255
-10.177994881147640 -16.885402421094383 -22.797230944758411 159 128 103 255
-9.953963610860399 -16.274183912599412 -22.969174672340387 154 127 98 255
-9.647558340521243 -15.698568488626577 -23.199987969761509 151 124 95 255
-9.752817951893718 -14.953564395260528 -23.136599203870276 146 121 91 255
-10.187520836139811 -14.069682493382800 -22.837830752640599 144 119 89 255
-9.963433896408731 -13.461749412469430 -23.009857862192035 136 111 81 255
-9.986421091060947 -12.750034612236050 -23.005357360781318 129 107 76 255
-9.844666584629408 -12.108999595262972 -23.118579387729028 124 103 72 255
-10.114832571463580 -11.290706532211658 -22.937551381669238 116 98 65 255
-10.385068408153273 -10.470697030182620 -22.756530408258982 108 94 57 255
-10.572969497395377 -9.685154355175001 -22.634374988632089 106 94 55 255
-10.843338164755778 -8.861959066573561 -22.453371022601260 102 92 51 255
-11.031355831071835 -8.073755549073567 -22.331236800100811 96 84 44 255
-11.301859879677750 -7.247342503250024 -22.150251523250802 89 77 39 255
-11.489996678545623 -6.456445705243326 -22.028140164073335 84 71 34 255
-11.925536928343519 -5.551694891160878 -21.729442464393685 77 64 30 255
-12.691018371886486 -4.492831798188547 -21.195276033815333 70 57 25 255
-13.374213904962488 -3.467022319771644 -20.719970182958434 63 49 20 255
-14.469951064226848 -2.244935805291192 -19.950302536581376 54 43 15 255
-15.648425677549483 -0.977004742219279 -19.121741108069727 41 34 7 255
-15.078456727168884 -21.902489770149728 -18.269318286630664 192 159 134 255
-13.870882076984174 -21.637733466735824 -19.150084959432746 189 154 130 255
-12.663055606724782 -21.381090487796683 -20.030915628932746 183 149 125 255
-11.372891278861260 -21.164158704243846 -20.970851378285630 180 145 123 255
-11.067598873787915 -20.573387481871990 -21.202342491169702 176 144 121 255
-10.433831737181805 -20.113346297652825 -21.670037219706330 174 142 117 255
-10.210497735801738 -19.495548087853024 -21.842540972884962 172 140 115 255
-9.658637720665581 -19.010088708977833 -22.251259357671671 171 139 114 255
-9.106666977452988 -18.528388407863886 -22.660014772589761 165 133 108 255
-9.211693861044353 -17.784652076470692 -22.596396002939429 161 129 104 255
-9.727486070855036 -16.872873424097278 -22.237521210815771 156 125 100 255
-9.668303861704629 -16.194160662390260 -22.292023492416803 150 125 95 255
-9.691281806674027 -15.481907923118200 -22.287486545954010 147 122 92 255
-9.303406517984229 -14.941122588949156 -22.578255474554794 144 120 90 255
-9.408550352746261 -14.195534280978407 -22.514695905013667 139 116 85 255
-9.267153740782561 -13.553872678103502 -22.628333036958423 132 109 78 255
-9.290136251247276 -12.842989927954633 -22.623865336628938 123 103 72 255
-9.477550827574163 -12.061257881339344 -22.501282951491646 119 100 68 255
-9.500582421834139 -11.349667959012820 -22.496843350074244 110 96 61 255
-9.852533718149459 -10.494282613006533 -22.256146035699459 107 93 56 255
-10.204572263652040 -9.636633068344878 -22.015451927353638 104 93 54 255
-10.227725503495236 -8.922575410517993 -22.011048775519555 99 90 49 255
-10.662157441760883 -8.024718566685692 -21.711295488527412 95 83 43 255
-10.767652689578284 -7.272059895934021 -21.647843930382578 89 77 39 255
-11.119993959019439 -6.406895000425536 -21.407176753708114 81 68 33 255
-11.061033525191448 -5.727164434340423 -21.461907046220091 76 63 29 255
-11.907235863339480 -4.631820908922620 -20.866778653187225 69 56 24 255
-12.753635760300767 -3.530905919994950 -20.271636884914443 61 48 19 255
-14.094063301831881 -2.194248832302463 -19.321982443004629 50 39 11 255
-15.352482363135437 -0.887380373169236 -18.431381375726062 37 30 4 255
-15.165710914331783 -22.406532686315145 -17.284838206045606 201 174 144 255
-13.223909577652080 -22.413086913355500 -18.702012154885097 188 151 128 255
-12.100680294422489 -22.121938920449224 -19.526783421140948 182 148 123 255
-11.141029301775461 -21.775687986486219 -20.233111151921179 177 147 121 255
-10.099262532332489 -21.467533130270354 -20.998744631870295 174 142 119 255
-9.876520395050875 -20.847618190373879 -21.171884714524055 172 142 118 255
-9.326003588306151 -20.357912709796764 -21.582073103084298 171 141 115 255
-9.267024034843558 -19.677468437987031 -21.636746543744749 168 138 112 255
-8.634384996408528 -19.226367286275021 -22.106256257724823 165 135 109 255
-8.247494052939714 -18.680690616898417 -22.398019858924840 161 131 105 255
-8.270365370958217 -17.971545424244496 -22.393494795582257 157 127 101 255
-8.703130070239666 -17.094874874595931 -22.092655527216863 153 123 97 255
-8.890038321497400 -16.316769914654301 -21.969613069631265 147 123 92 255
-8.749018315021544 -15.673693401434790 -22.083651943514297 144 121 90 255
-8.361968424461679 -15.134571343381637 -22.375522468061661 141 118 87 255
-8.138867118966573 -14.528934094635588 -22.548879399546308 134 113 82 255
-7.997747194798706 -13.890003383992948 -22.662986667899077 128 107 76 255
-8.512836950556107 -12.971127493564822 -22.302910681258425 119 100 67 255
-8.863971342435178 -12.119708852564301 -22.061383594508726 114 98 64 255
-9.051098463509561 -11.337361299330368 -21.938415882444133 107 92 56 255
-9.402386611292968 -10.481978997331595 -21.696895673059799 105 91 52 255
-9.999952792782835 -9.515732116545522 -21.277531100296045 102 90 50 255
-10.269368334112755 -8.691474054257867 -21.095294883454443 98 86 44 255
-10.292609943447900 -7.975700091407347 -21.090921755280931 97 83 45 255
-10.397959850719047 -7.222789999089201 -21.027278146173131 92 78 41 255
-10.339148090013282 -6.543770451690179 -21.082225955182139 85 71 36 255
-10.526661294193673 -5.752493591905392 -20.959323011857236 77 62 31 255
-11.371162193878206 -4.657399769356275 -20.362094545254337 69 54 23 255
-12.544361428448866 -3.404359650414079 -19.527676897613901 58 47 19 255
-13.799963052847374 -2.105207911812215 -18.633937223778844 48 37 10 255
-14.973708393567193 -0.836391592374540 -17.799465192343547 35 29 4 255
-13.231262582180022 -22.943158325698249 -17.779026320219003 187 159 133 255
-11.456875954700649 -22.893094891486257 -19.082447831270258 182 147 127 255
-10.417658979192339 -22.575274450833476 -19.850797300119950 176 142 119 255
-9.623431027615595 -22.170458719426890 -20.440810361159095 175 145 120 255
-8.910781420874429 -21.739438034969538 -20.971402519759266 173 141 118 255
-8.524996646298433 -21.185747860807254 -21.264167092511258 172 140 116 255
-7.975609209030068 -20.699060555618061 -21.675897216637850 171 140 114 255
-7.998504087868213 -19.989183337564896 -21.671367422126735 167 136 111 255
-7.448951999280666 -19.508142805217062 -22.083155258148707 164 134 108 255
-6.981075863483909 -18.997899060825986 -22.435504187033843 159 129 103 255
-6.922089843597035 -18.324703692284217 -22.490506016825378 155 125 99 255
-7.353930814063489 -17.450996838471454 -22.188657847232236 149 121 95 255
-7.622241453342667 -16.642097099351872 -22.005763097085463 143 120 90 255
-7.726969900809706 -15.899618414716102 -21.941832303352641 140 118 87 255
-7.668064249488737 -15.225174790982280 -21.996875948566640 135 115 84 255
-7.445472542491672 -14.620380349287444 -22.170904458638404 129 110 78 255
-7.304690723474977 -13.982288212344585 -22.285470268037955 124 105 73 255
-7.818751983618171 -13.064213956788109 -21.924155014506454 116 100 66 255
-8.251065517141626 -12.178212780065721 -21.622322777087817 113 97 61 255
-8.437854455493465 -11.396416466324709 -21.498960927597068 106 91 54 255
-8.460924833805706 -10.685315150698315 -21.494592136988615 102 88 49 255
-9.139155891519465 -9.684473683005137 -21.014283597414448 100 87 47 255
-9.489935914374144 -8.825099662743966 -20.771947500351928 96 84 44 255
-10.004624345181298 -7.889955004688233 -20.410618409845711 95 81 44 255
-9.945999102615417 -7.210554076344778 -20.465780007736299 91 77 42 255
-9.969302405384042 -6.494275312706705 -20.461460020208762 84 70 35 255
-9.992624100355812 -5.777856359360371 -20.457156353247996 76 61 30 255
-11.163207582147294 -4.531699682582357 -19.619811738372988 68 53 22 255
-12.170148104202838 -3.354004585274694 -18.901450359404066 57 46 18 255
-13.423211417470526 -2.054538323612405 -18.004545780821701 44 37 9 255
-14.512615886287733 -0.824052722897648 -17.226628813635813 32 29 4 255
-10.872009177194258 -24.354225461975460 -18.583828978584478 197 177 145 255
-10.650640419573222 -23.724309400162056 -18.758209425735060 184 153 129 255
-10.021487148273962 -23.250075894487964 -19.230971788841345 179 144 124 255
-8.902862807853154 -22.966647687492369 -20.061816535768799 175 140 118 255
-7.947131554640521 -22.628097884565094 -20.773366472834226 173 139 116 255
-7.317493510126496 -22.169565488033115 -21.246255855366456 171 139 116 255
-7.095636040800230 -21.555917180344053 -21.420784731316019 169 137 112 255
-7.036916613485943 -20.879570536533379 -21.475971182551575 167 135 110 255
-6.978188083740321 -20.203755382792409 -21.531171002667037 165 133 108 255
-6.674624915893276 -19.626559307610577 -21.765438288284543 160 130 104 255
-6.452618504884157 -19.018535508233469 -21.940043340146133 157 127 101 255
-6.475447649845023 -18.312392352014186 -21.935605257280713 151 124 97 255
-6.498286838837089 -17.606217080411199 -21.931178149658223 146 119 92 255
-6.521136518597729 -16.900003496939718 -21.926762284153313 141 117 87 255
-6.217387854613150 -16.329937383920409 -22.161130244470741 137 116 85 255
-6.240224891031403 -15.624708505651967 -22.156744386485713 130 112 80 255
-6.263073771591820 -14.919422094651935 -22.152370558273816 124 107 77 255
-6.367613538156945 -14.179213091272871 -22.088310925650063 120 103 73 255
-7.207369628443843 -13.122235675959701 -21.486962603080968 113 97 61 255
-7.475441591342815 -12.307567630332329 -21.303503929167135 110 95 56 255
-7.825284854809127 -11.455523863263878 -21.060345406311939 104 90 51 255
-7.848358045561241 -10.744982410573229 -21.056006088934737 102 88 51 255
-8.443503079880401 -9.780873795651104 -20.633735855657648 99 86 48 255
-9.120517696294627 -8.776392788098349 -20.151748678403180 93 81 43 255
-9.634208875352726 -7.840970657232774 -19.789169017540615 89 77 37 255
-9.575780419651380 -7.161324988664376 -19.844563490232332 85 73 35 255
-9.599108983488833 -6.444797230634236 -19.840263298727251 81 68 33 255
-9.949520814416047 -5.577882458891921 -19.597120278168859 74 59 28 255
-10.872448046185866 -4.443828107389962 -18.935966959551251 66 51 22 255
-11.632019960753468 -3.379868800865466 -18.394229678696632 55 44 16 255
-12.882527649740013 -2.080628136473479 -17.494163774412897 42 36 10 255
-14.460527513468406 -0.618510665291538 -16.355182898691737 28 27 5 255
-9.009047146405351 -25.573135082787559 -19.038951205786617 200 176 145 255
-8.544019194745658 -25.037812706285379 -19.393671152104986 187 157 129 255
-8.567100004676178 -24.322505450131345 -19.389120114560626 185 150 127 255
-8.183302546045553 -23.761284425904748 -19.684001653516134 179 144 124 255
-7.555267380183665 -23.296029844492082 -20.158568404973295 174 139 117 255
-6.845704759730239 -22.866461586224489 -20.693059240229957 169 135 113 255
-6.461603398278527 -22.315272022112168 -20.988029154612008 167 135 112 255
-6.240245053847019 -21.703000557014832 -21.163241394394191 167 135 110 255
-6.181682453013138 -21.028021657746052 -21.218685959308175 166 134 109 255
-6.204539267701165 -20.321142144332654 -21.214248043821215 163 131 106 255
-5.983090797714823 -19.712356161246674 -21.389510186290352 159 129 103 255
-5.517258825711764 -19.204088042362585 -21.744487821867096 156 126 100 255
-5.458607504768878 -18.532821974462252 -21.799994584837577 150 123 96 255
-5.562876214669529 -17.795039169997139 -21.735711140270553 145 118 91 255
-5.585699474857762 -17.090461025813710 -21.731338384495359 140 116 85 255
-5.445569929040886 -16.453944113509706 -21.846786837417937 134 113 82 255
-5.386906391239336 -15.784134196783739 -21.902346016573603 129 111 78 255
-5.735731815553095 -14.941842894600882 -21.658376852025469 122 106 72 255
-5.840115483658963 -14.201915900798937 -21.594136572776847 118 102 68 255
-6.515144957294041 -13.215445485414946 -21.110521481206320 111 96 58 255
-6.619649766100224 -12.472398251887370 -21.046286742834724 108 93 54 255
-7.131855943869652 -11.550357534999122 -20.682485059535765 103 89 50 255
-7.236466393859587 -10.804701098448930 -20.618260342251801 100 86 49 255
-7.667315368996157 -9.913547642245817 -20.314371323257092 97 84 47 255
-8.179827354476913 -8.983099108423218 -19.950558980418577 92 80 42 255
-8.937167972016937 -7.939026226066360 -19.406975337792403 89 77 37 255
-9.205213940441752 -7.112114797328431 -19.222916198386628 84 72 34 255
-9.718089761212042 -6.171561656149649 -18.859086467853103 79 67 32 255
-9.986300819460240 -5.340321748900536 -18.675031341554387 70 58 26 255
-11.070627928838604 -4.128940555688288 -17.891699460583197 60 48 19 255
-11.665521965716664 -3.139011649014122 -17.467919418452027 48 41 12 255
-12.995158479182862 -1.799721918482689 -16.504750010291787 37 33 6 255
-9.343732444416389 -25.980192416405018 -17.878701961326925 201 183 149 255
-7.743383678039208 -25.860652177304019 -19.075994274241197 200 166 139 255
-7.116950928353901 -25.388622755539387 -19.552235376953206 191 155 129 255
-7.545945684507132 -24.523830536061254 -19.247268479076467 182 145 119 255
-7.325386011440372 -23.902899600843099 -19.423070075375847 176 139 120 255
-6.455062802447571 -23.532305181675369 -20.079681151973347 171 135 113 255
-5.828223157913499 -23.073593440154610 -20.556035316615777 168 133 111 255
-5.526178020627611 -22.492701797937158 -20.792015128281491 169 134 112 255
-5.305310238787285 -21.882076280758497 -20.967912594107133 169 136 111 255
-5.165646384374526 -21.240901393960542 -21.083722846361553 166 134 109 255
-5.269729551775356 -20.503487239705834 -21.019226232962609 164 132 107 255
-5.211303838809584 -19.830933859396154 -21.074953255958178 160 130 104 255
-5.071592911381572 -19.191878314971419 -21.190803442349647 157 127 101 255
-5.175708892301543 -18.454135957403622 -21.126332322339238 149 122 95 255
-5.117264711612933 -17.782856647791476 -21.182095553367560 144 117 90 255
-5.058812261349658 -17.112079893980933 -21.237871844125806 137 113 81 255
-4.756419641200296 -16.543971516902076 -21.474013652481432 130 110 77 255
-4.697925583193779 -15.874991275673011 -21.529821678126950 125 108 72 255
-4.802081089431169 -15.137299465827823 -21.465401959016390 119 103 67 255
-5.231613379802923 -14.259533336574535 -21.160500090307551 114 99 61 255
-5.905282386905554 -13.273581961651246 -20.675220606484856 110 95 56 255
-6.416394471040093 -12.354046482155155 -20.310177304886906 106 91 54 255
-6.683534044289360 -11.538218685538155 -20.125507615543484 102 88 51 255
-6.950739176963054 -10.720677525807844 -19.940839776726420 99 85 48 255
-7.462153425802484 -9.792758902245268 -19.575782439283131 95 82 46 255
-7.892297255609776 -8.897978559332856 -19.270849941289839 91 79 42 255
-8.403942068333549 -7.963620197523966 -18.905779895535233 87 78 36 255
-8.671485109988510 -7.136983906723785 -18.721109340603590 79 70 31 255
-9.427593934672416 -6.084791323894791 -18.175620087469781 73 65 28 255
-10.102452353624017 -5.065161121338960 -17.690253785388734 66 57 24 255
-11.103204122362001 -3.889687659028894 -16.964314624022734 54 47 15 255
-11.859856677710951 -2.821898732360552 -16.418776385845888 44 39 10 255
-13.023943961746568 -1.557156843104778 -15.572506792259048 32 30 5 255
-8.645108837036474 -26.056862121938195 -17.493551483929934 207 178 150 255
-6.967178606666494 -25.968247078771157 -18.755444305921770 203 169 143 255
-6.423129600568615 -25.467062981368144 -19.173127195996045 192 156 131 255
-6.446145776397088 -24.755826070920762 -19.168684841644193 179 141 118 255
-6.145026818409548 -24.167901106386282 -19.405487728387499 176 139 120 255
-5.357580848304764 -23.768706747117193 -20.004178816069697 171 135 113 255
-4.894174910236387 -23.249479323213038 -20.361658801189918 170 135 113 255
-4.754914252929666 -22.606973482339455 -20.477907694675537 171 136 114 255
-4.534554660857964 -21.997453027431519 -20.654487161721335 171 137 112 255
-4.151991583517457 -21.453894283037044 -20.951720385639902 168 136 111 255
-4.255872111671806 -20.718377067731254 -20.887060310980644 165 133 108 255
-4.359777209478580 -19.982306653362940 -20.822405056377733 159 129 103 255
-4.220392502720216 -19.344622717620453 -20.938723771580044 155 125 99 255
-4.162094266716082 -18.674742046154350 -20.994733044588941 147 120 93 255
-4.022664272932076 -18.038892342033435 -21.111080678811049 142 115 88 255
-4.288863903092704 -17.235125999949346 -20.925804182880313 133 109 77 255
-4.230565219509373 -16.565943890454434 -20.981845319986775 126 106 73 255
-4.253407175205069 -15.862920019953535 -20.977567899628497 121 103 67 255
-4.276258965507083 -15.159839802499661 -20.973300070031229 115 100 61 255
-4.623786308671384 -14.317207338670400 -20.727704018824369 111 96 57 255
-5.214919958967329 -13.366916472814438 -20.301096509349065 107 91 55 255
-5.643819997941961 -12.483591567720467 -19.995151973472076 104 88 52 255
-6.072819576034703 -11.597480483183318 -19.689201672079321 100 86 49 255
-6.664322201281777 -10.636669284968704 -19.262563860365532 98 84 49 255
-7.012329696708235 -9.780645410869298 -19.016942245555640 94 80 45 255
-7.360420672369571 -8.922352304959276 -18.771318925528988 90 77 42 255
-7.708595648118830 -8.061781842990328 -18.525694168438775 86 77 37 255
-8.300565404164502 -7.087822129238546 -18.099025904642957 79 69 33 255
-9.055164334012403 -6.035335463282550 -17.551649066910954 71 63 28 255
-9.972446023279446 -4.902689582340827 -16.883554408817616 61 55 23 255
-10.889937647204107 -3.763943529722340 -16.215437198355744 51 45 14 255
-11.807639896328567 -2.619087011101882 -15.547297814810349 42 38 10 255
-13.782205678633545 -0.969072878283058 -14.094516554473756 26 29 2 255
-9.459825726164183 -26.291648072221136 -15.964364623178938 201 181 148 255
-7.705011674505528 -26.222854682793823 -17.291208496656424 208 176 152 255
-6.273166904936346 -26.045917452524364 -18.376064123009712 209 174 152 255
-5.568629162232583 -25.606157902169372 -18.916318385941366 202 162 141 255
-5.349069214832014 -24.987949543487943 -19.093487097900237 187 150 130 255
-4.967732858622753 -24.433039091828377 -19.391715988463517 180 143 124 255
-4.505440651082978 -23.911944903182075 -19.750491594211667 175 139 117 255
-3.962166639474674 -23.425471705567730 -20.169819051752654 174 138 116 255
-3.823226496768967 -22.784605121146555 -20.286541813500662 174 139 117 255
-3.441559667662517 -22.240541820991368 -20.584863958717023 172 138 113 255
-3.140718811664982 -21.667000316164959 -20.822679521491096 169 137 112 255
-3.082563663016828 -20.998272121436116 -20.878919866124392 163 131 106 255
-3.348098782721564 -20.199205135582119 -20.693036736232898 156 126 100 255
-3.370891094030753 -19.497458891118697 -20.688756995426047 150 120 94 255
-3.555576381766457 -18.729175036297434 -20.563411397029455 142 115 88 255
-3.254594525109724 -18.160939584006528 -20.801298212125090 136 109 82 255
-3.682194241470512 -17.290658520352395 -20.494345192832128 127 104 73 255
-3.543105723647358 -16.656100220873526 -20.611176567075233 121 101 68 255
-3.808880791044515 -15.850889189755151 -20.425306097981036 116 98 63 255
-3.912744205454942 -15.113215173926690 -20.360524688346203 110 95 56 255
-4.259621494400278 -14.270307430577787 -20.114109076806187 108 93 54 255
-4.606579142905503 -13.425168993583696 -19.867689675486645 104 88 52 255
-5.115643941153337 -12.506958111303803 -19.500166952520885 101 86 49 255
-5.624825241102997 -11.585421037313893 -19.132634454918872 97 83 47 255
-6.053092764348975 -10.696507693429012 -18.825645547181921 94 80 45 255
-6.562499764056383 -9.768564958423369 -18.458095885873149 89 76 41 255
-6.990976379430919 -8.873770438720541 -18.151093543488969 86 73 38 255
-7.581668365730934 -7.902620805432136 -17.722969847717081 82 70 35 255
-8.253563150888539 -6.890524238816312 -17.234274996759524 74 64 29 255
-8.844538011366240 -5.911279546247584 -16.806126693330469 67 57 25 255
-9.678901940727258 -4.815368669024465 -16.196279273842123 55 49 18 255
-10.513457393885972 -3.713899041381538 -15.586411579034319 45 38 10 255
-11.915914972274322 -2.340011624296935 -14.552563074826139 36 32 5 255
-8.679323016107787 -26.397059642175265 -15.638379512088250 208 179 155 255
-7.170244865935132 -26.240203614333552 -16.787764395877275 211 178 158 255
-6.064170529876606 -25.943543778394499 -17.633570935918812 211 178 157 255
-5.038529478654198 -25.624188760926671 -18.418698320128584 205 169 145 255
-4.335401215995972 -25.189639648948514 -18.960943705786349 192 156 132 255
-3.874198104951802 -24.667482194153777 -19.321021648364052 183 148 126 255
-3.654999325277856 -24.055281142921686 -19.498917400391065 178 143 121 255
-3.112909773815602 -23.570199423451371 -19.919779473291186 176 140 118 255
-2.893579613426084 -22.962342414498252 -20.097713771018306 176 141 119 255
-2.754929926206188 -22.324198277719631 -20.214923364403688 174 140 118 255
-2.696987352767138 -21.654951588098299 -20.271403474124156 168 137 110 255
-2.396795719583054 -21.083591271763751 -20.510126016774933 162 131 103 255
-2.177294304390074 -20.481657179208582 -20.688122646343999 153 123 95 255
-2.038509770461928 -19.848333591401413 -20.805388597989946 145 116 88 255
-2.303556997848460 -19.049760162234961 -20.618922848494606 138 111 82 255
-2.407102268546396 -18.316598621448705 -20.553956009064677 132 106 76 255
-2.753041360911169 -17.481457022779750 -20.306736417332161 125 102 70 255
-2.775864864128579 -16.780397242183000 -20.302527247055110 117 98 63 255
-3.121925339625676 -15.941923071613672 -20.055303642950662 111 95 59 255
-3.387248697163926 -15.135843899256528 -19.868832265354200 106 92 55 255
-3.571808956313276 -14.362963167768200 -19.743118156852717 103 89 54 255
-3.837247355029604 -13.553780981032929 -19.556645549403783 100 86 48 255
-4.183590736718344 -12.707479753956250 -19.309409815126003 98 84 47 255
-5.015122164285430 -11.644781327321752 -18.697588324323533 96 82 47 255
-5.523400245985613 -10.720436682442397 -18.328804542294307 90 78 40 255
-5.950926293660729 -9.828983045553059 -18.020777493721369 84 72 36 255
-6.378552028364737 -8.934720316789054 -17.712743799861272 80 71 36 255
-7.129824066204122 -7.890547272201047 -17.161623770413058 75 68 31 255
-8.204848922120931 -6.693210589615546 -16.367398617938534 69 62 26 255
-8.551978569379344 -5.824539012550247 -16.120100534534998 60 54 21 255
-9.465583639796392 -4.690472290630154 -15.447376870307636 51 44 15 255
-10.460319093128277 -3.512450791959182 -14.713852584056866 39 37 8 255
-12.831104193136980 -1.679639447659099 -12.947077431965994 29 29 3 255
-9.888492200116076 -26.493259686905262 -13.795057504763491 199 172 148 255
-7.497785971860282 -26.649993829438827 -15.618775296625671 206 173 154 255
-6.233374161953634 -26.406396443473170 -16.589435073393474 215 178 162 255
-5.210171428768689 -26.081403322213717 -17.377327004831926 216 180 163 255
-4.186743198540228 -25.763466187997409 -18.165266532572701 209 172 154 255
-3.646169989936141 -25.269184882307528 -18.587583600664146 198 161 142 255
-3.105477128995915 -24.778708856353475 -19.009928767141986 187 152 130 255
-3.128381428150078 -24.074292278713742 -19.005664087297617 180 145 123 255
-2.668051275863860 -23.558145386270127 -19.367104406883584 178 142 120 255
-2.529813868413925 -22.918664899312901 -19.484763663602422 176 141 119 255
-2.552660338868463 -22.216437137927429 -19.480528793188427 173 139 117 255
-2.575511581312867 -21.514208222199429 -19.476299791738086 167 135 108 255
-2.034343953303477 -21.039162694818671 -19.898771837532507 160 129 101 255
-1.493058699728152 -20.567884629022686 -20.321272742041742 150 120 92 255
-1.274025845683155 -19.968385481018700 -20.499963908151301 144 114 86 255
-1.619154895618664 -19.137622258149563 -20.251942165754087 136 109 80 255
-1.883750700029395 -18.338204639442779 -20.064876975383612 128 103 73 255
-2.067787239204335 -17.570936441515983 -19.938773348230171 123 100 68 255
-2.009983231351413 -16.904773086746573 -19.995568526858420 113 95 59 255
-2.435987686536720 -16.033025605024989 -19.686567567525799 107 92 56 255
-2.862088066207747 -15.158521889180264 -19.377557746276210 103 89 52 255
-3.126976684264179 -14.351027176787085 -19.190481117927817 101 87 52 255
-3.311263940598366 -13.576998920146110 -19.064374929007300 99 85 47 255
-3.898953884760118 -12.624681994743412 -18.633399394683153 96 82 46 255
-4.648137731892859 -11.597106019967015 -18.080457957511982 93 78 44 255
-5.074732926048313 -10.708442817606652 -17.771405124321035 86 74 37 255
-5.097935859392038 -9.998164490519230 -17.767239042396454 80 70 34 255
-5.766805383794718 -8.995720988465280 -17.275237517742283 75 67 32 255
-6.597259030878121 -7.915282933186177 -16.661255110176086 70 64 28 255
-7.750799709104484 -6.681122685699222 -15.803315346808319 64 59 22 255
-8.500932477070933 -5.625853324286041 -15.250266395589705 56 51 18 255
-9.493464134831356 -4.452808948386675 -14.514237953380928 47 43 13 255
-11.374484737804039 -2.856667118097704 -13.107309524727754 35 34 6 255
-14.225047398923095 -0.790356649935774 -10.968439958084474 20 23 0 255
-12.053505770795709 -26.253301650583552 -11.209013426118020 193 166 139 255
-8.062547952786360 -26.977520580851248 -14.262028308594637 204 171 151 255
-7.363311547577808 -26.519694549017103 -14.808023634517156 209 175 156 255
-5.378861595456613 -26.542940651010539 -16.332492834878053 212 178 158 255
-4.839821665688163 -26.039182046846534 -16.756273029110730 214 181 162 255
-3.898992725789640 -25.690741315634185 -17.485859257988551 208 175 156 255
-3.279325105068324 -25.226529667778280 -17.970859404525072 197 165 144 255
-2.418465969806419 -24.859184752273748 -18.639367186992644 190 155 133 255
-1.878856568730157 -24.373358339696111 -19.063272823903844 182 147 125 255
-1.660602668199431 -23.765805247510301 -19.242556976505028 180 144 122 255
-1.683432465012686 -23.064930745112605 -19.238364215817967 177 142 120 255
-1.786652612272547 -22.332140376955280 -19.173011090161765 171 138 115 255
-1.729104220750173 -21.663189788560558 -19.229994162399350 165 133 107 255
-1.430330816154594 -21.092153639911459 -19.470491918499590 158 127 99 255
-0.970666294187453 -20.588725840604084 -19.833348635412506 149 119 91 255
-0.913009324017281 -19.923518455442590 -19.890370668724330 142 112 84 255
-1.257492267616982 -19.092475682940190 -19.641534067555540 133 106 77 255
-1.521612287180261 -18.292783319949692 -19.453865628101454 125 98 69 255
-1.544447270445175 -17.592865899725169 -19.449723721604244 118 98 63 255
-1.325918265415339 -16.995147445929049 -19.629122857036606 111 93 57 255
-1.590137115422664 -16.192897895383226 -19.441458399821983 103 89 50 255
-2.176313927818597 -15.250490519117434 -19.009064804302824 99 85 48 255
-2.843105065857628 -14.269349192008349 -18.515472399543285 98 84 48 255
-3.268568977490503 -13.389299447214071 -18.205415269406728 96 82 45 255
-3.855131345561404 -12.435610334949615 -17.772976614040061 93 78 44 255
-4.361316265104762 -11.513756686126897 -17.401710604871425 88 73 40 255
-4.626060477749576 -10.696484116114661 -17.214000973415011 84 71 36 255
-4.810339768625340 -9.913733725920295 -17.087480112694493 79 69 34 255
-5.316809431229018 -8.983748727433422 -16.716190131144373 73 64 31 255
-6.065030893791885 -7.940059378985467 -16.161306468467615 66 60 26 255
-7.135638239631135 -6.743170812383156 -15.361619523308434 60 56 21 255
-8.125924088028455 -5.576444353810743 -14.623097006644969 52 47 16 255
-9.680435920956796 -4.139932018925094 -13.456153352306956 41 38 9 255
-12.282843701682026 -2.200756587826106 -11.493553883494826 26 29 1 255
-13.189319544081457 -25.661623819004021 -9.402177939421620 190 158 136 255
-9.687890617863218 -26.205328077075663 -12.097659780109893 203 168 148 255
-6.746642402325222 -26.566385191887306 -14.363743902546133 206 175 153 255
-5.006920566299499 -26.500997473420455 -15.709476838754568 209 180 156 255
-3.988198042459516 -26.177216996035270 -16.502985453457029 212 182 158 255
-3.289899266192890 -25.739272637988904 -17.051067163764770 210 179 158 255
-2.671615641269256 -25.275644054117649 -17.537812052426460 202 171 149 255
-1.491931501605166 -25.032276191293079 -18.454186365678623 195 160 138 255
-0.793120442986890 -24.610338456178653 -19.002375132314512 185 150 128 255
-0.896132789524216 -23.879425752170334 -18.936851244944705 182 146 124 255
-1.079372627310192 -23.116328108812667 -18.809952379961004 179 144 122 255
-1.182435640889054 -22.384080173353610 -18.744429408848987 169 136 113 255
-0.884398406945138 -21.812266156546229 -18.985804729157451 160 128 103 255
-0.746761002707245 -21.177675828554712 -19.104435599826957 154 122 97 255
-0.609092688275666 -20.544153448713871 -19.223077670179748 145 115 87 255
-0.631895278027002 -19.845683499665228 -19.218962735710619 138 109 80 255
-0.815221964680035 -19.080640134856665 -19.092081360137996 131 104 74 255
-0.998589177531358 -18.314487077467746 -18.965198782024572 124 99 68 255
-1.101720029020839 -17.581033051899738 -18.899704031330060 115 95 60 255
-1.124588385056597 -16.881081844890730 -18.895601975899211 107 89 53 255
-1.468642421392133 -16.043662048479192 -18.645937104667325 102 88 49 255
-1.812773633528963 -15.204026644231433 -18.396265192398317 97 85 47 255
-2.478232474072996 -14.222587843585515 -17.901005462460802 92 80 43 255
-2.902875829947476 -13.342254483236118 -17.589916774985284 91 77 42 255
-3.488275545311438 -12.388272858188529 -17.156021571485354 88 73 40 255
-3.913128932062932 -11.501837154240462 -16.844910350262808 85 70 39 255
-4.257731231755429 -10.648584914906166 -16.595191162398351 82 69 35 255
-4.602413036876243 -9.793072864489446 -16.345465773375793 76 65 33 255
-5.188271455680365 -8.825743541889224 -15.911520414719718 70 61 30 255
-6.256509835171414 -7.633795131696175 -15.109122603921691 62 56 22 255
-7.566138221351679 -6.323523598231006 -14.122467736099679 55 51 17 255
-8.795668350745615 -5.041795940939778 -13.197179261052753 45 42 11 255
-10.507881216634672 -3.526225761709114 -11.903386059396666 31 31 3 255
-14.391544280612862 -0.976688906331205 -8.951399907634453 19 24 0 255
-14.213950787741993 -25.846154245141506 -7.652828416516115 200 167 146 255
-11.600063283375306 -26.054440630878162 -9.680303420911770 194 157 138 255
-9.625246343440438 -26.046773613582275 -11.215293542823332 203 166 148 255
-7.330128341703244 -26.170659229936675 -12.996669830247043 205 174 152 255
-4.394707361659243 -26.548410245890992 -15.270760905730810 207 179 155 255
-3.298242238687891 -26.255274315434335 -16.128657019399270 212 181 158 255
-2.601490361356014 -25.818186690104596 -16.678698352266025 215 183 162 255
-2.144583109939049 -25.294251135665590 -17.044025383407018 208 177 155 255
-0.967487815101180 -25.051227635334428 -17.963628703796019 203 168 146 255
-0.270239234200659 -24.629606895041775 -18.513771379163501 192 157 135 255
-0.213050287001693 -23.961744703531068 -18.571251070633338 189 153 131 255
-0.475989633290254 -23.167794436390764 -18.382383778036257 180 145 123 255
-0.418806358279312 -22.499947203533253 -18.439871203497887 168 135 113 255
-0.041394892899575 -21.961437277699460 -18.743732424317272 157 125 100 255
0.256039001857630 -21.393151487460344 -18.986020292893755 151 119 94 255
0.233255306468095 -20.696055920437857 -18.981945692306454 145 115 87 255
0.130387609048256 -19.965933347343949 -18.916278949558432 139 110 81 255
-0.212768359760389 -19.135409008414101 -18.665819494705744 130 103 73 255
-0.555999629641036 -18.302695146966812 -18.415351882676475 122 97 66 255
-0.819200114324360 -17.501604963376693 -18.226477333316780 111 93 57 255
-0.922228401432790 -16.767031661741768 -18.160803345034196 104 88 49 255
-1.185528115830550 -15.963150753977686 -17.971922435239946 98 86 46 255
-1.529019688936131 -15.122964858617451 -17.721431116663013 94 82 42 255
-2.113013489611120 -14.175857314665024 -17.286110046353144 89 77 39 255
-2.376535275428239 -13.365579114173769 -17.097207858071101 87 72 38 255
-2.800435941449109 -12.482724385116185 -16.785080400966820 83 68 38 255
-3.384768934234273 -11.525664675951077 -16.349718432907622 80 65 36 255
-3.889056319290120 -10.600712352609136 -15.975953579636496 77 64 32 255
-4.714201916646402 -9.527416497747510 -15.355714793113549 71 60 30 255
-5.298948456732120 -8.558172507009004 -14.920300619451695 65 56 27 255
-6.284846347844223 -7.401073632822360 -14.176778998500595 56 50 18 255
-7.672028981786070 -6.052055300313654 -13.125126850342951 48 45 12 255
-9.300186980553292 -4.581715655960366 -11.888563888444992 37 36 5 255
-11.891473578376264 -2.649185326689789 -9.912470268117431 24 25 0 255
-13.237688297439320 -26.751481219333826 -7.439912296962973 197 174 146 255
-11.746470962227335 -26.550855196121091 -8.609432985765380 202 167 145 255
-9.935811617781354 -26.476409968353124 -10.026156711787308 196 158 137 255
-10.917237076440500 -25.391254509439463 -9.280423161920965 203 167 146 255
-7.111218185082237 -26.069913037629433 -12.241948139320812 208 174 152 255
-3.862974198620407 -26.566123857050158 -14.771098798910458 208 177 154 255
-2.449681575915605 -26.393503089324497 -15.879179891361417 212 179 157 255
-2.073742046285872 -25.836554762585308 -16.184012229020453 213 180 159 255
-1.617885915520333 -25.312921479945899 -16.550657838323986 211 176 155 255
-0.682894852690481 -24.977678890101842 -17.288101992697534 206 170 148 255
0.012764635376186 -24.555564298885912 -17.840193978350868 196 161 139 255
0.149588552520839 -23.918566061679073 -17.959722722332231 190 154 132 255
0.046850841338340 -23.187665723711234 -17.893858557827798 178 142 120 255
0.023966718090236 -22.488164447691517 -17.889796952011778 169 134 112 255
0.400492708150097 -21.949682875734041 -18.194758455646621 161 126 104 255
0.697212625730913 -21.381421001505700 -18.437933554053870 152 118 93 255
0.834199473408688 -20.749819288650983 -18.557510531813108 144 113 87 255
0.651581816357350 -19.987224157561783 -18.429862796958048 138 109 80 255
0.628760831753794 -19.290093708977466 -18.425832857342726 127 100 70 255
0.206301968452749 -18.425164021138585 -18.112747857092302 118 94 60 255
-0.296185286043027 -17.523674699474043 -17.737837749992366 111 91 56 255
-0.718838891377118 -16.652997255276134 -17.424727697003107 102 87 48 255
-1.061632638222449 -15.813935164567795 -17.173422458174883 95 83 43 255
-1.324540312188759 -15.007291850144895 -16.983926784803771 92 80 41 255
-1.667477664022755 -14.164062144169520 -16.732606359677476 87 75 37 255
-1.770552227286714 -13.424126300334791 -16.666740934484409 83 68 35 255
-2.033628113756549 -12.612685669525703 -16.477231391475755 80 65 35 255
-2.696751435891684 -11.620967755211794 -15.978595996568117 77 62 33 255
-3.440029798916356 -10.588851658729425 -15.418114536909883 73 60 28 255
-4.423520724053077 -9.443007961994326 -14.672127962890585 67 56 26 255
-5.087135459230268 -8.436674170395534 -14.173424153840813 61 52 23 255
-6.231098071673500 -7.205126528493807 -13.303718263471779 51 46 14 255
-8.175736165408239 -5.595224166048183 -11.815655178611792 44 40 10 255
-10.761214967136624 -3.673517423758213 -9.832855791737700 31 29 1 255
-14.388046289842009 -1.245466849024979 -7.046108697921227 21 24 0 255
-11.491977390115096 -27.193773932792084 -7.845061351274097 205 174 149 255
-10.481487913467390 -26.825369740959829 -8.646717089860033 203 165 146 255
-10.266824009903104 -26.174364405041530 -8.828440225083511 195 157 137 255
-9.017119270835195 -25.905136980944619 -9.816163540485462 199 165 142 255
-6.652405858579186 -26.057723654885237 -11.671948639574083 208 174 152 255
-4.127897991148444 -26.286116843082681 -13.651834240244085 209 177 154 255
-2.399234233870544 -26.231346370419743 -15.011784138119140 209 177 154 255
-2.024228559967526 -25.673074834946746 -15.317714078986739 210 178 155 255
-1.330500798388158 -25.239889114540176 -15.871689737593357 210 175 153 255
-0.795949915588068 -24.749871878913140 -16.301679029573677 205 169 147 255
-0.181600232015768 -24.294783968359425 -16.793702712926802 198 162 140 255
0.353204239796781 -23.812632740927100 -17.223742328458400 190 152 129 255
0.649048740956005 -23.239265685993416 -17.467766983134766 179 141 118 255
0.785556295452068 -22.604186267166824 -17.587777416574198 171 131 109 255
1.161232064041229 -22.066812042338071 -17.893845524372239 163 125 104 255
1.218111644984845 -21.402217463605453 -17.951860818300844 153 116 94 255
1.354735568672709 -20.770899791111304 -18.071901404506775 144 109 87 255
1.172438953008879 -20.008570720096827 -17.943867571502039 137 106 80 255
1.229344943837646 -19.345003986932738 -18.001897789342451 125 98 69 255
0.887485442058676 -18.514155558251147 -17.749814243411777 117 91 59 255
0.386021761865578 -17.613454648797870 -17.373670363629230 110 88 51 255
-0.035778584209311 -16.743570306927410 -17.059538134298634 103 84 46 255
-0.218324338678826 -15.974043235077801 -16.931479456152999 94 80 43 255
-0.720075582928843 -15.064826496509994 -16.555297261817230 90 77 42 255
-1.221938066598227 -14.152307292299341 -16.179099862909624 86 73 38 255
-1.404675809211767 -13.377194047870304 -16.051020213110320 82 69 37 255
-1.507636603077742 -12.636374010649305 -15.984972553699691 77 63 32 255
-2.089581809232811 -11.680615777927784 -15.546707494433633 75 60 29 255
-3.070835693522696 -10.541037611268919 -14.798235297358104 67 54 25 255
-4.052308952656801 -9.394876225953766 -14.049729846421030 62 53 22 255
-4.874295159213119 -8.315182795626598 -13.425273022087168 57 48 17 255
-6.095777537934623 -7.045967694723771 -12.490577147410818 45 38 9 255
-8.435730243432602 -5.249529307932718 -10.687223821944798 35 34 3 255
-12.693327328383475 -2.541087519210720 -7.394694225744047 20 26 0 255
-12.745071797823101 -27.303316757918552 -5.897422375509393 208 179 151 255
-11.975406181097838 -26.840156041852083 -6.515212113287447 205 169 149 255
-10.490731222414638 -26.640789828740026 -7.692911038182103 199 161 144 255
-8.290808047610909 -26.712505682153221 -9.430560891344044 195 157 138 255
-7.599813136068548 -26.243783905135089 -9.986279106750175 200 167 144 255
-5.399065541915178 -26.340724057410299 -11.724076405255033 210 176 154 255
-4.151355299158922 -26.095434955205164 -12.715386052476759 210 175 153 255
-2.664951847570961 -25.948987626352945 -13.893395652530899 210 175 153 255
-1.893521570318171 -25.539928164966398 -14.511506050363266 211 176 154 255
-0.962939294306523 -25.197486331820286 -15.254087857617208 209 174 152 255
-0.509124350827705 -24.676371179162558 -15.623383656569047 206 168 147 255
0.262817533753207 -24.283049520898601 -16.241589472835017 199 161 140 255
0.796392716706492 -23.800933684340080 -16.673156406112724 191 153 130 255
1.489136779696736 -23.385954211046581 -17.229197871384599 183 142 120 255
1.625315051289817 -22.752237608888592 -17.349680226156124 173 132 110 255
1.761527005950512 -22.119600575334829 -17.470170878480161 162 124 101 255
1.659123403894796 -21.390588449703344 -17.403979679930814 151 114 91 255
1.556699873351732 -20.661024887586763 -17.337787623068891 141 107 82 255
1.533823561729378 -19.963927118827471 -17.333827866675819 132 102 74 255
1.590520805159827 -19.300099220543188 -17.392105041319780 122 95 64 255
1.408477490928476 -18.536093201076866 -17.263679009333742 113 89 55 255
0.748831672326645 -17.567973773760741 -16.761822854076058 107 85 48 255
0.407451929419523 -16.731904552737205 -16.508901585545999 99 81 43 255
0.065997532997301 -15.893626947255797 -16.255970480789387 92 77 40 255
-0.355152375377003 -15.018491038958445 -15.940787270491029 84 71 36 255
-1.015283581152289 -14.035853085434098 -15.438859740331708 80 67 33 255
-1.197731390295587 -13.259925426025518 -15.310382456733294 78 65 33 255
-1.300572353950628 -12.518295461091299 -15.244148487604463 75 62 30 255
-1.881372583237123 -11.561700384701169 -14.804423555885023 69 56 24 255
-2.860627219361533 -10.421262968327696 -14.053430207010621 63 50 21 255
-4.079122151923968 -9.165449735270045 -13.115648568841408 59 50 19 255
-5.218206895325864 -7.937957158736864 -12.240076927503281 51 44 15 255
-7.074771053433807 -6.371538354770109 -10.804174925007942 38 34 5 255
-13.381007354220088 -26.896512692502199 -4.435477643446717 210 174 150 255
-11.186792125193278 -26.941488748331352 -6.178970682487034 205 166 149 255
-9.071333557250227 -26.972950470640669 -7.860129775627286 196 161 142 255
-6.559077399271189 -27.163946258482653 -9.853485444179114 192 160 139 255
-5.156066062433382 -26.962817145261070 -10.973003636463886 202 170 147 255
-4.149140982532714 -26.623873029785130 -11.780450375859715 210 176 154 255
-3.617725492261457 -26.113270079849627 -12.213375652748283 209 174 152 255
-2.531092610368461 -25.816892610010271 -13.083324163173955 209 173 151 255
-1.999366235505704 -25.315817848766727 -13.516305794042779 210 174 152 255
-0.436398389227890 -25.216324573592914 -14.760922075816666 210 173 152 255
0.175016887598076 -24.757244757829639 -15.256402402561577 208 167 145 255
0.865908078751261 -24.333643332234530 -15.814343337913328 202 161 139 255
1.318928295739198 -23.820694315748028 -16.185004457605743 194 153 131 255
2.010110678297423 -23.406028354192088 -16.742998680448011 185 143 120 255
2.066563168549010 -22.740646276352138 -16.801507491255308 174 133 109 255
2.281772008511041 -22.140239000350604 -16.984902511095783 164 124 99 255
2.258896198912311 -21.443983162923146 -16.980981204863355 151 114 89 255
2.315406375830293 -20.780473408971261 -17.039505313272400 140 105 78 255
