ply
format ascii 1.0
element vertex 658
property float x
property float y
property float z
property uchar red
property uchar green
property uchar blue
property uchar alpha
end_header
7.254393583788499 -27.808932805597692 -1.509322913154705 203 168 146 255
8.592665284081960 -27.629104208993155 -2.710178262206057 208 173 151 255
9.779875709711916 -27.399284958437391 -3.777292413902131 206 171 149 255
10.815969942754890 -27.117849298773990 -4.710658077361217 206 171 149 255
11.549457711476322 -26.722337085151125 -5.376487788106289 208 173 151 255
13.040404986008582 -26.639125011697274 -6.711244682684793 205 168 145 255
15.061877969819733 -26.783436685616067 -8.514286915713086 203 167 143 255
16.174911431291406 -26.567617355608718 -9.514660151546281 205 169 145 255
16.682193470615516 -26.107930536507141 -9.979900519048101 204 166 143 255
16.810795088569961 -25.493192841042557 -10.110667081592595 195 154 132 255
16.939441882116597 -24.879535856435353 -10.241427731282556 186 144 122 255
17.295478735059930 -24.363876529560372 -10.572877542903910 180 139 117 255
17.500034190523280 -23.785752490344990 -10.770528664202715 180 140 115 255
18.007852589783795 -23.340622903374580 -11.235778940412160 179 139 113 255
18.136762870916300 -22.733665231415031 -11.366523483275216 174 137 110 255
18.493172810414990 -22.227923583427526 -11.697970525637999 171 134 107 255
18.698028675977355 -21.657534788343511 -11.895607792016932 169 130 101 255
18.978784637231939 -21.122655706094207 -12.160145083379291 157 119 90 255
18.804550692294157 -20.384706478856742 -12.023236082812957 145 110 82 255
18.630289804788646 -19.645626404601344 -11.886308039250792 133 100 71 255
18.152548041341703 -18.766457125015478 -11.481722056554531 117 88 57 255
17.978197255010855 -18.024015463346970 -11.344749578739851 108 82 49 255
17.803819852717766 -17.280423310384691 -11.207756740906206 101 80 43 255
17.553525189468047 -16.500125308899854 -11.003829670458913 95 76 38 255
17.379085781736876 -15.753941387939037 -10.866793506358277 92 76 37 255
16.825075647105422 -14.826140635243547 -10.395155598568920 92 77 38 255
16.498702494155140 -14.003536319745535 -10.124234484920549 92 77 38 255
16.172266993161372 -13.178664378181992 -9.853285513329780 90 74 38 255
15.845769257703012 -12.351517007702640 -9.582308180710697 89 73 37 255
15.367319185599058 -11.447744905518874 -9.177459489345608 87 71 37 255
14.660908456737218 -10.428275682523193 -8.571808391626234 86 71 38 255
13.802419020676211 -9.328377348383299 -7.832266216562658 81 67 35 255
11.348324395145653 -7.424751967737762 -5.687244544977943 74 63 31 255
6.974775073399400 -28.220415101314927 -0.280935417926116 194 167 135 255
8.385180927733188 -28.062382059996452 -1.552728256239305 199 164 142 255
9.116269811236293 -27.648157652145514 -2.220666818008795 205 170 148 255
9.998607346121304 -27.299137707761815 -3.022820081425834 207 172 150 255
10.881173295819167 -26.956634985977715 -3.824992316349807 206 171 149 255
11.310687054004944 -26.438116405792243 -4.224568917399864 207 172 150 255
12.646990512958666 -26.291160491899205 -5.429392648222461 204 168 144 255
14.814848014373922 -26.494521891838545 -7.372400843213455 204 168 144 255
16.227502745995366 -26.401246415481793 -8.644407927356809 207 171 147 255
16.884680288626328 -26.003227993701529 -9.245378288528514 209 171 148 255
17.390846390866500 -25.546532411710345 -9.712142470421355 199 158 136 255
17.745946271785954 -25.029534339688368 -10.044693031870025 191 149 127 255
18.176757469266420 -24.547542854784155 -10.444354563251153 186 145 123 255
18.380827879508644 -23.971036636711133 -10.642682757626716 184 144 119 255
18.811849496937413 -23.494689280050594 -11.042345074542510 182 142 116 255
18.940437574181743 -22.889074534397992 -11.173551829851590 177 137 111 255
19.296013471557444 -22.384687717424896 -11.506096881614297 175 135 110 255
19.349064792808520 -21.748321798342417 -11.570173508837087 169 127 100 255
19.553475066451227 -21.180320802658002 -11.768474616594688 154 114 88 255
19.228227917125736 -20.374482495446699 -11.496934109707666 140 104 78 255
18.902917974482875 -19.566432396985334 -11.225368888749585 131 97 70 255
18.426159866270780 -18.686679733001583 -10.819535013321826 120 91 61 255
18.479215846752510 -18.048707518703395 -10.883531311337350 110 82 50 255
18.532300347086789 -17.411205397049955 -10.947514029798498 101 77 43 255
18.585413446447092 -16.774166838554038 -11.011482767415458 93 71 36 255
18.411367925300311 -16.030116273682140 -10.874056756115579 88 70 34 255
17.555653151728535 -14.960054660679077 -10.132455629968405 85 69 33 255
17.229980235215663 -14.138493471268347 -9.860713860573640 85 69 33 255
16.904245619223389 -13.314664238511980 -9.588943408935421 86 70 34 255
16.654214806711764 -12.525463570633534 -9.384275708094577 85 69 35 255
16.252591819466232 -11.660170282646405 -9.045314344915482 83 68 34 255
15.850889417403607 -10.792044051531292 -8.706320069612843 84 69 36 255
15.145937632932686 -9.770212522874047 -8.098748637874507 79 65 34 255
13.607017088518319 -8.325513253996050 -6.752622661850438 73 60 28 255
7.021103346586756 -0.812719324563687 -1.024347915394344 72 63 30 255
6.825058342189635 -27.977219217848273 0.820152749497254 195 166 136 255
8.533465216436355 -27.934471356791121 -0.724947968077657 194 158 136 255
9.865561351788273 -27.756117172268475 -1.933536261373916 203 168 146 255
10.670494029332247 -27.378329397872207 -2.670969949775582 207 172 150 255
11.551004129795217 -27.036673561376091 -3.475733010489535 208 173 151 255
11.753360649223879 -26.427701304173368 -3.674681603883727 207 173 151 255
13.086556628506031 -26.280805447263944 -4.883364827265865 203 168 144 255
14.947850965786245 -26.360409257219047 -6.563298457828722 204 168 144 255
16.206385870207839 -26.203646292798780 -7.704733951223972 209 173 149 255
17.088179001873101 -25.898546960504092 -8.509601189049448 210 174 150 255
17.593093072039437 -25.441055645420548 -8.977882343717738 204 164 142 255
18.249006377595663 -25.051435407936950 -9.580811506212484 198 156 134 255
18.527894353256158 -24.505092301352519 -9.847135127566077 192 152 127 255
18.882314330032926 -23.993484039162084 -10.180779656644717 186 146 120 255
19.463210178912306 -23.583126535971772 -10.716398922443489 181 142 114 255
19.893327510671668 -23.110816426080788 -11.117370916641676 181 140 113 255
20.399040947931383 -22.675115079735335 -11.585671225146314 179 138 111 255
20.376493337030894 -22.007500842938413 -11.582671819371512 168 126 99 255
20.429450753286176 -21.373783332198130 -11.646987902544481 157 115 90 255
20.331429250960809 -20.672148927351898 -11.576628636318276 144 107 81 255
19.931348463317050 -19.832018619447140 -11.236921032812347 136 100 74 255
19.380143292114155 -18.919636839507305 -10.762517453473123 125 93 65 255
19.055414879371995 -18.108457950526770 -10.490085289281865 116 86 55 255
19.032785493634918 -17.436193340826108 -10.486971555243400 104 78 46 255
19.236815087555271 -16.870521973399590 -10.685853241926765 95 71 39 255
18.836443300851045 -16.019771070419196 -10.346013906898207 90 69 35 255
18.133722100146656 -15.021836546450359 -9.736783125808188 88 70 35 255
17.582001996785522 -14.091673396582024 -9.262193414523239 86 68 33 255
17.408094503740415 -13.340810186645143 -9.124279927685791 83 67 33 255
17.460946464989433 -12.699477984504000 -9.188373500974478 83 67 33 255
17.135809580226720 -11.872670807058540 -8.915722999179508 81 67 34 255
16.886224895511731 -11.081020955675896 -8.710387943103626 80 66 33 255
16.258488549756834 -10.099010735454314 -8.168284155902683 77 62 32 255
15.176834027695890 -8.884581377706525 -7.222041890005585 71 56 27 255
12.809059229832059 -7.011973995199682 -5.130779816468788 61 50 19 255
6.733935615645493 -3.234335227602273 0.260833806601681 42 48 10 255
8.175753851685641 -1.869989780954185 -1.075441163992366 50 44 12 255
9.665761493413925 -1.950254700245864 -2.418951050744596 85 74 42 255
9.339484106428614 -1.083860870595984 -2.145878852297386 85 74 42 255
6.978695468949724 -27.850329199726090 1.654529097234899 196 165 136 255
8.983772713571682 -27.923977812315499 -0.165582548090640 194 158 136 255
10.538291027329791 -27.834541559553699 -1.580604278804373 201 165 143 255
11.341338615201266 -27.457596270589818 -2.320416658431242 204 169 147 255
12.144597577651837 -27.086627181124058 -3.060244049904526 206 174 151 255
12.346428410204794 -26.478194442657767 -3.259870113916037 204 172 149 255
14.353462775619477 -26.608192215051901 -5.080167879212723 204 168 146 255
15.232652802700642 -26.288250657896938 -5.887577027089435 204 169 147 255
17.014862196908751 -26.349678277223219 -7.505367791523497 210 175 153 255
17.744138656632629 -25.982944059447490 -8.177759733742903 211 175 153 255
18.473608303910169 -25.621614843787768 -8.850162751076738 207 167 146 255
18.751711523936592 -25.073388072813216 -9.117372916712640 201 160 140 255
19.255705441848562 -24.624274223140944 -9.587184866122072 194 154 129 255
19.684559521961404 -24.146339774034772 -9.989463666781120 185 145 119 255
20.489970699748028 -23.835927249859978 -10.729430307258639 183 143 116 255
20.919110886519036 -23.365784777516353 -11.131715637961918 185 144 116 255
21.423677010433863 -22.932254790211871 -11.601540652306397 179 137 112 255
21.325863401234869 -22.233113200175410 -11.531039058234910 173 129 104 255
21.077394569160901 -21.465511958567390 -11.325435185884629 164 120 95 255
20.979548086523778 -20.764664639101895 -11.254895229903951 148 108 83 255
20.806352356570670 -20.028745144655758 -11.116791894541791 141 104 78 255
20.181023828265779 -19.083184912280032 -10.573391364447588 132 98 70 255
19.857002494605865 -18.273319595726520 -10.300142603230881 123 92 63 255
19.457550422336311 -17.425930811520487 -9.959317839663669 112 82 53 255
19.962562058519950 -17.002493830836457 -10.429058333700397 103 77 46 255
19.261510054848941 -16.009455692075377 -9.817983142070176 95 73 41 255
18.711099916883683 -15.083663843743068 -9.341970495429763 90 71 38 255
17.632733746959019 -13.899384902571356 -8.393046294490034 87 68 35 255
17.534519689109231 -13.183779297661687 -8.322277619719046 85 69 35 255
17.662571931735158 -12.578257289040977 -8.454153705339564 83 69 34 255
17.564373781864532 -11.862146112937268 -8.383341824039036 81 68 34 255
17.164401596904185 -10.995549855154124 -8.042271174005492 78 65 33 255
16.613449181340371 -10.050662346796400 -7.566045339013357 78 61 33 255
15.911462390054623 -9.025851007318650 -6.954655752289852 70 54 25 255
14.379163414473339 -7.575090426016814 -5.600030421180350 60 46 17 255
11.789818999695285 -5.573825505549038 -3.299432515827306 47 42 8 255
7.161713912661753 -2.506172457475799 0.825544485997739 55 61 23 255
8.798723192316999 -2.648784862239538 -0.657318498079178 76 74 38 255
12.172769096644146 -3.708159086490369 -3.694279625058130 92 78 49 255
12.376033368105141 -3.127671509247449 -3.893423550425723 89 75 43 255
11.068895901220344 -1.750772525642034 -2.741133113023665 88 75 42 255
10.139128515324273 -0.565248256344546 -1.926628503653632 87 77 45 255
7.883562155943991 -28.014289764056301 1.813241704284849 194 166 133 255
9.884045608336493 -28.089654679520251 -0.012650966804443 195 160 138 255
11.284983868184952 -27.942664322278716 -1.296706554625416 196 161 139 255
11.711077788375803 -27.417364855746470 -1.700212835784441 203 168 146 255
12.812515402010803 -27.166809710439523 -2.713365668647270 207 172 150 255
13.614102470670332 -26.802652439158123 -3.455584184087598 206 171 149 255
15.166333938360623 -26.751494433914687 -4.875220585236235 204 171 148 255
16.944118482876149 -26.804617950743790 -6.498117662794158 203 170 147 255
17.746553189637268 -26.464552552887113 -7.240402251915640 211 176 154 255
18.399058522367739 -26.067409987509151 -7.847211959020967 212 177 155 255
19.051739360362006 -25.675131932085279 -8.454029603078965 211 175 153 255
19.254061125455365 -25.095391729127300 -8.654377961768375 207 168 147 255
19.756841613116649 -24.646559576966411 -9.125708977596304 198 157 136 255
20.184653715276511 -24.168902352092914 -9.529293846944853 188 147 125 255
20.988169521123979 -23.858786794427445 -10.271626623000515 188 146 122 255
21.566520507873378 -23.455188219510333 -10.810718002671905 189 147 123 255
22.145029000918896 -23.055882184878513 -11.349813113323478 183 139 115 255
22.347974958465016 -22.492493608002718 -11.550145647534606 181 136 112 255
22.100068224636402 -21.727021445056323 -11.343942961312734 172 128 103 255
22.002442811694635 -21.028310907157461 -11.273227800833894 157 114 90 255
21.754468023768936 -20.260039415096955 -11.066979662647839 147 109 83 255
21.205728222308664 -19.351070794234730 -10.589674704554653 139 104 76 255
21.032821033011146 -18.613378010707109 -10.451130963595517 133 99 71 255
20.784690810037432 -17.839238119143346 -10.244803389682772 119 89 59 255
21.138181214618328 -17.347919669101458 -10.580543245196168 108 81 51 255
20.213086617258398 -16.250017381052686 -9.764305671362706 105 82 50 255
19.588690545340228 -15.289958797810783 -9.219075011406602 96 76 43 255
18.362280509466899 -14.034466802026003 -8.131679783937074 90 71 38 255
18.113767841746778 -13.246619990845304 -7.925190738749450 87 70 36 255
18.241480478953463 -12.641620946784698 -8.057512580288517 85 70 37 255
18.068193111646622 -11.888832278049989 -7.918740094239439 84 71 37 255
17.593796985664426 -10.985000128667849 -7.508857247495428 83 70 37 255
16.818183474031599 -9.926869228501502 -6.827847783467718 79 65 33 255
16.268271267301344 -8.977177660542011 -6.350107989367075 75 60 31 255
15.341752917706117 -7.832192205413776 -5.533452355545307 64 51 23 255
14.490339136987728 -6.719086269093737 -4.784515604382818 41 31 3 255
13.714057372425401 -5.638661718438058 -4.103300884822687 68 62 29 255
14.670102243214160 -5.451537013285716 -4.980941046962528 102 92 60 255
14.647043929884177 -4.759671935139224 -4.977450017756041 107 89 61 255
14.247281022770807 -3.869485815510757 -4.635024849331415 97 81 48 255
13.772089767592178 -2.936485586106343 -4.224775178024402 91 76 43 255
12.769272065479356 -1.718844913487558 -3.339991151270311 93 79 46 255
11.992347781355193 -0.615238843125383 -2.658498033235418 83 71 40 255
8.113004097672075 -27.916569240127302 2.580894017208919 192 165 135 255
9.285722126096147 -27.668291921564077 1.496649914935119 194 159 137 255
11.057429074391052 -27.665717887297276 -0.131205221618245 195 160 138 255
11.931451383915402 -27.317381238816765 -0.943710255389874 200 165 143 255
13.105120552756546 -27.096229015570856 -2.028032743123276 206 171 149 255
14.129368219907633 -26.822873154968647 -2.976476202312426 205 170 148 255
16.202096663864438 -26.987005591126831 -4.876276906340308 203 171 148 255
17.301890600340300 -26.763573470938425 -5.892728466995038 205 173 150 255
18.027517246426839 -26.392019091795959 -6.569426508369958 211 176 154 255
18.753338370209320 -26.025874045002041 -7.246134224620391 211 176 154 255
19.704081316505096 -25.760495751822361 -8.126722952488848 210 174 152 255
20.280482536178823 -25.341848781567577 -8.667535814258969 205 168 146 255
20.782114224625218 -24.895187729940290 -9.140393368048734 199 158 138 255
21.358822176562228 -24.484892512035174 -9.681213139989865 190 149 129 255
21.935688179600390 -24.078900230467767 -10.222036449222344 190 149 127 255
22.437757350587304 -23.644067726223128 -10.694899993211209 191 149 125 255
22.790038182271701 -23.146171484545860 -11.031835785464693 188 146 122 255
23.217395579144153 -22.684619383850375 -11.436732414692301 183 137 113 255
23.119997929206647 -21.988631474083903 -11.365860931199251 178 132 108 255
22.572644888799886 -21.086747628487686 -10.887163656063194 168 124 99 255
22.400179543917460 -20.353470987171193 -10.748276489161157 155 113 88 255
22.377709717909369 -19.688571870126452 -10.745306550346243 147 107 81 255
22.505290348718205 -19.093665006390125 -10.878260593942684 139 101 74 255
22.332808047818588 -18.358571535108410 -10.739310153887885 128 97 68 255
22.235339351286626 -17.657888094219999 -10.668308931517601 120 91 61 255
21.612541624710985 -16.705702496625548 -10.121459936503044 112 86 56 255
21.289832940598444 -15.893539278446340 -9.846475397308723 104 81 49 255
20.366549108943332 -14.788072259274131 -9.027639403057918 96 76 43 255
19.593207745263697 -13.749310354911287 -8.344708863659406 94 75 42 255
19.195111674217884 -12.889630828243710 -8.001630760034487 92 73 40 255
19.097305703333262 -12.175890906478358 -7.930442191471030 87 71 38 255
18.398689252030806 -11.161782837581143 -7.315366390901204 83 68 35 255
17.549704066244288 -10.067200794814653 -6.564275177017294 80 66 34 255
16.925890779338459 -9.080528766639276 -6.017086115856387 77 63 33 255
16.452203246629040 -8.165919208646102 -5.605823662006145 68 57 29 255
16.278970179816440 -7.402077305981820 -5.466470813430988 42 31 2 255
16.857177019395579 -7.025139308809585 -6.006978386526185 93 79 50 255
17.059767970590599 -6.456922179478354 -6.207527432050597 103 88 59 255
16.886607489747092 -5.693353918853433 -6.068097196204889 106 89 59 255
16.262387001042271 -4.690731234805938 -5.520673260201647 102 86 53 255
15.788402126451530 -3.763364544858845 -5.109187792305164 101 86 53 255
15.389515988546719 -2.872699037261341 -4.765652214195626 101 87 52 255
14.464153759971964 -1.695996359556361 -3.946089748153696 97 84 50 255
14.591521153010660 -1.082542702111922 -4.078447703117916 87 76 44 255
15.320686847148124 -0.797815495089822 -4.754782983524223 86 75 45 255
5.059021474619328 -26.538885023101443 6.348763343356410 190 165 135 255
7.497679386234097 -26.777096560527909 4.102421397319461 197 162 140 255
9.563633714949532 -26.885024251251394 2.196821720172807 196 161 139 255
11.032724495595858 -26.768907284299530 0.836465728645095 200 165 143 255
12.875609840453080 -26.814482898465968 -0.864736159717268 205 170 148 255
14.420197672534016 -26.751825638891418 -2.293325438059071 205 170 148 255
16.488093454242517 -26.915513473770929 -4.199103344894979 204 172 149 255
17.585277073962061 -26.691585066499542 -5.218771547845307 209 176 153 255
17.860829233158825 -26.132005722767317 -5.488620983223171 211 176 154 255
18.958485931325924 -25.921330746738775 -6.508317125641923 213 178 156 255
19.981691539887208 -25.686968463203357 -7.459863542335938 210 174 152 255
20.855671032182812 -25.396041956909585 -8.275086066279897 205 169 147 255
21.281342762474736 -24.917599254769485 -8.681290906416535 199 161 140 255
21.632370595142703 -24.409782451627507 -9.019321397003949 194 156 135 255
21.983502096468897 -23.904647731761429 -9.357347696915468 192 152 130 255
22.409521536686924 -23.435331466909730 -9.763544542066597 190 150 125 255
23.134836486798122 -23.102874118283609 -10.442443886177585 189 149 124 255
23.710742058243710 -22.708419355564061 -10.984994636041847 190 145 122 255
24.062371713003614 -22.216388958950603 -11.323010834798254 183 138 115 255
23.441435297179623 -21.282123563214483 -10.774683418961729 170 125 102 255
23.344174892375378 -20.584929608712272 -10.703585628610739 163 121 97 255
23.546265505025730 -20.026186391834315 -10.905195321466209 157 115 91 255
23.898120517734441 -19.539064423935756 -11.243159623037172 146 109 83 255
23.875793504740074 -18.878057601991856 -11.240193076099189 140 106 79 255
23.479147713341604 -18.039105794711986 -10.896276978180765 131 100 72 255
23.381926683475456 -17.340740465166732 -10.825075957047403 122 94 66 255
23.284701273379483 -16.641742515738031 -10.753851012953618 113 88 58 255
22.663215155836895 -15.687414402331015 -10.205274742654126 107 84 53 255
21.741986072445911 -14.582034370793721 -9.383892629177637 101 81 48 255
21.120201036323692 -13.617750600822845 -8.835225315459752 97 77 44 255
20.797969472817329 -12.797800316778392 -8.559287229739482 92 73 41 255
19.801308712893132 -11.638359026974257 -7.669562774999974 88 72 39 255
18.729487741329109 -10.434007394351013 -6.711583748033149 85 70 39 255
17.882272923425376 -9.335954065054707 -5.958134224460053 81 66 35 255
17.334703603201092 -8.384903729480683 -5.477423605504214 75 61 32 255
17.461720913724349 -7.776842159918615 -5.610466290887985 75 61 32 255
17.888692177702552 -7.324972867895738 -6.016291521032883 83 68 39 255
18.240803477497366 -6.837083914651558 -6.353902148629629 103 86 58 255
18.218053521430619 -6.154906589200323 -6.350478015292651 108 87 59 255
18.045314628640142 -5.393266450017435 -6.210614027102025 104 88 55 255
17.872556007731816 -4.630336389408185 -6.070714659542944 106 91 57 255
17.699777839112869 -3.866106972357812 -5.930779250841113 101 87 52 255
17.752069224974491 -3.221909694094578 -5.995435591041257 95 82 47 255
18.104550041382055 -2.740896343098029 -6.332906700195394 92 82 47 255
18.307042517985565 -2.180376198927647 -6.533935172612757 90 79 47 255
18.434549372314819 -1.579973023562019 -6.666725701949389 83 69 40 255
17.811453109520301 -0.565061878731981 -6.117336189041879 81 70 40 255
5.149044626599448 -26.382860639976982 7.264992195811516 193 166 139 255
7.805436241815698 -26.707931242299949 4.806493477673257 197 162 140 255
9.419592383394729 -26.637604950361549 3.305149653412514 198 163 141 255
10.885159931238235 -26.519391096286142 1.940518278165143 201 166 144 255
13.021717028679063 -26.683589472828743 -0.039519454329536 205 170 148 255
14.562649493778650 -26.619919019624248 -1.472598401819141 207 172 150 255
16.253041756757511 -26.629044707070705 -3.042464526593051 206 174 151 255
17.422090791499812 -26.433713848291333 -4.133719425837540 208 175 152 255
18.367799118050783 -26.153271262124676 -5.019857520919999 212 177 155 255
20.059340847714623 -26.195111616218725 -6.589815294269215 210 175 153 255
21.005643446588238 -25.931421953473077 -7.475993322689760 206 170 148 255
21.803043888919490 -25.610619623560652 -8.225419937881810 202 166 144 255
21.854800408569076 -24.972394359088113 -8.291017258085986 199 161 140 255
22.204967600834635 -24.465118152362280 -8.630140981458169 196 158 137 255
22.629843261105179 -23.993399243564269 -9.037645872051513 191 153 130 255
23.054841670359224 -23.524896632194483 -9.445147683667045 193 153 128 255
23.927698258885783 -23.260100316514979 -10.262976524983031 192 152 127 255
24.203734043371156 -22.732262467176326 -10.533698823350591 192 147 124 255
24.479856194275897 -22.206543940459696 -10.804412287738444 186 140 117 255
24.158864480183695 -21.409128628585009 -10.527981246388777 180 135 112 255
24.360427320556425 -20.850973653338542 -10.730273259244797 172 127 104 255
24.711395335339461 -20.363913315963771 -11.069341277680564 166 122 99 255
24.913113564721982 -19.809415363643510 -11.271610155539207 156 114 90 255
24.965527292235208 -19.185852332586592 -11.337072272616950 146 109 86 255
24.719190364727240 -18.420441482095342 -11.128924138982711 138 103 79 255
24.846337334791031 -17.832562063488382 -11.262742537630174 130 99 73 255
24.898821243843713 -17.209553816687432 -11.328143299124577 122 93 67 255
24.502999366424234 -16.368656525936998 -10.983114350273041 115 88 61 255
23.957636796909725 -15.451631121805946 -10.501243988616949 109 85 54 255
23.337420512365924 -14.493776306940504 -9.950928052708832 105 81 50 255
22.791824344770504 -13.568672092909040 -9.468972680753978 99 77 46 255
21.722799932652265 -12.377357373404905 -8.508127863354702 95 75 44 255
20.429231172095626 -11.065104649527839 -7.341997421395348 93 74 44 255
19.509258019814638 -9.933562465599877 -6.517842406469839 87 70 40 255
18.813443562801893 -8.910215999545215 -5.898860294513213 81 67 38 255
18.341869758707645 -7.997492332519315 -5.485062006064311 77 63 34 255
18.767861952055142 -7.547238726203986 -5.892177347082168 74 60 31 255
19.193979582684079 -7.100056419373260 -6.299279543449586 93 77 48 255
19.545399769031320 -6.616571862260145 -6.637952318486015 103 82 55 255
19.672431528606666 -6.016689475146308 -6.771356659092618 107 89 57 255
19.425311693711791 -5.218143511411881 -6.562642426158703 107 91 58 255
19.477555133166163 -4.578476110195382 -6.627568500077047 99 85 50 255
19.904129255241372 -4.141385328380707 -7.034572481076026 98 84 49 255
20.405697183679337 -3.748042997468673 -7.509983638265822 100 87 52 255
20.158638633057876 -2.948317901982662 -7.301138622804842 104 91 57 255
19.836658012459566 -2.105447256935619 -7.023825378911511 91 76 44 255
19.215043562018593 -1.093991763338195 -6.472757156255341 82 66 34 255
9.253185062636732 -27.798169435095488 4.479827857633296 197 165 141 255
10.046006727285402 -27.402386180716505 3.728198295922027 200 165 143 255
10.839042881594622 -27.012587306847664 2.976557208831395 200 165 143 255
11.483629610487583 -26.568949951677453 2.362077469549092 202 167 145 255
13.020489138692056 -26.492354227866642 0.924543433279410 205 170 148 255
15.152552179060393 -26.670721872290599 -1.061729473420485 206 171 149 255
16.541565217904605 -26.557584612288053 -2.362156590149652 205 173 150 255
18.005309738086311 -26.485716208293525 -3.731201380084485 208 175 152 255
19.023166128025053 -26.237106551900595 -4.688725526388566 211 176 154 255
20.413229764779146 -26.153712117297928 -5.989229077825740 207 172 150 255
21.282879539486856 -25.857985668358381 -6.809602470752282 201 165 143 255
21.780733641151244 -25.408389639687613 -7.287012193048469 200 164 142 255
22.055484096839166 -24.865546914644014 -7.558633356230843 199 161 140 255
22.330320900690793 -24.324850417498610 -7.830246956738705 194 156 135 255
22.902977884194883 -23.917813576667555 -8.376245619853933 193 152 130 255
23.326909814971714 -23.448773229950689 -8.785046086365867 195 155 130 255
24.123224216304351 -23.150042682121224 -9.536844921558441 195 155 130 255
24.249605298699322 -22.554007857196140 -9.671235381864506 193 148 125 255
24.673917275226898 -22.094851837039158 -10.080022894183458 191 145 122 255
24.651477235473180 -21.433507451945331 -10.077180959224307 186 141 118 255
25.150470483195051 -21.013612271667313 -10.554555270657914 179 134 111 255
25.575108483644698 -20.562668772628271 -10.963319288605703 170 125 102 255
25.925363865813665 -20.079860534135818 -11.303469094035194 162 119 95 255
25.977661539697408 -19.458437329449154 -11.369174553019690 151 110 88 255
25.880942072067057 -18.766312602578907 -11.297640661375880 142 104 81 255
25.635150851892746 -18.001857884760383 -11.088859621399394 135 100 76 255
25.836579823169558 -17.452421618261866 -11.291722406618618 126 94 69 255
25.739869079602528 -16.758938017326273 -11.220114623465378 119 89 63 255
25.568594029922053 -16.028144221729605 -11.079865402941124 113 86 57 255
25.024444975465741 -15.111487351144177 -10.596506046210266 111 85 55 255
24.405604637475477 -14.153718046197525 -10.044486385998312 108 83 53 255
23.712046061212988 -13.154016068003358 -9.423801809439539 102 79 48 255
22.794546482067375 -12.036069941062109 -8.597207813004985 99 78 49 255
21.876845564894552 -10.911482197102202 -7.770555466931739 94 74 45 255
20.884327660266820 -9.741955981455746 -6.875221266297132 86 71 42 255
20.264716857110244 -8.758014545884450 -6.322943210029422 84 70 41 255
19.719612682442119 -7.808396391250540 -5.839239555266403 77 63 34 255
20.070118423087507 -7.323999737613477 -6.179004922974912 70 55 26 255
20.420732440491463 -6.842125049436632 -6.518752949961907 85 70 42 255
20.846116140284948 -6.402406645519804 -6.927112423369607 105 87 57 255
20.823604126217049 -5.726259773882646 -6.923672846839565 104 86 54 255
21.025148520701492 -5.170452228457663 -7.126096694923433 97 81 47 255
21.525519038223251 -4.777873236020625 -7.603029389366213 91 77 42 255
21.727244590333669 -4.225954992535605 -7.805408900766707 91 78 44 255
21.406097949920706 -3.388435017043619 -7.527308920183430 95 82 48 255
20.860751984578314 -2.424681210367282 -7.043249330757448 97 81 48 255
20.539472422538410 -1.581490029965536 -6.765051124562689 92 73 41 255
20.666540488624435 -0.986738919430323 -6.898648542630582 83 67 34 255
8.176082436998456 -27.901313255558833 6.486735941556304 197 174 140 255
9.708018386906701 -27.787891391713543 5.044800298468630 201 167 142 255
11.240354694700159 -27.685861466207584 3.602832852230677 200 168 145 255
11.586661532240356 -27.120935487163194 3.261593497807723 199 164 142 255
12.155555830382411 -26.648485066937241 2.713960732303775 201 166 144 255
13.688824821793673 -26.572764973777410 1.271929829370293 205 170 148 255
14.629057247514368 -26.264791524198301 0.380273252920119 206 171 149 255
16.311430848566317 -26.271092164185802 -1.199413757307298 203 171 148 255
17.549053144024811 -26.103873984812026 -2.366318756333754 206 173 150 255
19.454867971641619 -26.227218328689190 -4.152479749319582 209 174 152 255
20.841659363936998 -26.143879515265937 -5.457047077687150 203 168 146 255
21.709233453104559 -25.848180827394955 -6.279997900552928 197 161 139 255
22.354336643587203 -25.462739251315881 -6.896537467496756 200 162 141 255
22.628397592014892 -24.920431923827437 -7.169039228166724 198 157 137 255
23.199559215887149 -24.510724558238607 -7.716769851576942 191 150 130 255
23.622356261217078 -24.039550839017537 -8.126879821160117 192 150 128 255
24.119549162410920 -23.604746122814234 -8.605796612588676 195 153 129 255
24.765446657378021 -23.240539178684742 -9.222335843946183 198 156 132 255
25.040072424483782 -22.712687211268502 -9.494807465282037 199 154 133 255
25.314785826087700 -22.186953412808194 -9.767268625279911 197 151 131 255
25.515278435032826 -21.629097719562964 -9.970902796005021 191 144 124 255
26.087429368774679 -21.245330866868969 -10.518609457283503 186 139 119 255
26.362434051400498 -20.726727516994046 -10.791040024515269 178 131 111 255
26.711862998845305 -20.245264014334964 -11.132277929264035 164 117 97 255
26.689672498961045 -19.589853668486199 -11.129401682440943 155 113 89 255
27.039269116517971 -19.112291435404316 -11.470612545319938 147 107 82 255
26.719701137979371 -18.314643323645484 -11.192403696096392 139 103 77 255
26.697566325448093 -17.659244509215711 -11.189458870640237 132 98 71 255
26.229156903299724 -16.785365798339768 -10.773536012272785 124 93 65 255
26.206999437666724 -16.128137775370220 -10.770534409860403 118 89 59 255
26.110458360280603 -15.433858053243867 -10.698679106116089 116 88 58 255
26.013915649561312 -14.738915973077653 -10.626795090107834 113 86 57 255
25.396444208168390 -13.780952145760011 -10.073067459291224 108 83 53 255
24.704417023930972 -12.780771957856828 -9.450460072749649 106 82 54 255
23.863370850059653 -11.699533977389933 -8.690135004730564 101 77 49 255
22.947697056594734 -10.573895071885545 -7.860918003968294 96 75 46 255
22.627459451850427 -9.750089625787894 -7.582326293735605 93 74 46 255
21.860385989132538 -8.690949896274674 -6.890670922252127 84 70 41 255
21.316567600611108 -7.743523146035528 -6.405473174163916 71 57 29 255
21.368494495463494 -7.107112817815619 -6.470943270474322 66 50 24 255
21.643930414807301 -6.589986158310168 -6.742907159882463 81 62 34 255
21.770458093189035 -5.994989445428800 -6.877163857109196 82 64 34 255
21.897041022169617 -5.400864122342384 -7.011392422961279 85 69 36 255
22.098197131046788 -4.848061749881836 -7.214437641045834 82 67 33 255
22.373953587617308 -4.337388281493716 -7.486303196827322 82 69 35 255
22.277122737536843 -3.623631498289171 -7.413903619434535 88 75 41 255
22.105748931228504 -2.867806936692560 -7.272615312352968 100 81 49 255
21.636144103770732 -1.944449506225538 -6.855879816429422 98 77 46 255
21.464702765008468 -1.184834129059340 -6.714499396036501 92 75 42 255
21.442389429554964 -0.508032157503848 -6.710782836130534 83 68 35 255
7.081497370669751 -27.285461490445627 8.505314393165946 196 170 137 255
9.719053931027133 -27.603025706519745 6.023787777746662 202 171 143 255
10.877856196284654 -27.352558750066905 4.922374385482243 201 169 146 255
11.889005017173986 -27.051483499515967 3.958960326384499 199 164 142 255
12.530474123317731 -26.608424051692708 3.340584472990940 198 162 140 255
13.764118184182394 -26.411751174594215 2.170109035418108 200 164 142 255
14.702054414672801 -26.102460109238478 1.275663791222343 200 165 143 255
15.788279895595224 -25.861666036047055 0.243178118003271 203 168 148 255
17.985204709073031 -26.093945470943737 -1.824548542457563 205 170 150 255
19.960587662908836 -26.248639060890653 -3.685275109644380 205 170 148 255
20.899842095624678 -25.976401799808173 -4.579803959273534 202 166 144 255
21.691239854793196 -25.647572237407388 -5.336307992252273 196 160 136 255
22.334725609813091 -25.260524711813417 -5.954780434204309 199 161 138 255
22.978390974922632 -24.878328359509865 -6.573255099651419 197 152 129 255
23.696318711498407 -24.533595444988592 -7.260753046626519 192 148 123 255
24.043985304908517 -24.029805290334579 -7.603142057505409 191 147 123 255
24.539960292675943 -23.595005039504414 -8.083570613362383 201 157 132 255
25.110188754243154 -23.197382090856024 -8.633020214398272 200 155 132 255
25.384100997899765 -22.669251440419814 -8.906364459111899 203 158 135 255
25.732230184418682 -22.177206481607115 -9.248724427098921 200 155 132 255
26.080466174436452 -21.687813683711695 -9.591074925078885 193 147 124 255
26.947838309045579 -21.442626989473538 -10.416620607642813 189 143 120 255
27.370508719718458 -20.995191552673234 -10.827989414881699 176 130 107 255
27.644973901863494 -20.480833547783121 -11.101286580686519 169 122 102 255
27.622829974534170 -19.827286868407555 -11.098439023450766 162 115 95 255
27.674885633875846 -19.209249669788036 -11.164601988933754 153 108 87 255
27.504397265786451 -18.484086594672348 -11.023637731087234 145 103 79 255
27.482292610146573 -17.830009297517535 -11.020716808140321 138 98 76 255
27.089149106633499 -16.993827826787836 -10.672582575463366 130 94 70 255
26.770151379331139 -16.191505658394263 -10.393449066686202 129 95 70 255
26.748015087742118 -15.534671961663420 -10.390439485385485 121 89 64 255
26.725896101713062 -14.877716394898911 -10.387402770214408 117 87 61 255
26.629547096670194 -14.183148641905120 -10.315295717485498 113 84 58 255
26.013401183408149 -13.223627157526423 -9.759850679069103 111 81 55 255
25.619924992331732 -12.373702740916244 -9.411491549335153 107 80 53 255
25.077826615896868 -11.444327322314152 -8.924996832366929 104 79 49 255
24.981322964824386 -10.742395584808733 -8.852739955994167 97 75 46 255
24.141890494820274 -9.651382425117788 -8.089958457015229 92 73 43 255
22.559257711299210 -8.163149057249257 -6.636611575200760 85 68 39 255
22.090929854490923 -7.254030486527483 -6.218952037728343 74 59 30 255
22.142753775593206 -6.619013370223470 -6.284614592795805 54 38 9 255
22.491932160140550 -6.144019135847046 -6.626463704677974 53 38 9 255
22.469530132485914 -5.470559177033920 -6.623012320615800 66 51 22 255
22.595842701918230 -4.877804718872696 -6.757640051301991 62 46 17 255
22.796567951453227 -4.326639935267323 -6.961296009554161 62 45 17 255
22.997367858790852 -3.776863549391777 -7.164923743915296 76 57 29 255
23.123868378791599 -3.187187896767142 -7.299461092810759 92 68 42 255
22.952893213407094 -2.432135897353277 -7.157713884762614 102 76 50 255
22.558726937642547 -1.550258280480890 -6.808728304554535 100 77 50 255
22.387695698372255 -0.791666068724467 -6.666886392175599 95 74 45 255
5.281665806935081 -27.119800868041850 11.222235313045729 191 183 138 255
8.059968354485676 -27.477015875981337 8.594645019053360 202 171 140 255
9.732116392751919 -27.418163094004811 7.005290729920262 203 173 147 255
11.257102091081038 -27.313021781105775 5.554344809556966 202 170 147 255
11.822958789205984 -26.833811663612465 5.003255777652754 200 165 143 255
13.053350595800026 -26.628242727458868 3.829156811930403 198 162 140 255
14.505556284161514 -26.522459561469844 2.447365083475631 198 162 140 255
14.998252741254703 -26.031516657428739 1.965473056760572 199 164 142 255
16.155716499676828 -25.820952308549536 0.860546596662886 202 167 147 255
18.421336405848990 -26.084059266009419 -1.282804950690036 203 168 148 255
20.465946497480360 -26.270108677620655 -3.218520599332720 203 168 146 255
21.329089032281928 -25.966630575140002 -4.046610406779990 199 163 141 255
22.118582913612784 -25.637822870980642 -4.805478364530956 195 159 135 255
22.760507065363242 -25.250788879945645 -5.425889546633954 195 157 134 255
23.328708828001254 -24.836254180629638 -5.977069633667213 199 154 131 255
24.192720076185822 -24.556510418188338 -6.805182765399110 194 150 125 255
24.613440476043706 -24.085878115749949 -7.217895194564932 191 147 122 255
25.256077135599213 -23.717944915027729 -7.838308529725282 199 155 130 255
25.972834016978737 -23.388272963398634 -8.527958594556026 203 158 135 255
26.320046366688075 -22.895455619576822 -8.871420606705556 204 159 137 255
26.667365983642924 -22.405295634704771 -9.214872814526046 202 157 134 255
27.014793022335169 -21.917787346843824 -9.558314763511845 195 150 127 255
27.732209215913343 -21.605487642633094 -10.247952782663532 187 141 119 255
28.227868429652517 -21.194182214626082 -10.729863619075843 177 131 108 255
28.427693495978048 -20.646380220342451 -10.934792862108878 169 122 102 255
28.479582198147313 -20.029479032139619 -11.001215759954164 163 116 96 255
28.605518734551765 -19.448631466030974 -11.136862774145982 156 109 89 255
28.361397930929343 -18.689458062077208 -10.926253674249210 146 104 80 255
28.117239244771213 -17.928568407063892 -10.715611940955426 140 99 77 255
27.799002553742980 -17.129550463384717 -10.435687252927607 136 96 75 255
27.850958078911020 -16.511637584362376 -10.501980264884452 130 94 70 255
28.125125629721452 -16.004988432636793 -10.776004582590502 124 91 66 255
28.177180716119807 -15.388732360743319 -10.842250919535729 119 89 63 255
28.081118408524901 -14.697914051657065 -10.769962053553911 119 89 63 255
27.762798318190477 -13.893144235967355 -10.489873933882848 115 85 59 255
27.148043778953280 -12.933949779460605 -9.932717232682762 113 83 57 255
26.755475310680993 -12.085168256734718 -9.583284565175603 107 82 52 255
26.362835269200872 -11.233517374765469 -9.233807563255539 101 77 49 255
25.451267776539169 -10.107099353428083 -8.399458058226571 95 76 46 255
24.094714291125797 -8.739325642714206 -7.149469569201358 88 71 41 255
23.256837986014204 -7.637289397675815 -6.384245136988454 88 72 43 255
22.863679979532151 -6.767018209937731 -6.034546832990713 63 48 19 255
22.841244902137277 -6.093457696372212 -6.031131800443063 43 28 0 255
22.744663292313220 -5.379484875626090 -5.958412863882643 54 40 11 255
22.796437984031485 -4.745682373614358 -6.024192886816593 44 29 1 255
23.144994415205758 -4.275150399798136 -6.367020996727661 52 35 7 255
23.345273400346201 -3.725068693558711 -6.571281080073703 73 52 26 255
23.248813958844892 -3.011231812946860 -6.498416828773316 88 62 39 255
23.078146054757894 -2.255035255215731 -6.356235159655682 100 74 49 255
22.759021495084340 -1.413825798351638 -6.075454341343288 103 77 52 255
22.959461091161415 -0.864855356193303 -6.279566662515776 100 76 50 255
7.809821331826669 -27.909480721279508 9.858635914886946 196 180 138 255
9.256854977733155 -27.755204115583780 8.472675677927015 206 172 144 255
10.851514093131499 -27.670010993669621 6.947823972267855 206 176 150 255
11.710295574852182 -27.302908612922906 6.117274386131214 206 174 151 255
12.790230256712420 -27.031291196853928 5.078411658918043 203 168 146 255
14.312347398564555 -26.947357748978206 3.622921325069228 198 162 140 255
15.761209736147322 -26.844604283425568 2.236839545186825 195 159 137 255
16.473785799549660 -26.448034217193097 1.545105327769278 195 160 138 255
17.775971490374815 -26.302762625603862 0.297859731524142 197 162 142 255
19.225875759965106 -26.229238334433148 -1.088285400301885 199 163 142 255
20.676164444315503 -26.166527001019361 -2.474455252421592 198 162 140 255
21.463500233585933 -25.830718960081370 -3.235676747903227 197 161 139 255
22.324767164029822 -25.532666793972155 -4.066346187868135 194 158 134 255
23.186270432821203 -25.241090486534603 -4.897022845749518 195 154 132 255
24.048010111574712 -24.955984855994544 -5.727706392185013 198 154 129 255
24.983727390262516 -24.709970062317723 -6.627842177256412 195 151 126 255
25.329696815742523 -24.207792060797786 -6.972412368477535 194 150 123 255
26.044571576104033 -23.874115331105173 -7.664212483282967 197 153 128 255
26.464570930733146 -23.412064870343045 -8.078218079575208 203 158 134 255
26.958474469654419 -22.986922966223034 -8.561665753420442 202 160 138 255
27.378735524348542 -22.531542446633040 -8.975656098283082 203 158 137 255
27.799123040315266 -22.079353460957421 -9.389637607580283 198 153 132 255
28.441053988605461 -21.733899881455343 -10.011970061419674 190 145 124 255
29.009351997312336 -21.358461226740474 -10.564845106941050 182 135 115 255
29.503989602027758 -20.952221167001639 -11.048258945248193 173 126 106 255
29.555773644574401 -20.337726455231575 -11.114923418826180 167 120 100 255
29.533750819283227 -19.688093608414746 -11.112107198578229 161 114 94 255
29.364042416071584 -18.966636988243721 -10.970346936234364 152 107 84 255
29.489757496377791 -18.388558313395862 -11.106397302053153 144 102 80 255
29.541657261194644 -17.775051365849720 -11.172963993450168 138 97 76 255
29.741351198181974 -17.235336336481140 -11.378431289898032 134 96 73 255
29.719454177211645 -16.586279669238380 -11.375485673347811 130 94 70 255
29.475884296637616 -15.825439250844056 -11.164115456127149 127 95 70 255
29.158372305336428 -15.025354435710426 -10.883241827908250 126 95 70 255
29.062552646092740 -14.336253099473836 -10.810731493153497 121 91 65 255
28.671036331378133 -13.494334732444102 -10.460311506145359 118 88 62 255
28.427315836176462 -12.726162977291324 -10.248787977042753 113 86 57 255
27.739905016876463 -11.724758544655657 -9.620394385605493 107 81 54 255
27.348157852449418 -10.873690023553252 -9.269836257233919 102 80 51 255
26.290693719442856 -9.667685261992119 -8.293962180739214 94 75 45 255
25.750785506589693 -8.729616757395618 -7.804345805275005 88 71 43 255
24.397004344988034 -7.351308909293309 -6.550427694952077 84 69 40 255
23.634822428600671 -6.282471376274586 -5.852251340130778 66 52 24 255
22.946478692627494 -5.248193199140104 -5.223489956387652 38 24 1 255
23.146066055672861 -4.694479763156934 -5.428439869577034 28 14 0 255
23.345729949721800 -4.142161227219404 -5.633359535804658 46 30 4 255
23.323398676907061 -3.468180642248271 -5.629796175869672 64 46 20 255
23.004958524711441 -2.628795736356764 -5.348250612373505 80 55 31 255
23.352846983328845 -2.161012051973984 -5.692035291152081 98 72 47 255
23.478695883641819 -1.570180510107804 -5.827327724123052 105 77 53 255
23.974903549627300 -1.190675085057862 -6.310033681856339 104 78 53 255
24.100916303482649 -0.602808831393205 -6.445260371721048 101 76 49 255
8.566032729461227 -28.013567793472504 10.154534450241357 199 181 140 255
10.303416615783135 -27.975821767706833 8.485713123371312 207 176 147 255
11.159863390344185 -27.601680621903583 7.652592585221868 208 178 152 255
12.310382369632350 -27.351617712544467 6.540880022377365 208 176 153 255
12.946933634619967 -26.902632142267606 5.916675642425758 202 167 145 255
14.906263021901594 -26.997248455951734 4.038813058644934 197 161 139 255
16.866107823439648 -27.106480329630941 2.160911863449769 194 158 136 255
18.018009377783784 -26.895170224588753 1.049116739587987 193 158 136 255
18.729188708862438 -26.508091289717726 0.355208557844094 193 156 137 255
19.734626810906065 -26.250462220773031 -0.617309392658683 196 160 139 255
20.593290675007722 -25.937847016777440 -1.450533652011899 196 160 138 255
21.452191440454129 -25.631717474043683 -2.283764885472237 194 156 135 255
22.090701369699957 -25.236611719966035 -2.908038869929698 193 155 132 255
23.097152174211260 -25.006805676879807 -3.880591191272288 191 150 128 255
24.177438288359298 -24.816909319796224 -4.922810350306548 195 151 126 255
25.258017120051647 -24.635098608878039 -5.965041463502843 195 151 125 255
25.750251823359008 -24.198173442168297 -6.450013485966593 195 151 124 255
26.684164562899184 -23.964018535218528 -7.352939297695286 195 151 125 255
27.323940899073648 -23.603094584156295 -7.977227884115933 199 155 131 255
28.111113940834827 -23.314413425498898 -8.740838479505612 199 157 135 255
28.309574052421027 -22.759790511541752 -8.947145220962881 200 158 136 255
28.655357408103214 -22.275237940361095 -9.292764323437382 200 155 134 255
29.148519421444831 -21.862371289678592 -9.777701990345065 191 146 125 255
29.789115418871233 -21.522806368497044 -10.401964543982871 183 138 117 255
30.356240775345782 -21.152976174379660 -10.956555256118833 177 130 110 255
30.407893234874592 -20.540076120983500 -11.023457044466284 171 124 104 255
30.385910117647029 -19.892033366292210 -11.020665337030522 167 120 100 255
30.363944977793153 -19.243902408466070 -11.017847224382052 159 114 91 255
30.563067950556302 -18.704104198309295 -11.224019286457604 151 109 87 255
30.688565215752277 -18.129414207063149 -11.360497249025713 145 102 82 255
31.256367261665332 -17.775799091678351 -11.915000645434304 141 100 78 255
31.160878021952414 -17.093810930948834 -11.842410341327422 136 99 76 255
30.991663221589960 -16.373934844028611 -11.700110817555071 133 99 74 255
30.306282084541323 -15.390379109625172 -11.070026520343674 129 97 72 255
30.431948726370848 -14.817240846955116 -11.206366283130791 124 92 67 255
30.115148875014370 -14.016819595760040 -10.924593201521418 121 90 64 255
29.798296599576361 -13.214079323787942 -10.642777560121800 118 88 60 255
29.038760260262052 -12.177539376270218 -9.942816668990787 112 85 58 255
28.721749771861624 -11.368509312957599 -9.660905483154892 106 82 54 255
28.183317575860258 -10.439771397297434 -9.169890240976457 99 78 49 255
27.644780113874816 -9.507051895648530 -8.678820863249058 90 72 45 255
26.146630682593411 -8.054720413004119 -7.281739492942307 83 68 39 255
24.426690046396317 -6.471529886510140 -5.675495134795682 80 66 37 255
23.518446079652819 -5.317905145584120 -4.835758150822528 67 53 24 255
23.717538638934457 -4.764699174342454 -5.041345717880972 26 12 0 255
23.695175680774867 -4.090640902073943 -5.037818077360583 42 28 2 255
23.525129711924933 -3.334297381997871 -4.894857701566792 59 41 15 255
22.838035394740615 -2.287566902463965 -4.263967759808168 73 49 25 255
23.258873283439385 -1.859142262508556 -4.678493190169519 91 65 40 255
23.532082808287669 -1.350035083784505 -4.953592443033955 105 77 53 255
25.283173639719848 -1.684987734070546 -6.622698613311513 107 79 55 255
25.335060605793899 -1.057961983268584 -6.688653794608797 107 80 53 255
25.830433238656127 -0.687098131158081 -7.172797162367942 100 76 48 255
8.881288364711168 -27.946247448824494 10.867827672398136 201 183 143 255
10.467983081826389 -27.850332595423026 9.333588905628062 209 179 151 255
11.542149036228551 -27.562503251298637 8.288318967840752 210 178 153 255
12.176878642583148 -27.106471804354513 7.662180712485053 207 175 152 255
13.178276621208170 -26.803649462759694 6.686745925110273 200 165 143 255
15.059630441231377 -26.867606784524241 4.872982373004817 196 160 138 255
17.601326979377291 -27.217457414604809 2.430437085316527 192 156 134 255
19.263783780199503 -27.220573751696875 0.826179035592446 191 156 134 255
19.973331214533033 -26.836483484711394 0.130106799106329 192 155 136 255
20.463046808101382 -26.364770851806625 -0.356377247585442 194 158 137 255
21.099613538581991 -25.959412348209014 -0.982587123500167 195 158 136 255
21.809724719397536 -25.590470899467405 -1.678662734086430 191 153 132 255
22.740151991431503 -25.322397191287010 -2.584340234415748 192 154 131 255
23.524073392125757 -24.997152741666383 -3.350289587255077 189 149 124 255
24.601775591485534 -24.807289607457250 -4.395717195045819 193 149 124 255
25.826570515435606 -24.690777897808871 -5.580895534381739 194 150 123 255
26.317607291181702 -24.254394167533576 -6.067379437048260 194 150 123 255
27.689806979158391 -24.219844017168001 -7.392320822624498 193 149 122 255
27.960963970832864 -23.693871281238430 -7.669184768264245 197 153 128 255
28.599394306405372 -23.338588218080787 -8.295405669570243 200 157 137 255
28.650441224435582 -22.716250627217619 -8.362621010832385 201 159 139 255
29.142253769491049 -22.299926469347881 -8.849073048607494 198 155 136 255
29.854605299957001 -21.990900903389985 -9.545148790890465 194 149 130 255
