ply
format ascii 1.0
element vertex 658
property float x
property float y
property float z
property uchar red
property uchar green
property uchar blue
property uchar alpha
end_header
50.940389389526104 -5.274395039144139 -14.490094124196190 105 78 51 255
51.415411058348155 -4.985790971241016 -15.003312751871192 112 85 58 255
52.102372199666945 -4.837900008034893 -15.738378709148236 113 85 59 255
52.295364411087803 -4.372867434880391 -15.955629484874521 110 82 55 255
52.206029456632024 -3.723832562945773 -15.876930403343323 106 79 50 255
51.975496718265049 -2.980647349420082 -15.650199098201796 104 81 50 255
51.603715869005924 -2.141646628396188 -15.275420751716041 97 75 44 255
50.949371635934483 -1.110895039210845 -14.604626115331740 85 68 39 255
20.664078957688304 -23.825582856069090 19.464105410641508 195 165 129 255
21.268182068437511 -23.382448313147293 18.799357956925093 200 158 133 255
22.222128951787909 -23.099602942154362 17.764104314574581 198 157 129 255
22.826668517419790 -22.667531378501664 17.099385124509297 194 150 123 255
23.431403245961747 -22.240307612871263 16.434683170258978 189 143 117 255
24.106291620892193 -21.849823662988499 15.695892162057930 183 138 109 255
25.131232286922796 -21.625556050883489 14.586578684288497 179 130 100 255
25.666643454785401 -21.182298627536014 13.996035053762313 159 108 79 255
26.062259766076522 -20.677910025490945 13.553732437919194 146 95 68 255
26.038042731561603 -19.978846564306068 13.556119443697810 141 89 66 255
26.293874514442564 -19.412728117662965 13.262098444369116 130 78 56 255
26.339767343454696 -18.748155436382604 13.190446432706210 114 62 43 255
26.315685086725836 -18.050268792486165 13.192946096771124 105 57 41 255
26.291633381908667 -17.352311232725967 13.195486970072238 97 51 35 255
26.337655180208884 -16.688607738435067 13.123954684572368 89 49 30 255
26.663933881211051 -16.163769533818495 12.755997895184890 86 49 30 255
26.640033276321134 -15.467183876069114 12.758662630552124 80 48 27 255
26.756306009141298 -14.840787639510694 12.613135701350842 74 46 25 255
26.382093252708160 -13.967472199180079 12.986488311329680 68 43 22 255
26.218088296720651 -13.198392502547151 13.137537285917318 59 39 15 255
25.913885442646972 -12.356200184226282 13.436883106019479 51 35 10 255
26.030287233136619 -11.729073560010207 13.291550247394156 45 31 4 255
26.146762065603724 -11.102897068913236 13.146263946692301 39 26 0 255
26.754189257527742 -10.735040905085597 12.482148426088344 27 12 0 255
43.007870615847651 -16.767811602743606 -4.777625687736560 176 139 117 255
45.582904397531138 -17.544448544080609 -7.517506660197142 177 134 115 255
46.965582093529292 -17.688274886324024 -8.997173993802164 175 132 113 255
47.295818138270448 -17.262782497194237 -9.364829851990663 177 132 113 255
47.204990773706896 -16.606194177944047 -9.287632458343893 178 131 113 255
47.535428264082469 -16.184131240471700 -9.655197459111179 179 134 115 255
48.497943667726759 -16.119919558817287 -10.689963256325399 182 137 118 255
49.320298912230555 -15.983605687265253 -11.576432263238075 185 139 119 255
49.721501350603887 -15.613454525099698 -12.018031745164876 185 139 120 255
49.701389236946710 -15.004566336423224 -12.014735053549970 184 138 119 255
49.821822024265458 -14.476589381868820 -12.159666466894009 182 136 117 255
50.082853964815342 -14.031148168130059 -12.452834044302335 175 128 112 255
50.554809540469279 -13.710981736556903 -12.968393233423029 169 121 107 255
51.097210580983898 -13.435762658194250 -13.558060203356547 165 117 103 255
51.288354453760036 -12.956352686427934 -13.776937718266112 160 114 98 255
51.268702435558652 -12.352518317747979 -13.773304543282478 157 111 95 255
51.319399146379510 -11.790611338822430 -13.843759054742833 151 108 89 255
51.581101278654103 -11.356394081319323 -14.136615747562558 145 102 83 255
51.913241436343384 -10.966815757242571 -14.503575140855304 146 105 87 255
51.893851861426981 -10.364552540059123 -14.499689162098832 141 103 82 255
52.015189545208415 -9.848568797730820 -14.644054098302576 136 100 78 255
51.925557894509353 -9.202649004725941 -14.565867815478498 132 97 75 255
51.695237461495765 -8.468164908295904 -14.339276827803417 126 94 69 255
51.676013546852062 -7.864046564373339 -14.335099152774461 123 93 65 255
51.938341212021811 -7.437137841793657 -14.627518676315333 117 87 59 255
52.060016641257334 -6.922729948745044 -14.771537568944325 108 78 50 255
51.689021390235837 -6.094475416957991 -14.396282933680766 104 77 50 255
51.669998919624192 -5.489159950520829 -14.391799688357167 101 74 47 255
52.003079186695629 -5.110888689819305 -14.758117058106251 103 76 49 255
52.688391474011723 -4.963772018659029 -15.495265348790213 105 78 51 255
52.740076033219481 -4.407402075733032 -15.564750806211663 106 80 53 255
52.580520063218387 -3.712219892239986 -15.411609690016206 103 78 48 255
52.420981883064968 -3.015500253990950 -15.258375142971971 102 79 48 255
52.191009005204307 -2.270366901675715 -15.030858581481141 97 75 44 255
51.749653391023060 -1.381701149377662 -14.580672882121632 85 68 38 255
19.863424666510753 -23.266218937564886 21.366505077594269 189 167 129 255
20.884308744035252 -23.003127468403420 20.253958729609224 201 159 134 255
22.184538431005336 -22.872496616871047 18.844154102729760 199 158 130 255
22.787465406703774 -22.438523562366754 18.177521767251562 196 152 125 255
23.530144474988418 -22.072658294267796 17.362271564877432 193 147 121 255
24.273057423054524 -21.712716025095958 16.547036750940350 188 143 114 255
25.295392307499299 -21.487376799695554 15.434538959830235 185 138 106 255
25.759586155062209 -21.010579481237812 14.916615748093136 173 124 92 255
25.944676798472699 -20.406677309896438 14.696003109527311 163 114 84 255
25.990202358577648 -19.738384612711783 14.624067921327736 148 98 72 255
26.594451664048734 -19.336603628980725 13.957582731511991 138 88 65 255
26.640148978318848 -18.671442854371520 13.885715358571844 131 81 59 255
26.685895585402392 -18.006757093394285 13.813887118212250 117 68 50 255
26.661829631449052 -17.308475453066251 13.816425347121566 108 63 43 255
26.777539079338169 -16.678785518143371 13.670352180129839 97 55 34 255
27.033080363234490 -16.119304384952841 13.375662610016320 93 57 34 255
27.009167652689030 -15.422390568541630 13.378327550534493 90 56 33 255
26.985288650984415 -14.725378170279967 13.381038902318039 80 52 31 255
26.541990685803853 -13.815752923808645 13.829786652118344 74 49 27 255
26.238453016715653 -12.974143219567821 14.129930997390403 64 44 20 255
26.144659295511076 -12.238125417460608 14.207133080002649 53 37 12 255
26.120820137282067 -11.537668711663500 14.210053728685580 44 32 5 255
26.236909632446185 -10.910079496929541 14.064354747471924 39 28 1 255
26.003298729867055 -10.099570405685810 14.290390167254628 31 23 0 255
25.909599430937845 -9.361371430248070 14.367810663886701 19 13 0 255
26.515653971795984 -8.995615535679292 13.701894069110352 13 1 0 255
44.785208266720446 -16.886695408689732 -5.766321423425666 173 132 111 255
46.724405268797909 -17.333119388277979 -7.844949410065141 176 131 112 255
47.543846697078408 -17.175832109956431 -8.734061410217947 178 131 113 255
47.593236378412371 -16.596511151405991 -8.805329915106768 177 130 112 255
47.782756552612852 -16.095970252420599 -9.025241942742980 178 132 115 255
48.462692008800303 -15.873260299388619 -9.765555228331493 179 136 117 255
49.493122384568096 -15.854566710439244 -10.877595898424914 183 138 117 255
50.173542440401036 -15.643669017086367 -11.617855941089658 183 138 119 255
50.363671309418777 -15.155881050286425 -11.837604366498425 181 136 117 255
50.273566775040877 -14.507204023836564 -11.759877020932777 183 138 119 255
50.463849158117284 -14.021128931194440 -11.979514412276984 179 133 117 255
50.724326703735755 -13.577560811301723 -12.273456979924134 175 127 113 255
51.265352705651821 -13.301480125525359 -12.864790529355929 170 123 108 255
51.455975679694916 -12.821184385547198 -13.084273426101873 165 119 103 255
51.576568671023125 -12.300319729723398 -13.229336084563641 162 116 100 255
52.047917442690334 -11.991309411404544 -13.746166125021745 158 115 96 255
52.589578283706828 -11.728313986973646 -14.337319047529292 151 108 89 255
52.850813074506391 -11.298375121732704 -14.630954315785601 148 106 89 255
53.042001695671729 -10.827290691645672 -14.850162673681581 145 104 84 255
52.812265780704053 -10.097729499776122 -14.623074705606967 140 103 82 255
52.793061447874379 -9.496928161296751 -14.619026666546461 137 100 79 255
52.844092079390634 -8.939642522671747 -14.689281219667635 132 96 72 255
53.597154186137971 -8.823777728002469 -15.503247273506076 124 94 66 255
53.929223459105771 -8.447214624751894 -15.870898666002006 118 88 60 255
53.348646185363549 -7.492327699825154 -15.271524333143219 113 83 56 255
52.557312087091702 -6.397851003602980 -14.448887014413344 107 79 52 255
51.836069715353489 -5.342172922459000 -13.700511145511001 103 76 49 255
52.238543223787019 -5.008493998978381 -14.142225738888698 99 72 47 255
52.500674400336209 -4.586169872080305 -14.435101891918322 97 70 43 255
53.043953636249768 -4.349798935602436 -15.025481834991268 96 70 43 255
52.955033059938586 -3.700542058590941 -14.946258164055365 98 73 44 255
52.866148653190351 -3.050296451780994 -14.866943716931161 97 74 43 255
52.496171654624021 -2.211574435599005 -14.489939538604261 95 73 42 255
51.985583129330138 -1.275343241725011 -13.964019650189613 84 68 37 255
21.200293436589305 -22.931968022601467 20.968334956680025 201 159 134 255
22.010131352035472 -22.583169565311692 20.076191848387708 201 159 133 255
22.541829651576506 -22.115389263209963 19.482178245470521 198 154 127 255
23.560958429527830 -21.873352798938114 18.366476245660493 196 150 124 255
24.789248044615533 -21.735115165404451 17.027191496844949 192 147 118 255
25.600146070666767 -21.413530278928334 16.135101140363702 184 137 107 255
25.854211928273116 -20.838834577361084 15.839286506317222 179 132 102 255
25.969091501255662 -20.200827168256453 15.692569384265568 172 124 96 255
26.362656177962890 -19.695797482407485 15.247750228668480 160 112 86 255
26.826027244788150 -19.227215066815504 14.728424614738231 148 99 76 255
26.941193804500756 -18.594721800572586 14.581807766985804 136 87 64 255
27.126111601194879 -17.997041081972043 14.360691876028994 125 78 55 255
27.171733504579947 -17.332773142988202 14.288689474696213 116 71 48 255
27.356809010074187 -16.737644334034840 14.067650885083339 105 65 40 255
27.402552498761111 -16.074833318785693 13.995731769321253 99 64 37 255
27.378628580204179 -15.377590047654436 13.998398089208848 93 62 34 255
27.354739118090379 -14.680246744535779 14.001111815513468 86 58 34 255
27.051931447075106 -13.841109314113680 14.302047428443046 78 54 30 255
26.818833152284611 -13.035384097175665 14.528497032779654 68 50 25 255
26.655472758929136 -12.263875866578687 14.680458682539864 60 44 18 255
26.631644738082173 -11.563623836807423 14.683383655054200 54 40 13 255
26.677629830244143 -10.899740630731131 14.611814153671560 45 32 6 255
26.304965338846472 -10.015597842419723 14.987590808357197 37 30 7 255
25.862454726352780 -9.091545456642322 15.437985294380638 30 24 0 255
45.718065168326433 -16.555432634677373 -5.868791138025358 169 129 112 255
46.884528375443324 -16.586071371681228 -7.133194313839880 172 124 110 255
46.863763800685263 -15.963663105492714 -7.130079940483455 178 129 114 255
47.401969973970637 -15.654807223535826 -7.723392125073076 177 131 115 255
48.499364097496652 -15.666017266963877 -8.913163584285144 175 132 115 255
49.666971510230155 -15.725478318295600 -10.177484297876362 179 134 113 255
50.485458406442348 -15.593800093417755 -11.068969463138728 182 137 118 255
50.744982729796277 -15.145981890542004 -11.363897836459699 182 137 118 255
51.004620301250384 -14.700111166243389 -11.658776037723015 181 136 117 255
51.124530948340805 -14.174480585366027 -11.804464374327836 179 133 117 255
51.104661562456783 -13.567448915344769 -11.800952591555870 178 130 116 255
51.364587767896495 -13.125742704184432 -12.095665839085825 175 127 113 255
51.764522755638609 -12.769289062866790 -12.539474047811268 171 125 109 255
52.234564214120979 -12.457776512513064 -13.057810473674976 165 119 103 255
52.704774248389754 -12.149803755886381 -13.576101957886010 163 120 101 255
53.175153042319351 -11.845364338546162 -14.094347972692702 157 113 95 255
53.365771750675918 -11.373415945461986 -14.314223555948473 155 112 95 255
53.696471449970289 -10.988866518442961 -14.683204094161653 146 103 84 255
53.397307497327574 -10.216987085545256 -14.380867626920150 148 107 87 255
53.658189147185510 -9.791229198066361 -14.675135214963746 143 102 82 255
53.569102450865813 -9.148063939939334 -14.596400422410483 136 98 75 255
54.460409624764367 -9.121779770433378 -15.561851252218332 125 91 64 255
54.441541958818675 -8.525059828993506 -15.557574788265043 121 87 62 255
54.072507874504765 -7.704605833718290 -15.180248156609849 114 82 57 255
53.703437860031556 -6.881037450141250 -14.802821582249294 110 80 56 255
52.773849581141377 -5.692554048096738 -13.828505388159385 106 78 54 255
52.895125021049722 -5.179006480126006 -13.973060635992681 99 71 47 255
52.946409832895682 -4.620377729886684 -14.042937392376700 93 65 41 255
53.488367390001429 -4.384216623747861 -14.634967414296113 92 65 39 255
53.049191164663057 -3.503504492623108 -14.182445986697445 95 69 42 255
52.820276775618879 -2.758843673573523 -13.953637660343873 92 68 40 255
52.731589900854203 -2.105825311365834 -13.873949374575631 90 68 37 255
52.923421760774431 -1.640391145944079 -14.092621629650466 81 66 35 255
52.834847566508273 -0.986431352106322 -14.012749804730277 73 60 28 255
21.031071459815962 -22.645024337516418 22.206697343536803 196 159 132 255
21.908185363473876 -22.324889827293376 21.237268501598066 195 157 134 255
22.716144165883236 -21.980400905290168 20.342593217254233 196 154 129 255
23.663230753886864 -21.705654435874450 19.298449372838348 195 151 126 255
24.749501951811311 -21.502267754348523 18.104832434270378 194 148 124 255
25.488823857338900 -21.146608029960106 17.284942014375588 189 143 116 255
25.811590433072041 -20.602164382096291 16.913536182140376 182 137 108 255
26.065005922813839 -20.027660772459015 16.616905459150047 175 128 100 255
26.526978537113166 -19.554240178934080 16.096068755420362 163 116 87 255
26.919619783090639 -19.051289272852841 15.650007052102296 158 111 83 255
27.242902020903415 -18.517990802317499 15.278723973152239 145 98 69 255
27.496797678858343 -17.953527303542899 14.982223236941223 134 86 63 255
27.542236569223945 -17.288936642367375 14.910008674649362 125 79 53 255
27.587727352080606 -16.624805646368628 14.837837183715237 116 75 47 255
27.633270657754537 -15.961127831439271 14.765709847360398 104 67 38 255
27.817965609275348 -15.367664974287607 14.544121635475818 97 64 33 255
27.724517360230664 -14.635105246439366 14.621591999055113 93 63 37 255
27.561518678512755 -13.866469867820015 14.773869244266535 82 56 31 255
27.328942542782642 -13.060939181084407 15.000957874328662 72 51 24 255
27.096348278399034 -12.253660481985833 15.228105128421248 66 49 23 255
27.002927643583263 -11.517102572913373 15.305795315878981 60 46 20 255
26.979131987390986 -10.816374062032324 15.308782569325416 53 41 15 255
26.746534147744995 -10.005159092239595 15.536108064686573 45 35 8 255
26.305052270070689 -9.081010149792462 15.987783798685911 35 28 1 255
25.097547276681581 -7.742898277957750 17.261928422392288 25 19 0 255
44.349028127972474 -14.951823106092590 -3.507187378374454 165 129 114 255
45.930689555591698 -15.213805196745326 -5.223734597849045 175 129 114 255
47.094633019956262 -15.252750119113017 -6.491650518491667 177 130 114 255
48.607448706130668 -15.498201817125349 -8.133423337900297 177 130 112 255
49.493277689441982 -15.397507993235976 -9.102219891254236 175 133 111 255
50.239936546745980 -15.223591035180078 -9.921438898303080 178 135 116 255
50.847371387392627 -14.974814222070492 -10.591071284303126 178 135 116 255
51.524750708160582 -14.771286683669331 -11.335447237154057 177 134 115 255
51.923353140900019 -14.409546593453442 -11.780663946176077 179 136 119 255
51.833796180567873 -13.762939323032498 -11.702353059674323 183 135 121 255
52.093102783207542 -13.322529577480310 -11.997895466425604 180 133 118 255
52.352525085313658 -12.884036952439189 -12.293383249830100 176 130 114 255
52.960989238449429 -12.657177933465363 -12.962755335775768 170 124 108 255
53.569658104536472 -12.434949562394763 -13.632088255583852 168 125 106 255
53.969123398824252 -12.089874301484528 -14.077007462424888 162 118 100 255
54.089494567292917 -11.576724682902196 -14.222703473585199 161 115 99 255
54.000487046086619 -10.935251714667558 -14.143948954031913 156 112 93 255
53.771851749800987 -10.206296521572781 -13.915523127556895 152 107 88 255
54.241590484719012 -9.911215177764817 -14.434997821348531 145 102 83 255
54.362267758153848 -9.400342671059548 -14.580419602992890 141 99 77 255
54.902160316353502 -9.155011129097389 -15.174586912147362 131 92 70 255
54.883331152276355 -8.558466218064538 -15.170270786365052 125 88 65 255
54.794680318679355 -7.916879260777833 -15.091068290279622 121 86 62 255
54.566301633538160 -7.184462704148189 -14.862163344137201 115 82 59 255
53.988475536779958 -6.223872387786955 -14.259109825670976 112 81 57 255
53.760056201475294 -5.486008617421049 -14.030002530652212 101 73 49 255
53.741359446773544 -4.883423074543259 -14.025241731147645 96 68 44 255
53.862547518486565 -4.372525427781071 -14.170028392292636 91 65 40 255
53.354511557866942 -3.445341237356118 -13.641360368452126 92 66 39 255
52.986277248876036 -2.607067244801016 -13.262214123511995 89 65 37 255
52.827836949842265 -1.906221452788444 -13.107425501014319 87 65 37 255
53.368910082898481 -1.675362051117133 -13.700799232147688 80 66 34 255
53.700303435177915 -1.306145412536154 -14.069630454863699 76 63 31 255
21.557272087659356 -22.666331965403856 22.699326204071014 192 159 130 255
22.432168830314794 -22.346470859595414 21.727132946362701 194 157 131 255
23.168824693778930 -21.970879867615935 20.904858682044505 197 154 131 255
23.767183357705676 -21.537931259699036 20.232509053085494 194 152 127 255
24.504291932306870 -21.173644369670441 19.410272037848358 195 149 125 255
25.310922046751870 -20.847454340117039 18.513098479573273 192 146 121 255
26.048512938876598 -20.495261855716208 17.690898780786938 186 140 113 255
26.509124617082875 -20.018080571719125 17.168547543893936 179 134 105 255
27.108525303495554 -19.610621414864241 16.496308232250641 173 126 98 255
27.361512195799321 -19.041652208322830 16.198888728946031 164 117 88 255
27.683938119151350 -18.508317970724150 15.826544534629903 152 105 76 255
28.006490159407122 -17.977619120743242 15.454234558697124 142 95 72 255
28.190467212764617 -17.381397724860548 15.231883381680632 134 90 63 255
28.235813878471333 -16.718023916991896 15.159497886005198 120 81 52 255
28.142474912880772 -15.985867343787419 15.237085171694105 112 77 47 255
28.118531339370463 -15.287961233992675 15.239757859446513 103 70 37 255
27.886459806985499 -14.484475721177105 15.467377840169490 95 65 37 255
27.931958312114489 -13.820973827095301 15.395186737362707 86 59 32 255
27.977512696604379 -13.157896433241660 15.323045286005140 75 54 27 255
28.092539318891880 -12.531207798404978 15.175985373991580 68 51 23 255
27.721667072331201 -11.651775362768774 15.553767787926631 62 48 21 255
27.489610488204818 -10.842520487729772 15.781674071550412 56 44 18 255
27.049209055687385 -9.921139418048853 16.234562296012967 46 37 8 255
26.608738534561610 -8.996350168352151 16.687522944688908 37 30 2 255
25.473583613456498 -7.694877545252140 17.890309174572792 27 22 0 255
23.226646613707544 -5.782987865973183 20.292818537127317 17 15 0 255
18.244731658517651 -1.639574893568650 25.623125327644601 10 12 0 255
46.582133607358998 -14.732902496890262 -5.030714418635114 171 129 113 255
48.508297687395412 -15.211830596390399 -7.127026101601018 176 129 113 255
49.739576062803224 -15.308064676809011 -8.473483095068502 175 132 110 255
50.484355134989329 -15.133572631731710 -9.295008421663255 176 132 112 255
51.020691075706793 -14.843896302300166 -9.891531863932215 174 131 112 255
51.765924063272564 -14.680102008800915 -10.712990306717359 179 135 116 255
52.580976483510227 -14.562916248774258 -11.609410595133227 182 136 120 255
52.491644147090824 -13.917309756638616 -11.530867372159207 183 136 121 255
52.819919868647560 -13.519326773278792 -11.902232880335049 180 133 117 255
53.009118548519723 -13.040452070109126 -12.123549423191065 176 130 114 255
53.685717905535540 -12.856587232826215 -12.869805919222273 173 127 111 255
53.944800549639297 -12.424564340692370 -13.166015507611803 171 128 109 255
54.273632887027190 -12.036931451889885 -13.537170535611097 166 122 103 255
54.393678140243821 -11.523426172471602 -13.683254535608597 165 119 103 255
54.095909022285895 -10.752455907788772 -13.379229127118663 167 122 103 255
54.216069120915137 -10.238873577112201 -13.525167016143030 156 111 92 255
54.754316048064481 -9.987592407612567 -14.121100608037835 150 105 86 255
55.223076464393358 -9.696492417489040 -14.641974267718524 143 98 77 255
55.273902539914360 -9.144062934020326 -14.712708065593517 137 95 73 255
55.185411123121440 -8.503006492131945 -14.633332337388822 131 90 68 255
55.445462609613713 -8.084461897562051 -14.928965006478876 128 89 68 255
55.566214972212435 -7.577819525866815 -15.074489911164960 119 84 62 255
55.129304492812054 -6.710020369133886 -14.619755736011172 117 82 60 255
54.971254700823579 -6.020563723905738 -14.465011013026924 107 77 53 255
54.882961369504017 -5.375384099420344 -14.385198087210995 101 73 49 255
54.515729178138173 -4.545001176778825 -14.005174327076020 93 67 42 255
54.078715722770056 -3.665101146478463 -13.550006365889203 91 65 40 255
53.781180456275536 -2.874671667535296 -13.244787639980927 87 64 36 255
53.832483909966669 -2.316007878081180 -13.314639633760606 86 65 36 255
54.442086895729233 -2.134718725671647 -13.984713163730248 79 66 34 255
54.423822318337670 -1.530983895656661 -13.979362649936235 79 66 34 255
21.599630711937124 -22.471824051224630 23.717636369224778 182 160 123 255
23.024860877483633 -22.399174950582662 22.141375528243429 194 157 130 255
23.828738232658708 -22.055493181890682 21.241597284303680 195 153 130 255
24.149199716018302 -21.496761666956516 20.867993678943890 192 150 125 255
24.607995194292215 -21.004534370112097 20.344086620095709 194 148 124 255
25.412525772989284 -20.676986329173047 19.444370343661831 189 145 119 255
26.217312485521688 -20.355887508421333 18.544672653836585 185 139 113 255
26.953222125712387 -20.008505777322256 17.720163084153228 179 133 107 255
27.274512490165080 -19.469037206732864 17.346694231673695 176 130 104 255
27.595928671667309 -18.932214371357375 16.973258745205072 167 120 92 255
27.917471182218748 -18.398031475386048 16.599857529170322 161 114 87 255
28.169969599749834 -17.832673500331481 16.301664184099991 148 103 79 255
28.284216184597767 -17.201242818321930 16.153856238372782 136 94 67 255
28.260155587256321 -16.502109318067028 16.156440649395165 125 87 58 255
28.305329244023056 -15.837505850338289 16.083897498969151 116 82 52 255
28.419765719765593 -15.208237906222209 15.936224856998336 110 80 46 255
28.118971449470052 -14.368972357806243 16.239665255397455 101 72 42 255
28.233500722336771 -13.740029665551873 16.092092689679873 93 66 37 255
28.209633310917354 -13.040642873495642 16.094928619547119 85 61 33 255
28.393540293360473 -12.449055975953783 15.872275394625092 76 56 29 255
27.815743987460024 -11.460252698206048 16.476675223074466 64 50 21 255
27.584158676611935 -10.649558788277417 16.705233190063808 57 44 17 255
27.075468351805625 -9.689936177790216 17.234594515819595 50 40 11 255
27.051665061825645 -8.985777466856334 17.237731487230519 39 32 4 255
26.334993747959743 -7.908146538118359 17.992799324792912 31 26 1 255
24.440079714018395 -6.185683182031923 20.026154876868731 20 18 0 255
19.425798288497674 -2.744085222113881 25.443172915766553 13 11 0 255
17.390944332355588 -0.903435278155868 27.627237327717722 10 12 0 255
47.579174228181586 -14.451335295990830 -5.215283751780589 172 130 112 255
49.500952254420270 -14.940151077152962 -7.317497861355321 176 131 110 255
50.729460872531604 -15.043507134953956 -8.667722935740841 175 133 111 255
51.333821162705533 -14.793558947809515 -9.341116796210457 176 131 112 255
52.007786400869094 -14.588866977444439 -10.089675940384041 178 131 113 255
52.612566650782185 -14.348515285114942 -10.762993951256078 180 131 116 255
52.731631619312367 -13.824864535622396 -10.909823744956014 180 133 115 255
53.267335073280123 -13.550498232836333 -11.507842692671062 180 133 115 255
53.456051862603260 -13.071821510852004 -11.729766499919634 177 130 112 255
53.922644126328635 -12.762323873589793 -12.252477245287508 177 130 112 255
54.042144362676169 -12.245228626257841 -12.399071060925991 173 128 109 255
54.231189480318960 -11.771434416280400 -12.620813971283070 172 126 108 255
54.559276459568707 -11.384525748292376 -12.992927676622600 170 123 107 255
54.679063666487423 -10.870900867341888 -13.139326388313918 168 121 105 255
55.007398716273315 -10.488012266460800 -13.511318779776985 160 113 97 255
55.474864057596591 -10.194720026397917 -14.033698021981593 153 106 90 255
55.942502065146698 -9.904924058985898 -14.556025226100303 145 98 82 255
55.993231171716786 -9.353768088530757 -14.626938475041158 140 95 76 255
56.044029856127707 -8.802805664230107 -14.697774352938239 138 91 73 255
56.164429570417155 -8.296717051594754 -14.843762630268742 133 86 68 255
56.354456642783447 -7.836315740796891 -15.064908384298349 123 82 62 255
56.196849502738303 -7.150981601644403 -14.909805605773812 115 79 57 255
56.039263203311009 -6.464152859315774 -14.754607598778250 109 77 54 255
55.881698599778900 -5.775817525363578 -14.599312745451130 104 74 50 255
55.585009667197511 -4.993835188046063 -14.293435654885997 96 69 42 255
55.218728506285260 -4.162880568268378 -13.912205035159872 91 69 40 255
54.922011514025854 -3.375343215658816 -13.606104966650179 84 67 35 255
54.973279759008562 -2.819599410754975 -13.676136171775283 81 64 34 255
55.024624460471870 -2.263940440938413 -13.746076423573300 79 63 37 255
54.727969334841447 -1.471139127872505 -13.439655276797225 77 63 36 255
22.126286548028872 -22.493145279564487 24.210829559341562 165 161 114 255
23.685750110464994 -22.483011247503910 22.479361128959283 188 153 125 255
24.143023151917873 -21.983246786156499 21.953914360283591 195 154 132 255
24.462606870992630 -21.423944550427152 21.579247844784646 194 151 128 255
24.920184132790638 -20.931152477485284 21.053855063341729 193 148 125 255
25.653700294624940 -20.570867092437325 20.226973784338185 190 146 121 255
26.318500899281958 -20.184028849964335 19.475493610573750 188 144 119 255
27.121446946633171 -19.868012575550424 18.573275587783201 180 135 109 255
27.786705743804021 -19.492431730740577 17.821841633559444 178 132 107 255
27.969312849898614 -18.889299183792843 17.598110949430207 168 122 96 255
28.152009523715265 -18.287722954155228 17.374419200965605 162 115 89 255
28.334796363357441 -17.687697006585140 17.150767410564328 153 108 84 255
28.448664239767339 -17.055131643976836 17.002542107725645 142 101 73 255
28.424566762823162 -16.354854314342575 17.005133831349013 132 94 65 255
28.400505444437670 -15.654484217357918 17.007774736746882 124 89 59 255
28.652631515259458 -15.093597617771266 16.708911758456168 115 85 51 255
28.559634863746652 -14.358938276854744 16.787040042552519 108 79 48 255
28.880994903917724 -13.836248480579499 16.412878978089026 96 67 39 255
28.788093973773186 -13.101897431676306 16.491111754819883 89 66 35 255
28.971512746441135 -12.510794125813959 16.267830167779977 80 61 31 255
28.326021135604577 -11.486179002257742 16.949327041335266 69 54 25 255
28.164056313439403 -10.712191932986556 17.103135780568465 61 47 18 255
27.656585671435238 -9.753008077870589 17.633990497283122 53 43 14 255
27.494586343735335 -8.975187598851676 17.787934316423190 46 37 8 255
26.917870892486434 -7.972106697020550 18.394338208692858 37 31 4 255
25.442368311735521 -6.475630506592452 19.981027352483949 26 22 0 255
21.339255445645421 -3.528227878806803 24.433089652509267 16 14 0 255
17.373411599206037 -0.624898827260481 28.734567738550084 8 10 0 255
48.158171342815763 -13.935658572778522 -4.951111961411044 175 133 115 255
50.629199481033623 -14.753135719418921 -7.662518142293806 171 129 110 255
51.716518697277650 -14.783503763766788 -8.865682713397206 175 130 111 255
52.388796124766088 -14.578771652321052 -9.616334743199758 176 129 113 255
52.507395726149269 -14.052296854727928 -9.763611044556740 176 129 113 255
52.833817396460574 -13.650082380940717 -10.137081243697935 175 130 111 255
53.298885920420474 -13.333160307006992 -10.661338547573109 177 132 113 255
53.764126017095066 -13.019787826755930 -11.185547645102361 176 131 112 255
54.506630489725694 -12.877794169353066 -12.011404205194737 177 132 113 255
54.487275990323752 -12.276970534565621 -12.007541503713725 176 129 111 255
54.606552246885485 -11.760864274511491 -12.154459199504032 174 127 110 255
54.725913514509983 -11.245549096074825 -12.301308101064166 171 124 108 255
55.399825811480696 -11.075429375974366 -13.051537415680656 169 122 106 255
55.796695904475484 -10.737159331126819 -13.499993360701382 164 117 101 255
56.124396328793921 -10.358246035857960 -13.872957878468753 157 110 94 255
56.452235601899076 -9.981733589924630 -14.245861491565904 150 103 87 255
56.641528358430236 -9.519321040697164 -14.467825268254302 143 97 81 255
56.622871841754431 -8.924934910979701 -14.463395056062552 139 92 76 255
56.673629442658722 -8.374878197454066 -14.534323956029908 134 87 71 255
57.071301890686243 -8.049842759084910 -14.982398300401115 128 85 67 255
57.052869453342055 -7.456250788658153 -14.977726838629877 117 80 60 255
57.173264295841591 -6.953301137840015 -15.123866838560247 110 78 55 255
57.016173400388823 -6.267867540913144 -14.968118731080295 106 76 52 255
56.859106125992554 -5.580915301682126 -14.812270828682983 100 74 47 255
56.285597514521896 -4.614362114598819 -14.203582130963184 95 71 43 255
55.920271669522350 -3.782819400255136 -13.821138571956624 86 67 36 255
55.693777576551241 -3.041856816619713 -13.589498038078432 83 66 36 255
55.745038615201906 -2.487460952232965 -13.659600743635139 78 63 34 255
55.518600399487951 -1.743342398692960 -13.427744394739818 77 63 34 255
23.589494665748617 -22.224654485215538 23.647503913378188 187 156 126 255
24.251728515585995 -21.816848785488247 22.893811209549909 194 151 129 255
24.982935778983688 -21.446076189823387 22.064551048887580 193 148 125 255
25.576852529258133 -21.017374992131138 21.386491425010405 190 145 122 255
26.102196231751321 -20.561310056311214 20.784047407544421 189 144 121 255
26.490156052264467 -20.044600750102532 20.332814082604813 188 143 120 255
26.947053337399183 -19.563821056336863 19.806019896446060 182 138 113 255
27.610520349363668 -19.185786683717595 19.052476016348663 179 133 109 255
27.861341316534549 -18.613448716019377 18.752524715720682 173 127 103 255
28.249912408341089 -18.110298758536388 18.301420765666364 164 118 92 255
28.432140899739068 -17.508871354373852 18.077141047293708 157 110 86 255
28.476782522973338 -16.840811862869472 18.004097978678715 150 106 79 255
28.521479026692475 -16.173205904280763 17.931101974424791 141 101 72 255
28.772804542153011 -15.609933405012626 17.631356151004894 132 97 67 255
28.955374939768717 -15.013826364149779 17.407253860849124 124 91 58 255
28.931410230691483 -14.313724994876935 17.410002197048613 114 83 52 255
29.183027089863117 -13.755274057332727 17.110394197419538 104 76 46 255
29.296967952223014 -13.127444024035370 16.962039715649894 91 67 37 255
29.273178025475318 -12.428602392820963 16.964946511660372 84 64 33 255
28.698122920770601 -11.439590457277646 17.572758139417857 74 59 28 255
28.674342607465633 -10.738300020916739 17.575790513404343 67 54 22 255
28.305946794716164 -9.852875302196537 17.956924535286902 57 46 16 255
28.351147920176260 -9.186984887050897 17.884475202358686 50 41 12 255
27.706912088775567 -8.148079624388373 18.568193820389581 41 35 8 255
26.786720820538449 -6.953673240613639 19.554447561645588 32 28 3 255
23.176579185234203 -4.274639762758497 23.489719914795302 21 19 0 255
19.013721141408610 -1.261952769647763 28.030113985710813 9 13 0 255
49.288605979697564 -13.741663159646535 -5.293093501105631 167 129 110 255
51.892075283718128 -14.652430227591779 -8.163359847862154 172 126 110 255
52.286406184143345 -14.284437980856566 -8.613587816041644 174 128 112 255
52.197421213783201 -13.633358840379927 -8.534359495319308 173 126 110 255
52.522922198938602 -13.228352527084112 -8.908842793878023 173 129 110 255
53.193984344867516 -13.032899534429333 -9.661433749442693 175 132 113 255
53.934365781682857 -12.884321259729688 -10.489619631962199 177 132 113 255
54.744092954545494 -12.783431101824249 -11.393405369300865 178 133 114 255
54.862968443362604 -12.266439993105152 -11.540779394555614 177 130 112 255
55.258409439201387 -11.920286283834827 -11.990643124446137 175 128 110 255
55.377491394265348 -11.405976119321707 -12.137885323665984 172 125 109 255
56.326309319498648 -11.409126033847983 -13.192777302741860 171 124 108 255
56.583961406976357 -10.986313536942646 -13.491189806239618 167 120 104 255
56.703425882216379 -10.478154106590495 -13.638242707811344 160 113 97 255
56.615487872758905 -9.839118713062689 -13.558273938475423 153 106 90 255
56.873446911094334 -9.419946238509922 -13.856474413983648 143 97 81 255
57.200710025952503 -9.047035254436352 -14.230260239756035 139 92 76 255
57.389735673889390 -8.587099512099016 -14.452670472210599 133 86 70 255
57.509670717209332 -8.083458809260406 -14.599349059670061 126 85 67 255
57.352871306279582 -7.399530966713030 -14.443309070204037 119 82 63 255
57.403739465169821 -6.850679509811187 -14.514156691017433 110 78 55 255
57.593129011092088 -6.393568709185558 -14.736246391066487 108 78 54 255
57.505701325355659 -5.753389874542393 -14.655591190928192 104 77 50 255
57.072116007681444 -4.880477042909163 -14.196492823599499 99 75 47 255
56.430745101909622 -3.863935044054998 -13.510256392569403 91 72 40 255
56.135568939780086 -3.076482343608092 -13.202247922286205 86 67 35 255
55.978918575318261 -2.380708532706421 -13.045473190646504 82 67 38 255
56.237938419261098 -1.968075544440339 -13.342660587374155 77 63 34 255
23.495941234494637 -21.966247995222361 24.819002485260881 184 152 121 255
24.293538925063217 -21.619035933758667 23.911594362111913 194 151 130 255
25.297146485010643 -21.373252863557056 22.776802793321735 193 149 129 255
26.095287047543962 -21.039770674280106 21.869431240549545 191 147 125 255
26.413463654362459 -20.487362351513653 21.492698412559065 189 144 122 255
26.663154113224863 -19.905145236996987 21.191802515287634 188 142 120 255
27.050196510223486 -19.390515745387830 20.739334050180020 184 138 116 255
27.780541585777684 -19.044117188006609 19.907872649059613 179 134 110 255
28.099283208160472 -18.503932756370006 19.531273765089111 174 128 104 255
28.624103363583288 -18.067033418349070 18.927290514293389 168 122 98 255
28.874471225890687 -17.499106249555325 18.626572162478936 162 116 92 255
28.987612633744106 -16.865079397538992 18.477513062946343 158 114 88 255
28.963472286569100 -16.163322286775738 18.480120255376221 145 105 76 255
29.282806081653263 -15.634632450366183 18.103722866178856 138 101 72 255
29.396181444648420 -15.003837522686581 17.954804138799318 131 97 66 255
29.372221325882833 -14.303667840148620 17.957561342405796 119 87 58 255
29.417016155059912 -13.638826953319580 17.884559045944883 110 81 51 255
29.599318736199223 -13.045836767794313 17.659979717434140 98 72 42 255
29.781718000293239 -12.454341789754878 17.435450991379980 90 69 38 255
29.551757996386868 -11.646785603400076 17.665880514538969 76 60 30 255
29.390537586164612 -10.873986718038665 17.820558003920013 68 53 22 255
29.160562957997598 -10.063149406166744 18.051121650733677 60 49 19 255
28.861807517809694 -9.213451810322027 18.357576590581857 53 44 15 255
28.287906539585322 -8.212042321710840 18.967395967828168 44 38 11 255
27.507540109481454 -7.093270071363861 19.804772836441828 36 32 7 255
25.213472462959089 -5.134850560344930 22.310399534522048 24 22 1 255
20.923458481196008 -2.051751259248775 27.015151560570075 10 15 0 255
50.484453594348167 -13.593643929038237 -5.715476408326992 166 135 116 255
52.324188930215541 -14.071213277102984 -7.759540127092123 169 131 112 255
52.510937395580811 -13.582186767938111 -7.983426505349826 168 123 107 255
52.904503914858196 -13.217989266460492 -8.434779260491723 166 124 104 255
53.573882716971980 -13.022489866012492 -9.189457267015541 168 125 106 255
54.450256920476590 -12.957260062039708 -10.171634036261054 171 128 109 255
55.395842142044984 -12.940814193017644 -11.229628715218468 176 131 112 255
55.307615723761018 -12.298103920211418 -11.149847343606922 177 130 112 255
55.633119006826178 -11.909639660245816 -11.525095491022313 176 129 111 255
55.889803661422889 -11.480815723607904 -11.824429694172096 174 127 111 255
56.767311134628443 -11.441419161269422 -12.806398853810890 174 127 111 255
56.817392819416000 -10.888792751355965 -12.878047378817058 173 126 110 255
57.005513682212552 -10.423601069997673 -13.101336620625716 166 119 103 255
56.986762783343096 -9.828064228336814 -13.096970143114021 155 108 92 255
57.382074641406604 -9.497119123839724 -13.547699963145845 148 102 86 255
57.777545271049490 -9.169105230301469 -13.998368765823813 139 92 76 255
57.897101383595839 -8.665192844098300 -14.145505037208778 130 83 67 255
57.740640988780683 -7.982079395687919 -13.989082088744738 126 84 67 255
57.377098141470981 -7.161712963192784 -13.604944324720350 119 82 63 255
57.496836287772027 -6.656906836446026 -13.751813195648850 113 81 58 255
57.685719956833054 -6.198594786123536 -13.974474992636999 109 79 55 255
58.150957166208315 -5.925834485970384 -14.500572445863355 102 75 48 255
57.649405041242005 -5.007513983673107 -13.964268663070101 100 74 47 255
57.285952289011533 -4.178153376266366 -13.579601670668637 95 73 42 255
56.784307080824476 -3.251761296981897 -13.043038819697784 83 64 33 255
56.766267686545262 -2.651321531809202 -13.037561751041409 80 65 36 255
56.679190275778012 -2.002938819421900 -12.956091089162584 76 62 33 255
23.336695079753667 -21.676671920597215 26.069868071165331 172 152 115 255
24.679391873674945 -21.578128842365246 24.551828413005609 189 146 125 255
25.406774017966768 -21.205440626668576 23.717909783901234 190 148 126 255
26.544934394393209 -21.030246102835576 22.427932376284986 188 146 124 255
26.793823792347524 -20.445601848427899 22.126154920366702 188 142 124 255
26.905937380920790 -19.798131685602002 21.976444081378389 186 139 120 255
27.086573571081288 -19.184431152612234 21.750757735727376 183 136 116 255
27.746525822234219 -18.803379411293832 20.992991705197710 182 135 115 255
28.406700545532715 -18.427674055143285 20.235253665133484 176 130 107 255
28.930139112753466 -17.990202623022853 19.629582270065811 170 124 101 255
29.179808158785733 -17.421687053114582 19.328023921724906 165 121 96 255
29.429588836370925 -16.855252655144014 19.026507534558021 156 114 90 255
29.610974264489641 -16.256527581901310 18.801056074416664 149 108 83 255
29.860970683451114 -15.693966207067447 18.499627701446826 141 101 76 255
29.974028412819564 -15.063652587753481 18.350292420651868 132 94 71 255
29.744486477350819 -14.258420318307728 18.581132959459609 124 89 64 255
29.720563356282298 -13.557791988226128 18.583957366446867 117 84 59 255
30.039450693331077 -13.035639119629039 18.206702502011552 110 80 54 255
30.152783347414527 -12.408090498561876 18.057580110461146 98 71 44 255
29.991906802272212 -11.636437498870450 18.212631192706624 89 65 37 255
29.899618572982263 -10.900086237071875 18.291717222862331 78 57 29 255
29.738765888164551 -10.126233097507466 18.446900024629258 67 51 25 255
29.372122673256087 -9.239904564206768 18.830251147825209 58 46 19 255
28.730998766865952 -8.201303128095887 19.517817888058318 47 40 13 255
28.089757766815069 -7.157637275122354 20.205474337604443 38 34 7 255
26.350367798319581 -5.502655646144675 22.109815735804773 27 27 1 255
22.620124510577256 -2.727212388662011 26.219407663541830 15 17 0 255
19.987276455780545 -0.537157663298331 29.112582436978812 2 8 0 255
52.206272896658049 -13.163026644466385 -6.747574369449552 165 127 108 255
53.079892996799344 -13.084119824739005 -7.732534530166589 168 127 107 255
53.953793407072425 -13.012036347115966 -8.717463461615949 165 123 104 255
54.690469361102203 -12.863371602233613 -9.550244220551832 168 125 106 255
55.427390171262317 -12.720429962164658 -10.382986691366625 172 127 108 255
55.201777978071306 -11.991758465237837 -10.150822045690717 175 128 110 255
55.801508928617693 -11.771384040778059 -10.831333887885563 174 127 110 255
56.332662787964011 -11.512829893953963 -11.435733182535841 176 129 113 255
56.864009551868406 -11.258336244077825 -12.040081506334417 175 128 112 255
56.982721561229681 -10.747856254211626 -12.187960601361766 170 123 107 255
57.032709866730016 -10.194524689283526 -12.259692294205848 164 117 101 255
57.426880507094836 -9.860838294552323 -12.711711263413946 154 107 91 255
57.545888746213251 -9.353440966421900 -12.859365769881578 148 101 86 255
58.078022381688811 -9.113397757267208 -13.463408135315291 142 94 80 255
58.059569848659976 -8.519687735299343 -13.458756135719540 132 85 71 255
57.972319555962287 -7.880611622722952 -13.377931948647415 126 84 68 255
57.403059645610483 -6.923771997367623 -12.764420968147448 119 82 64 255
57.522454225886491 -6.417483996219730 -12.911647467868193 111 79 56 255
57.848587561895982 -6.049314236278832 -13.287055502317202 107 77 53 255
58.174866419260354 -5.683473345005837 -13.662391010191499 101 74 47 255
58.156800364502942 -5.088144736508141 -13.657184233831146 99 73 46 255
57.794264736541152 -4.259182726129225 -13.271397493359387 97 74 43 255
57.638454151354154 -3.567743316257506 -13.113781663710910 86 65 35 255
57.482675121628859 -2.874728410685762 -12.956053553211774 79 64 33 255
57.395859967107640 -2.227590898747778 -12.874315192620145 79 66 34 255
25.065561054223281 -21.537217525495237 25.192455136713164 184 145 118 255
25.722812646655342 -21.132583113950133 24.432431756977167 186 144 120 255
26.721548545302113 -20.892988338145827 23.291306757184458 186 143 119 255
26.833193020419941 -20.242813433654533 23.141139224083872 186 139 120 255
27.286266172260753 -19.756044050579618 22.609876866619089 184 137 119 255
27.398100794871937 -19.109280905944829 22.459786989831258 182 135 115 255
28.329491171960910 -18.859729216963288 21.394993250103653 182 135 115 255
28.714782596270680 -18.351395525324776 20.940059463804118 177 131 108 255
29.305149626866694 -17.946907965283586 20.256470537064843 172 126 103 255
29.485811911644362 -17.344245417913015 20.030304315239562 166 122 97 255
29.871550852816341 -16.845417300374592 19.575484799335555 156 114 90 255
29.915755197596866 -16.177898292884962 19.501873939349650 150 109 84 255
30.165056087512596 -15.614742764368714 19.199609916617959 144 104 79 255
30.209404556588851 -14.948914539903072 19.126099462252654 137 99 76 255
30.117082626780302 -14.213151131833840 19.205116384834042 129 94 69 255
30.161531747145631 -13.547632251460797 19.131716492821567 121 87 62 255
30.342808147341572 -12.953976636796412 18.905894448990040 111 81 55 255
30.524182867974105 -12.361813186246309 18.680125181140141 101 74 47 255
30.637254856535264 -11.734868692611130 18.530651239600189 92 68 40 255
30.476764584140312 -10.962710262993937 18.686205183005143 82 61 32 255
30.179442860873849 -10.115693156296757 18.994315115697617 71 55 28 255
29.676806536377143 -9.155101431504349 19.531235060966196 64 50 23 255
29.242527734193175 -8.227889450991469 19.991992713242411 54 45 17 255
28.808187556176932 -7.297239185707497 20.452833759222045 43 39 12 255
27.483852513171371 -5.870515376265317 21.904996466426354 33 32 4 255
24.858376511887968 -3.708121294592758 24.806037020885157 21 23 1 255
21.547517248958087 -1.140496834570698 28.469771675380542 6 9 0 255
51.356591365027441 -12.416638333328663 -4.897342983136440 163 139 119 255
52.982062252052202 -12.785541140025302 -6.723932159898055 166 129 110 255
53.990853143676816 -12.794376913700802 -7.864107291048157 162 123 104 255
54.519888941103915 -12.519187240687756 -8.470363281978592 168 126 109 255
55.117708269381353 -12.290059184751058 -9.152841398543728 170 124 108 255
55.441341882828311 -11.896550444789568 -9.530175890884266 171 124 108 255
56.039548049113961 -11.675571371913506 -10.212552087734110 170 124 107 255
56.912431508954114 -11.630395813734708 -11.199991931096719 171 125 109 255
57.099343319260811 -11.161300840258335 -11.424600584719514 168 123 104 255
57.354996401478161 -10.736867691697540 -11.725418848705829 167 122 103 255
57.404847202189671 -10.183433447482528 -11.797316434042841 164 116 101 255
58.209933945422819 -10.113026890601120 -12.708276141675384 157 109 94 255
58.397347102686524 -9.651341462434615 -12.932606441475798 149 102 87 255
58.584869576429298 -9.190939910439894 -13.156860651619155 143 94 79 255
58.360441688254411 -8.463516407963496 -12.923284078503428 131 85 69 255
58.273392722591723 -7.824044400615762 -12.842191650551882 126 84 67 255
58.048999880924924 -7.093097876005061 -12.608408081003347 119 82 63 255
58.236830065528153 -6.633341978890968 -12.832310354197205 111 79 56 255
58.287351739863453 -6.083189798999314 -12.903527633064840 107 77 52 255
58.750266009056702 -5.809712077262617 -13.432474801738437 101 74 47 255
58.800997462780799 -5.261452756563187 -13.503519568349276 98 72 45 255
58.714338678059846 -4.620011552128886 -13.421851496735172 97 74 43 255
58.352753110929939 -3.789882399220971 -13.034831466025139 90 69 39 255
57.991150815013611 -2.956519408190175 -12.647682118158087 82 66 35 255
57.698293353040015 -2.167379341544901 -12.336717590850469 80 66 35 255
25.588173431922627 -21.559092246360976 25.680604287490013 176 148 113 255
26.039510007752483 -21.059711417652323 25.147771943710012 185 144 116 255
26.695258086443260 -20.659889471456779 24.385659205200142 187 142 118 255
26.874587159731959 -20.039979404395396 24.158638770113924 185 138 120 255
27.666915927851477 -19.713945955836834 23.243708487292793 184 137 118 255
27.914622176816437 -19.132358474349957 22.940320758566429 183 136 116 255
28.434918268118565 -18.684951139367371 22.331210339850287 179 132 112 255
28.819142442962828 -18.175224588744356 21.875016627244094 175 129 106 255
29.407931471492475 -17.769353951347469 21.189533423158792 169 123 100 255
29.519891703395587 -17.131452613561464 21.039188172621124 164 120 95 255
29.904556363374837 -16.630956434400858 20.583112775195701 163 118 95 255
30.153039130136790 -16.064868748061727 20.279969455193140 153 111 87 255
30.401636267040203 -15.500846805776362 19.976872211231068 147 107 82 255
30.377608286728417 -14.799223881643769 19.979612635148925 142 101 79 255
30.490010385359881 -14.167858507121636 19.829512459388781 134 98 74 255
30.602491774179924 -13.537455494616339 19.679466028700318 122 88 63 255
30.851478679780030 -12.979464085865970 19.376572656949747 113 82 56 255
30.623029339908612 -12.171511424018533 19.608895471294147 105 77 50 255
30.599262932959903 -11.470599695075492 19.611927529067259 93 67 40 255
30.643782335078441 -10.806078644835353 19.538568555680371 88 64 36 255
30.551867339264447 -10.068316060633151 19.618183305503436 75 57 29 255
30.118687949015964 -9.144424025119889 20.080151366845399 67 52 23 255
29.617179262545477 -8.179745409293702 20.618660496836810 59 49 20 255
29.183868864898443 -7.248710370651793 21.080797464287883 48 42 14 255
28.477355499588157 -6.162631190310520 21.848864447420368 39 35 7 255
26.882876472767492 -4.574707507125936 23.611039368929340 25 25 4 255
24.263472377367862 -2.397448428056222 26.520305660163331 13 15 0 255
52.045971621852686 -11.374955332435064 -4.790666717846563 162 134 110 255
