ply
format ascii 1.0
element vertex 663
property float x
property float y
property float z
property uchar red
property uchar green
property uchar blue
property uchar alpha
end_header
21.041271067200242 -16.632119036917771 -10.685493578853908 114 91 60 255
21.269059984846834 -15.737230405864722 -10.248630634111350 107 90 58 255
21.541790666903324 -14.806539928050782 -9.722673293051628 105 90 57 255
21.769623878534631 -13.906047301836665 -9.285886739502473 102 87 54 255
22.042402115164606 -12.969203825185872 -8.760012792449885 98 83 50 255
22.045661402830845 -12.232821305520773 -8.768908958748767 92 77 46 255
22.498183820556051 -11.154288799494879 -7.886631879951608 81 66 37 255
22.771036218297823 -10.208313859131550 -7.360883294466873 76 56 32 255
23.043915075176642 -9.259104758514553 -6.835179195265283 53 36 10 255
22.687817390711857 -8.797018754330608 -7.557031997978612 102 84 59 255
22.556363264712047 -8.162763969651408 -7.833314580962139 112 90 66 255
22.469846274522880 -7.494549568735295 -8.020482083580788 112 90 66 255
22.473202945334322 -6.755724842085655 -8.029446353458553 109 91 62 255
22.251905042685109 -6.197401655551786 -8.483891708543524 105 90 59 255
21.895804335754462 -5.750871619557941 -9.205585931643185 95 80 49 255
21.764379522580256 -5.125397625250415 -9.481792832073609 87 72 43 255
21.992461915501224 -4.206180733819437 -9.045306633357598 85 68 40 255
22.130695025627972 -3.358584921924319 -8.787024320377924 83 66 38 255
22.313891662943789 -2.471858771471460 -8.439690956916536 81 66 40 255
22.362291233156114 -1.696084320748639 -8.359617524399226 69 59 34 255
22.365767772346942 -0.957694986824222 -8.368630837702199 50 40 18 255
23.609428806020503 -26.378328628984150 -7.023778690835570 181 165 134 255
22.799806046095966 -26.153793793855328 -8.635961753404672 197 164 139 255
22.125602661134053 -25.851827981125211 -9.980823534495926 200 160 138 255
21.857746854621013 -25.293869401084308 -10.524000900847852 193 151 129 255
21.409266199305421 -24.857735763742369 -11.423389523413306 188 146 124 255
21.141389247271519 -24.307508860991888 -11.966479313919450 184 145 120 255
20.873504483247885 -23.760601475465478 -12.509532069358102 180 140 115 255
20.741084717186297 -23.125705683580307 -12.785390593917640 175 133 109 255
20.744140523809151 -22.400387015808718 -12.794084208825183 168 128 103 255
20.702043446802818 -21.706110049792926 -12.891826204251771 155 120 93 255
20.840594999885127 -20.887457613493211 -12.633393325988578 142 112 84 255
20.888836962375947 -20.130273810880169 -12.553061717892604 136 106 80 255
21.208068508243571 -19.181897894485758 -11.938522004254224 128 99 73 255
21.527324620580046 -18.229794025527838 -11.324030924047747 119 92 65 255
21.801440247089459 -17.306282685739376 -10.798618507031591 113 89 61 255
22.030412379710413 -16.412169481720511 -10.362275269367785 107 83 55 255
22.169070160805447 -15.581123957487307 -10.104015016808660 100 83 53 255
22.443252055727399 -14.649090640666444 -9.578718281955304 97 82 49 255
22.627118181553357 -13.780655657133224 -9.231498536590152 91 76 43 255
22.901347352933371 -12.842738384091746 -8.706282352394652 86 71 38 255
22.949739444087726 -12.071319982495979 -8.626161556498516 83 68 38 255
23.585403895436500 -10.854601325057885 -7.388960897028255 76 61 32 255
23.814539813132100 -9.940685361469747 -6.952890840582029 68 48 24 255
24.088876472024978 -8.989321350617956 -6.427858493419023 51 33 9 255
23.685581490234512 -8.560061007368773 -7.237830129061450 95 77 51 255
23.643706380782191 -7.853307862865051 -7.335797193318086 111 89 64 255
23.285585087744849 -7.396019063504767 -8.056699268156848 111 90 63 255
23.153363365505641 -6.763866265129607 -8.332618367125775 107 90 61 255
22.750056505110507 -6.349921156460852 -9.142429907798970 100 85 54 255
22.572659604158588 -5.758941573994960 -9.507285042537433 95 80 49 255
22.440453106007482 -5.133441677971177 -9.783143685029358 87 70 42 255
22.669741686148697 -4.214222091552656 -9.347195300601527 83 66 38 255
22.718311008624013 -3.440980928397522 -9.267171948106835 80 63 35 255
22.857276376556570 -2.592239845608802 -9.009227693247112 81 66 37 255
22.996266693254952 -1.741815896226782 -8.751311571552435 75 63 36 255
23.090091668019653 -0.927693834577454 -8.582385108398142 60 52 26 255
23.570476262446647 -26.104634167566076 -8.761079636093342 194 159 130 255
22.847089316897893 -25.831156186064050 -10.193218505315684 197 159 135 255
22.713895070849290 -25.184848970466078 -10.468847063552460 193 150 131 255
22.353685099104922 -24.688354340703029 -11.189214159437768 191 146 125 255
22.175079111093609 -24.076698080958280 -11.553739203832635 185 144 120 255
21.905660127697089 -23.527603714707737 -12.096130021700816 183 141 117 255
21.863265444404547 -22.829666968826245 -12.193776318516456 173 131 107 255
21.866282798773184 -22.101639404204661 -12.202480169404680 164 124 99 255
21.778490531395761 -21.435621904532212 -12.389056875536681 151 117 90 255
21.872339886874670 -20.645781040603595 -12.219895860368183 138 107 79 255
21.829969707392465 -19.949453937853548 -12.317536812903995 129 102 73 255
22.150900667772817 -18.999469645039781 -11.703771051841358 117 90 61 255
22.471856464755916 -18.045757048067628 -11.090054048205417 105 80 50 255
22.929079972712145 -16.991348169256824 -10.209629153842229 99 76 45 255
23.113844526404762 -16.127131044413986 -9.862767346827326 95 72 41 255
23.162379294257747 -15.359376078427744 -9.782673136146201 92 71 42 255
23.210927101043126 -14.591114599283372 -9.702589858549061 91 71 42 255
23.259488388049391 -13.822341859711301 -9.622517758770414 90 70 43 255
23.489743100993849 -12.918370137187381 -9.186846013582084 87 68 40 255
23.856284593182124 -11.909896859377227 -8.484513341209208 82 65 38 255
24.495390479960648 -10.691857212585319 -7.248860421816374 74 57 31 255
24.725731773024933 -9.776592531824079 -6.813341422614570 69 52 26 255
25.046947428917164 -8.789132254579584 -6.200081383746038 54 38 12 255
24.868510539580711 -8.183110702723042 -6.564624869135343 50 37 10 255
24.962640133738319 -7.367501103300199 -6.395849257973623 83 78 45 255
24.466223954368431 -7.013072920855365 -7.382533517132231 100 87 54 255
24.060655414391960 -6.592902712517358 -8.191399592296165 102 85 55 255
23.518789448951310 -6.285862190823977 -9.266834639071732 95 75 48 255
23.249500960749060 -5.767051742894139 -9.808977544283920 98 78 51 255
23.207379130730999 -5.068246774499627 -9.906754270212872 96 76 49 255
23.437876786626873 -4.148483756453786 -9.471350453444899 88 67 40 255
23.622968783694219 -3.263150074389785 -9.124848075067121 83 62 35 255
23.717215366951336 -2.450497586724083 -8.956094735295721 83 65 38 255
23.766047502142072 -1.674420363631754 -8.876217225187048 79 65 39 255
23.814901069378422 -0.897732654223006 -8.796355441200092 68 55 29 255
24.570356364336760 -25.911506311813227 -8.442378190857937 192 156 128 255
23.934242627403179 -25.577924800761068 -9.695048199874037 194 155 131 255
23.800260176301805 -24.929169647300242 -9.970350073893002 194 150 131 255
23.666276893995615 -24.282120682847136 -10.245634331999668 192 147 126 255
23.304029326795600 -23.786215586311485 -10.965086992921925 187 145 121 255
22.896116902596788 -23.324868584842037 -11.773324225475562 180 138 114 255
22.716466471936542 -22.716315015496903 -12.137352237316946 166 124 100 255
22.673782768416316 -22.017896791534639 -12.234874538975163 156 116 91 255
22.722418947401664 -21.258148162594949 -12.154744619068481 138 103 77 255
22.771065516307942 -20.497922188541779 -12.074624156349188 126 96 68 255
22.911041684601443 -19.674198014165000 -11.816877715407259 114 87 59 255
23.324996568857358 -18.658238205574833 -11.026266442080242 104 77 49 255
23.601996198283757 -17.733615093842843 -10.502151115272369 97 71 42 255
24.016007441288025 -16.708844451225062 -9.711654025438179 93 70 40 255
24.019074603337032 -15.972551093167496 -9.720463629979037 92 69 39 255
23.976487682166578 -15.269153321766339 -9.818079413528636 90 69 40 255
23.888243729588481 -14.599456087186610 -10.004491925578606 89 68 39 255
23.891341547946922 -13.864070750826940 -10.013306020616653 88 68 41 255
24.168462009534068 -12.926702564063646 -9.489373388586188 87 67 40 255
24.491278472161014 -11.952176774538799 -8.876696345250849 82 65 38 255
25.088148414612135 -10.768642008735370 -7.731357340162134 75 58 32 255
25.411030986944937 -9.784962352936049 -7.118802295052717 67 51 26 255
26.053655126657304 -8.554278033589270 -5.884845819545774 56 43 17 255
26.376607402174784 -7.561153266207498 -5.272417318603544 30 31 2 255
25.560958715516307 -6.701348902627231 -6.888334669316862 72 71 35 255
25.107448902678186 -6.314531617667598 -7.784982541381140 91 76 47 255
24.516895266900008 -6.041374325716220 -8.947861238422917 94 74 47 255
24.337448510830569 -5.447905815917963 -9.311827587697366 109 89 62 255
24.112328338485156 -4.893194195140069 -9.764532253058462 101 80 53 255
24.206991593754267 -4.082795062926706 -9.595941913630298 91 70 43 255
24.255994405240330 -3.308441233422954 -9.516123081538069 87 63 37 255
24.396388475511444 -2.458598262135368 -9.258826960999642 86 68 41 255
24.445436999869003 -1.682503022730600 -9.179046111621659 83 68 42 255
24.448820533835658 -0.943782656013539 -9.188021303807432 72 57 32 255
25.757280114283006 -25.603261393807330 -7.770259556229121 186 153 122 255
25.347134401993046 -25.121283342084993 -8.577709590036250 192 151 128 255
24.799276931456973 -24.732292182146878 -9.651301598644466 195 149 131 255
24.526802524380471 -24.172180050794339 -10.192441496508707 194 148 127 255
23.978912528336778 -23.794701840667813 -11.265902636193147 187 145 121 255
23.844127047399809 -23.152386701816084 -11.540781381236968 178 136 112 255
23.525727662420721 -22.633467170162305 -12.170522815710996 165 120 97 255
23.482749489702556 -21.934226270327542 -12.267922141408434 151 109 85 255
23.577494891515613 -21.142695441927785 -12.099177716119243 138 101 75 255
23.809974106964830 -20.256440732932418 -11.664318706202693 124 92 65 255
23.904749221550091 -19.462060639209156 -11.495616327525340 112 85 58 255
23.953629143149328 -18.698430341948949 -11.415634315957817 99 72 45 255
24.140251978086098 -17.838174526340637 -11.069560997741831 96 70 43 255
24.556450798250225 -16.814229258731473 -10.280030912075546 94 70 42 255
24.789030746946651 -15.915807452258264 -9.845339793783580 93 69 41 255
24.929806172303671 -15.080433684247367 -9.588067455545911 91 70 41 255
24.749197565492636 -14.475347047691571 -9.951633215776440 90 69 40 255
24.798171394683806 -13.705473355784207 -9.871756178711308 88 68 41 255
25.076744960165016 -12.766759652044811 -9.348485023083185 87 67 40 255
25.447181571554097 -11.756956446568140 -8.647902459229329 83 66 39 255
25.863569433307362 -10.708643884917350 -7.858702951630022 77 60 34 255
26.188151614309092 -9.724429688846129 -7.246911091858095 70 54 29 255
26.971979488750620 -8.388999571735823 -5.748488417005575 55 44 16 255
27.394946786331388 -5.820864673140903 -4.977584008953642 46 54 22 255
26.112274076904512 -6.072073541256628 -7.468984496849401 35 17 0 255
25.518462484958093 -5.796968803381844 -8.630430295057778 84 63 36 255
25.246137442129694 -5.274305882117531 -9.171258269944076 98 76 50 255
25.065675885568211 -4.681576635198056 -9.534764691184392 101 78 51 255
25.068947087011267 -3.943349503815497 -9.543684813746523 94 70 44 255
25.072237688833141 -3.205070845161330 -9.552614106916025 90 66 40 255
25.167414741915223 -2.391848305866731 -9.384281385454557 87 67 40 255
25.308551589308365 -1.539768228264947 -9.127339048879037 83 67 42 255
25.265973925841436 -0.837928152515701 -9.224943215624251 69 57 31 255
26.672771061296231 -25.467950093457233 -7.632335962429437 183 161 126 255
26.168045513178413 -25.042728321245065 -8.616030977699410 193 153 129 255
25.755599135707129 -24.564855984959195 -9.422413745228340 200 154 133 255
25.435438635695689 -24.032707759812965 -10.051503683274461 198 152 131 255
24.792218244727906 -23.713596570253827 -11.300858881800906 189 147 123 255
24.564337521755931 -23.130756917941966 -11.752617040484466 179 136 112 255
24.290301494924307 -22.581113724724034 -12.292954864362258 167 122 99 255
24.339335096564326 -21.819935269543222 -12.213016590114904 148 106 82 255
24.480688507891173 -20.996358015043867 -11.955882717664537 137 100 74 255
24.529746226467083 -20.233687125133585 -11.875970280914032 124 92 65 255
24.578815662239052 -19.470534212573611 -11.796067940404043 110 83 56 255
24.627897302175768 -18.706895224420137 -11.716175954218102 105 78 51 255
24.769309313148284 -17.878681715401740 -11.459115069797292 97 71 44 255
25.095378557298815 -16.919645711517916 -10.847731738877485 96 72 44 255
25.375313569127314 -15.989453860340461 -10.324981459003567 92 68 40 255
25.701435865168094 -15.023207832682061 -9.713694656993141 88 67 38 255
25.704443637509414 -14.285067614803907 -9.722496449360335 89 68 39 255
25.753628805941744 -13.513562911068178 -9.642730124841165 87 66 39 255
25.895160623280830 -12.674217689671750 -9.385835170769184 85 65 38 255
26.082879756823885 -11.799339138545278 -9.040398444363149 80 63 36 255
26.409125438161396 -10.819710122383697 -8.429301923177320 74 57 31 255
26.920077156647437 -9.698425626166724 -7.464014209537595 71 54 26 255
27.985108443778785 -8.154314500403970 -5.436114105811328 55 48 14 255
28.317870192593233 -5.651584820326022 -4.843317566654719 25 29 7 255
26.843512318930792 -6.044621128046487 -7.685795816065024 46 26 1 255
26.200260571990299 -5.805277291710738 -8.934330785390358 77 53 27 255
26.064940150676705 -5.173495159112122 -9.208864561094771 97 73 47 255
25.929632013209613 -4.543292998112207 -9.483387844067636 100 76 50 255
25.886695018113429 -3.840864619375253 -9.580837746556057 97 71 46 255
25.751415246728868 -3.213263909084731 -9.855347382570159 91 65 40 255
25.847057108501900 -2.400024732168774 -9.687222067494844 85 65 38 255
26.081273597281125 -1.472510602645343 -9.253554662899802 79 63 38 255
25.992236194608935 -0.808083726281794 -9.439560139477436 67 56 29 255
26.758438399239253 -25.109589610628035 -9.097573724404782 194 158 132 255
26.297303346155459 -24.661559628348684 -9.991440537162703 201 157 136 255
26.068144197717686 -24.070973857285296 -10.442706994802080 200 154 134 255
25.514188741933935 -23.692321870984216 -11.513475670585166 191 147 124 255
25.192216239663878 -23.169484779038754 -12.141663602365242 181 136 113 255
25.148643826749776 -22.467987789504846 -12.238820785333132 168 123 100 255
25.337088621870819 -21.613654752501603 -11.893499936354800 150 108 84 255
25.479147673768594 -20.788185922291220 -11.636699797822757 140 102 76 255
25.482009852150640 -20.054845897040579 -11.645388158129151 125 93 66 255
25.484882093747260 -19.321563459185782 -11.654080423125578 111 83 59 255
25.580577637230903 -18.524796370838388 -11.485812550700899 109 81 57 255
25.676288505550573 -17.726998718745932 -11.317561927390216 103 77 52 255
25.772015228441674 -16.928166262451768 -11.149328832240286 97 73 47 255
25.960577499175344 -16.063136933774928 -10.804168473410783 92 68 42 255
26.241982329237715 -15.130286826926906 -10.282100390658002 88 67 38 255
26.430589824212547 -14.260466648435127 -9.937008618912643 89 68 39 255
26.572806890748183 -13.421902544573229 -9.680411292861123 87 66 39 255
26.715044756015658 -12.581740914393833 -9.423839387075503 83 63 36 255
26.810888970201873 -11.773905055362448 -9.255749678183150 78 61 33 255
27.046001312748885 -10.862406891829480 -8.822319814829967 72 55 29 255
27.466809585852189 -9.810344410396183 -8.035129081028288 70 53 27 255
28.676766441205615 -8.162881676569512 -5.744408091794980 49 51 14 255
28.871884651081501 -5.766756894439652 -5.417646299431937 28 19 0 255
27.389537567057587 -6.160484500785557 -8.256555515954346 61 38 13 255
26.696344955743072 -5.957973902077285 -9.591945572958565 83 57 32 255
26.374538950607246 -5.472669303780222 -10.219828378789344 102 76 51 255
26.424147715735941 -4.698087108068506 -10.140282023599610 104 78 53 255
26.427352020084157 -3.959815860144232 -10.149172765530039 101 74 49 255
26.477006324691118 -3.184325053795817 -10.069655898223203 91 64 39 255
26.573114756595075 -2.370798223011903 -9.901741514182504 83 62 35 255
26.808543675416999 -1.443004792697124 -9.468617503076473 77 61 36 255
26.811846186566399 -0.702323166450626 -9.477576394110258 62 53 26 255
27.394448026328632 -25.147428061478934 -9.490254499002361 194 162 131 255
27.164002711705677 -24.552951344059181 -9.940986838169295 204 159 136 255
26.933554278648586 -23.961260135898073 -10.391689632411726 201 156 134 255
26.283273513109279 -23.641231311377922 -11.637906188318880 190 148 124 255
25.912864728305692 -23.147967675368079 -12.353693414444393 181 136 113 255
25.962296141878625 -22.385355484180778 -12.273946998936765 168 123 100 255
26.198341874636043 -21.499528299076800 -11.840673824625867 153 111 87 255
26.294451870177141 -20.703933446576684 -11.672578890183871 140 104 78 255
26.250617367757002 -20.000997459695597 -11.769633763376532 126 94 68 255
26.346753123474628 -19.204170798373667 -11.601562764804072 115 87 63 255
26.536214071415216 -18.342785428449687 -11.256766256191440 111 83 59 255
26.632382959836377 -17.543360904562050 -11.088736287976559 105 79 54 255
26.635254049338243 -16.807512696189775 -11.097453972841720 99 75 49 255
26.638137819521702 -16.071704541346406 -11.106176906636648 94 70 44 255
26.781012395260319 -15.237395005780598 -10.849829732613586 88 67 38 255
27.017227658304336 -14.335265840855243 -10.416796916914649 89 68 39 255
27.253467957900270 -13.430463819501369 -9.983802279847964 87 66 39 255
27.443071502700477 -12.556639434129352 -9.639195076457952 83 63 36 255
27.679362673217327 -11.646747043400424 -9.206274571482652 78 61 33 255
27.915680770484499 -10.734166963120586 -8.773393237823768 72 55 29 255
28.478686244708655 -9.577639643947961 -7.722176408843950 64 49 23 255
29.648403627183541 -7.963083833549064 -5.522675626104416 32 41 4 255
29.284378559068983 -5.988584792883287 -6.256280671413549 37 23 0 255
28.214081158376132 -6.061483467307198 -8.296703128586756 66 41 18 255
27.610475746118567 -5.785926960455640 -9.453786849440775 85 59 34 255
27.146881899711218 -5.408291281746187 -10.345845881141969 104 77 52 255
27.056683750883479 -4.743021336836449 -10.531342352208640 105 77 53 255
27.106530198254376 -3.968102487810270 -10.451905372041921 101 73 49 255
27.296432289050145 -3.081098762901760 -10.107564487722158 89 61 37 255
27.439688421721343 -2.229309336817352 -9.851564111619410 79 58 31 255
27.582975121796636 -1.375833362356630 -9.595594411004726 73 56 31 255
27.492890172568110 -0.710533576706240 -9.781141654523594 56 47 20 255
28.451967108116747 -24.923757279286562 -9.088066645641106 185 168 128 255
28.079553063760301 -24.415090566129393 -9.803115499382130 202 160 134 255
27.754025895640893 -23.881227837693956 -10.429830000088714 202 157 134 255
27.194010329297342 -23.500589114869328 -11.497916813940748 193 151 129 255
26.821568901968860 -23.005939082589236 -12.212811785119442 183 138 117 255
26.777409537028944 -22.302794209571829 -12.309723927392440 169 127 105 255
26.873956004961343 -21.508209643634714 -12.141813385756905 155 114 92 255
26.876715479195425 -20.774514819798895 -12.150459540825608 143 107 83 255
26.926386951606347 -20.009657803939618 -12.070842846814486 131 97 72 255
27.069876571453051 -19.181331839013467 -11.814709415559150 124 91 66 255
27.354094627848383 -18.256150272578864 -11.293818119726382 116 85 59 255
27.497623391678701 -17.423875476167495 -11.037742053925143 109 80 53 255
27.500454162728460 -16.686932868712674 -11.046452824169279 103 77 50 255
27.409484840645675 -16.015174910984328 -11.231671039842610 99 74 47 255
27.506156057758830 -15.213161718919423 -11.063891203381644 97 73 45 255
27.790480967079134 -14.277649684524931 -10.543151963932729 91 70 41 255
28.027923675187083 -13.372306645662718 -10.110698897488163 89 68 41 255
28.265392559360805 -12.464285333674610 -9.678284572485467 87 67 40 255
28.596712214546869 -11.485736732462442 -9.069439397897753 81 64 37 255
28.974976714491874 -10.469228384444037 -8.372414725428484 75 58 32 255
29.494018265031968 -9.345021849658522 -7.410763454780550 65 50 24 255
30.669914743163588 -7.728634560675246 -5.214036176941903 34 42 8 255
29.506197250684863 -6.352581248345686 -7.446439649416220 43 28 4 255
28.899336394444589 -6.069973471323479 -8.602143178441452 66 41 19 255
28.386308897474436 -5.722191846906199 -9.581353984794021 90 59 38 255
27.920199961715753 -5.343962236450992 -10.472297649401327 106 74 53 255
27.688705470097091 -4.787985217942136 -10.922173069732992 108 76 55 255
27.785691360355543 -3.976423851604892 -10.754630040724265 102 71 50 255
28.164257066655864 -2.940763482867979 -10.057933242370126 86 58 36 255
28.308232726427860 -2.087877297161214 -9.802264757985085 81 55 32 255
28.452239928872530 -1.233303793626746 -9.546627391695665 72 53 28 255
28.220848517830603 -0.680803523952278 -9.996513629970678 47 41 12 255
28.950412800408742 -24.306644383154733 -9.754515092639934 199 163 135 255
28.575955660846034 -23.801267827828639 -10.468619762738797 203 157 135 255
28.012910419978596 -23.419769837984447 -11.535364459959084 194 152 130 255
27.591288719207796 -22.954412363563463 -12.337529851086884 186 142 121 255
27.358247043966756 -22.372350582464179 -12.786979100595659 173 131 109 255
27.502390313824606 -21.547621372912587 -12.531100749568395 158 117 95 255
27.505102553451252 -20.814184291828781 -12.539723239619320 147 111 87 255
27.649276130435794 -19.987148541051710 -12.283881714614495 136 102 77 255
27.746316104757341 -19.190038271461006 -12.116216734832904 128 96 71 255
27.937676499196101 -18.328380885728521 -11.772269857190963 121 89 64 255
28.176210835962024 -17.432581952013251 -11.340207033964617 112 83 57 255
28.178997675617950 -16.695624093380729 -11.348898371239443 105 79 52 255
28.228953564809956 -15.926135826157562 -11.269455296845166 101 75 48 255
28.278925929723044 -15.156142093431853 -11.190024677261960 97 75 46 255
28.517544496240589 -14.253201417612374 -10.758071593656211 94 73 44 255
28.709030752670031 -13.380965727139625 -10.414287752735163 89 69 42 255
28.900541603888087 -12.506590893712271 -10.070536498971592 86 69 41 255
29.233558997471704 -11.528315281548601 -9.462445513741073 83 66 40 255
29.660931665586986 -10.477893581114103 -8.678164977384426 75 59 33 255
30.276991861882351 -9.284783938082739 -7.541478859950445 67 52 26 255
31.459062300716511 -7.667914032193181 -5.347509163931136 39 42 9 255
31.040642765753461 -6.474496606865486 -6.158461132770583 9 16 0 255
29.911694773981424 -6.574402424138910 -8.281954702065718 54 36 12 255
29.584571233778348 -6.078501771198958 -8.907573747193084 73 47 26 255
29.210284913660672 -5.622428198272587 -9.621256248201547 94 63 42 255
28.836003142632109 -5.170637665515045 -10.334897486603523 106 74 53 255
28.650411781015890 -4.576652680696412 -10.696129440587754 108 76 55 255
28.700697388426306 -3.800339915658995 -10.616902352023828 101 70 49 255
28.939704035241164 -2.874801287199645 -10.185350705664831 85 57 35 255
29.084397475719328 -2.021357229946403 -9.930007887541251 80 56 32 255
29.229123423230419 -1.166225104379691 -9.674696625065707 68 51 26 255
28.996465560701068 -0.613141330653860 -10.124024104815192 43 38 9 255
30.202361548391224 -23.963671995457048 -9.002245453268927 198 162 134 255
29.351949349585766 -23.750975445177559 -10.596122602343200 201 156 134 255
28.928055650142028 -23.279289812022355 -11.397338968792269 193 151 129 255
28.504153680136682 -22.812541495791507 -12.198501743797891 186 142 121 255
28.317222876721644 -22.198695263302227 -12.559337245903066 173 131 109 255
28.319881608720777 -21.464371893293276 -12.567944837371954 159 118 96 255
28.275153425166536 -20.761058184919492 -12.664605074372531 148 112 88 255
28.325232159306893 -19.995911321648933 -12.585172890499678 138 104 79 255
28.470124321187257 -19.167307175043561 -12.329667604189069 130 96 71 255
28.662435755385872 -18.305378057054853 -11.986147500842577 123 91 66 255
28.902170092565257 -17.409309967877377 -11.554622426723711 118 87 62 255
28.904914629765301 -16.672066300783186 -11.563297791961787 110 83 56 255
29.002481058118946 -15.869728646738452 -11.395920371224491 103 77 50 255
28.957852300623415 -15.164853373547231 -11.492640721556256 99 76 48 255
29.292483335061092 -14.195698859969070 -10.885176997890937 97 76 47 255
29.437517770648128 -13.356293626720742 -10.629844317349381 91 71 44 255
29.677390964635720 -12.447996728531706 -10.198504756262309 87 70 42 255
29.869883199601588 -11.570930967503173 -9.855218257903459 85 69 42 255
30.157221824041557 -10.623344052145725 -9.335944751438973 76 60 34 255
30.729057770765991 -9.465789334527656 -8.288675435114186 70 53 29 255
31.822471069126408 -7.919776356065071 -6.273448873533823 43 39 9 255
32.489235754771471 -6.676298854898207 -5.050384937226994 107 115 81 255
31.401726909662500 -6.730063452261945 -7.083326948733571 15 11 0 255
30.409020552753475 -6.725154722921701 -8.940142626466184 61 37 17 255
30.032703230633643 -6.266092687855917 -9.652949796855154 80 52 31 255
29.656391054182336 -5.811319067528487 -10.365715916303259 102 71 50 255
29.374921594747434 -5.288138299312536 -10.902472022924030 107 76 55 255
29.283141351407949 -4.621695145020723 -11.087274964254135 106 74 53 255
29.381064323437556 -3.808743932583397 -10.920163787614740 100 69 48 255
29.621282790620683 -2.883193232505192 -10.489152561896901 86 58 36 255
29.719269275646695 -2.067155048211191 -10.322100904556777 79 56 32 255
29.912135382744538 -1.174578457750812 -9.979137875501152 67 49 25 255
29.725634832194203 -0.583485172023970 -10.339935233346779 40 35 5 255
31.650804465569593 -23.503540928250288 -7.900792841424476 194 164 134 255
30.700600022375681 -23.345637338133926 -9.668610827234943 193 152 129 255
30.131506881421075 -22.959717337680885 -10.732703721194213 190 148 126 255
29.562400492775055 -22.580355257083909 -11.796724424369501 183 139 118 255
29.279147926168037 -22.025128969664408 -12.333009420371923 171 129 107 255
29.186476145139068 -21.350518471682818 -12.517497414824987 158 117 95 255
29.189104533595071 -20.615164973657627 -12.526101889436006 147 111 87 255
29.382334143946622 -19.755018056923959 -12.182973147771719 137 103 78 255
29.480287440563586 -18.955732102071636 -12.015737369903519 129 95 70 255
29.578257780896251 -18.155416967839116 -11.848519593531506 123 89 64 255
29.676245805685909 -17.354068494103274 -11.681320146383086 116 85 60 255
29.535995874690997 -16.713147498492575 -11.953748436657520 109 82 55 255
29.681668489642789 -15.878506146226130 -11.698652141919752 104 77 50 255
29.636749704956458 -15.173609916198302 -11.795243393411681 101 77 49 255
30.020733489550338 -14.171356583878307 -11.100624621552981 97 76 47 255
30.214129263176545 -13.298299196223610 -10.757700457601572 93 73 46 255
30.502863328167479 -12.355816012782128 -10.238997532117395 89 72 44 255
30.553341340605385 -11.579670462368654 -10.159854538564559 87 70 43 255
30.937448767023199 -10.563716546657560 -9.465429371996890 78 62 36 255
31.512229943094809 -9.405638141691810 -8.419478500046552 72 56 31 255
32.468340003936959 -7.963302038103095 -6.670468006047287 51 43 15 255
32.471283457155806 -7.210005093784858 -6.679394317969781 60 54 27 255
31.616322794111284 -7.091411643444602 -8.270292354747141 30 17 0 255
30.999664217181902 -6.804855902239467 -9.421667405217562 62 36 16 255
30.621324135167725 -6.346283553070975 -10.133567764390108 83 55 34 255
30.242990251545706 -5.891999111954050 -10.845427547107363 108 77 56 255
30.055330573255787 -5.296629673117636 -11.205751320943449 110 79 58 255
30.153694804381104 -4.483706344212749 -11.038836600939931 108 76 55 255
30.252088940034298 -3.669653655864778 -10.871946629086409 99 68 47 255
30.350513718690763 -2.854465040642353 -10.705081801017883 87 59 37 255
30.496641247913601 -2.000712045405862 -10.450381504031327 77 55 31 255
30.595130695124141 -1.182961263264289 -10.283571406007013 63 47 22 255
30.455284739780069 -0.553863346155822 -10.556060309839353 36 34 5 255
33.155056234676891 -23.014247861351024 -6.715023888313937 187 166 132 255
32.008285591069381 -22.970031565312254 -8.832027818018815 193 154 130 255
31.148826825473861 -22.759705212330829 -10.421847534934301 186 144 122 255
30.480912910219359 -22.438659989903854 -11.660212500371330 178 133 112 255
30.196127797678656 -21.882050977537219 -12.195828175898640 167 125 103 255
30.150812580641770 -21.175400642817095 -12.292260404863072 158 117 95 255
30.153402205521303 -20.438413002749755 -12.300864113559925 148 112 88 255
30.251796051759669 -19.639064111066347 -12.133825393970767 137 103 78 255
30.158619279591676 -18.964608852228480 -12.318086665495258 129 95 70 255
30.304941479702421 -18.132534612813416 -12.063254045759606 124 90 65 255
30.355486175127538 -17.362926034050062 -11.984074710811655 118 87 62 255
30.453947531554263 -16.560529317728850 -11.817096897017109 113 84 58 255
30.600329145249020 -15.724530157458773 -11.562330438402540 108 81 54 255
30.603027692646236 -14.985432914264749 -11.571004033793457 104 80 52 255
30.893159537350670 -14.047765864276641 -11.052875639124466 100 78 49 255
31.135417189381997 -13.140252294860645 -10.622591287913423 95 74 47 255
31.377703144748438 -12.230057684865926 -10.192346654574294 92 72 45 255
31.380489435414546 -11.486723824208099 -10.201102192550422 86 69 42 255
31.766549501025878 -10.469963753890838 -9.507555772101000 80 63 37 255
32.488000850502260 -9.207743573221691 -8.199569845747845 74 58 34 255
33.209504274175231 -7.937423321881553 -6.891689008545882 59 47 21 255
32.829133860782377 -7.463744071362484 -7.602836823285855 25 12 0 255
32.209214730187540 -7.170663793734832 -8.752824079775593 39 21 0 255
31.733027305457142 -6.777995030245066 -9.639420123059750 66 40 21 255
31.352668506770243 -6.319101563494684 -10.350423668914885 91 62 42 255
30.924402866232413 -5.900564149798356 -11.149153578810285 109 78 57 255
30.639888419680005 -5.377832202787474 -11.684547520063632 110 78 57 255
30.738716946527177 -4.565426969572741 -11.517834572915689 107 75 54 255
30.885493662767573 -3.715013034235128 -11.263389970958542 100 69 48 255
31.176059702167606 -2.751476508901163 -10.745716640896887 87 60 38 255
31.322908150089859 -1.896892357176000 -10.491346171497071 75 55 30 255
31.421871244093865 -1.078306496645666 -10.324755692783128 63 49 23 255
31.089571024362584 -0.600192725487901 -10.947886897967550 32 32 2 255
33.897514927416552 -22.994170827476353 -6.936763377648106 187 171 137 255
32.744730208591761 -22.949593722261213 -9.051089536534164 194 153 134 255
31.880750447881923 -22.738925933456770 -10.638896987071064 189 143 125 255
31.450014843138234 -22.266920750345605 -11.437066071813575 175 130 111 255
31.211840371834171 -21.678261938244987 -11.884293507650796 167 122 103 255
31.358809131396754 -20.847038279931013 -11.629740563737698 157 114 95 255
31.265078055648814 -20.168938633761556 -11.813791530778872 146 105 85 255
31.315789594295978 -19.398357474602520 -11.734696414415168 137 99 78 255
31.125789482821546 -18.784672968544768 -12.094161809301823 127 93 68 255
31.176527858420712 -18.014465314759988 -12.015074883174293 124 92 67 255
31.130988357561620 -17.307796143667645 -12.111407304009219 118 89 63 255
31.229907305646293 -16.504848277204914 -11.944639081423873 113 86 59 255
31.473294030384892 -15.603187543341505 -11.514798977649377 112 85 58 255
31.524106460108584 -14.830164960451384 -11.435773520983645 107 79 55 255
31.767543181220077 -13.924244183714748 -11.005998766847881 101 75 52 255
31.866551454696605 -13.115745397442197 -10.839326476565901 98 72 49 255
32.061888986964703 -12.238911898970471 -10.497306226409592 96 71 44 255
32.016483329367958 -11.529462175034766 -10.593726426655252 90 68 39 255
32.404492581643751 -10.512974892705387 -9.901046307572074 85 64 37 255
33.129632397205143 -9.251048986291735 -8.594701935365038 79 62 36 255
33.806667457228826 -8.015737930557762 -7.376134575261744 69 52 28 255
33.376114578484078 -7.577533759228785 -8.174043485779919 34 15 0 255
32.801088681874489 -7.249940541305548 -9.234901680692985 46 23 3 255
32.466863383641680 -6.751176623931883 -9.857383297554890 68 41 20 255
32.180809414088174 -6.220369740584317 -10.392172449118448 101 72 50 255
31.846605617510647 -5.728835379634759 -11.014590579866876 108 78 54 255
31.512412836649304 -5.241042014743357 -11.636975809913508 106 75 54 255
31.563548354316111 -4.464139548646287 -11.558133620216580 104 74 52 255
31.711044798826691 -3.612895109739469 -11.304018308485468 98 69 48 255
31.906742759899885 -2.722827586524517 -10.962292521015854 86 59 38 255
32.006142688334137 -1.905366840590332 -10.795885435901027 74 57 31 255
32.153745796817844 -1.049069280016198 -10.541868755504396 63 51 25 255
31.723344123179970 -0.646542620028143 -11.339484471258345 28 30 1 255
33.578406734665663 -22.870047351424944 -9.095112494209019 193 149 131 255
32.709908694295677 -22.658497044720733 -10.680914358061415 189 142 124 255
32.422061495417893 -22.095269931586159 -11.215231673363064 177 131 113 255
32.182605167641356 -21.504960362588562 -11.661904269517407 168 123 104 255
32.427063773639276 -20.610785609610019 -11.232466406945832 157 114 95 255
32.090838983614418 -20.085169968780448 -11.854327940269599 146 105 85 255
31.948186870636590 -19.438579412598017 -12.125742505937438 137 98 77 255
31.660361405883179 -18.888082087448282 -12.659940845155660 128 93 69 255
31.759698636348531 -18.086927513071586 -12.493340991000565 124 92 68 255
31.762263349858102 -17.348764123976380 -12.501945476677207 118 89 63 255
32.006828016661814 -16.449224631595456 -12.072609126191537 113 85 59 255
32.251418950810717 -15.547021206920732 -11.643311412895201 111 84 57 255
32.254043532086513 -14.806265348449827 -11.651968794433287 106 78 54 255
32.353485613067988 -13.999349724116627 -11.485473918458780 101 73 51 255
32.452950483965083 -13.191376003538423 -11.318999898241316 97 71 48 255
32.746045253466008 -12.247807262832751 -10.802252195783126 97 71 44 255
32.748756731011781 -11.504428607434093 -10.810974830566863 92 68 40 255
32.993507150820790 -10.590192158289241 -10.381869848927721 88 66 39 255
33.480312230987096 -9.501043739006704 -9.514985236496472 80 62 35 255
34.015565633929185 -8.371779820105871 -8.560613251705405 73 55 31 255
34.018392271814150 -7.621376527250376 -8.569458233093798 39 18 0 255
33.537166941226246 -7.223483269339283 -9.453860897251133 55 30 10 255
33.346397794880914 -6.617832355907353 -9.812902212958733 70 43 22 255
33.058826511117104 -6.085898679189128 -10.347026248388374 108 78 55 255
32.722858150379551 -5.593233699997100 -10.968669063535145 110 80 56 255
32.290078281621163 -5.176973860430593 -11.765363252462976 107 76 55 255
32.293022750748150 -4.436106823066496 -11.774164381988726 101 73 51 255
32.392823496347262 -3.621443245965736 -11.607907731625716 94 67 45 255
32.589487835708780 -2.731356452552490 -11.266613005480764 84 60 37 255
32.640942379705990 -1.951281901589581 -11.187945117778810 72 57 31 255
32.740847117364666 -1.132912961256110 -11.021772284983626 61 49 23 255
32.405022116085121 -0.654959424213871 -11.643330321977345 25 28 1 255
34.413533435437415 -22.790570350660460 -9.139781321305634 194 151 131 255
33.443243818633619 -22.637835672949976 -10.898591946506258 187 140 122 255
33.153861687238049 -22.074305084427337 -11.432227968737124 179 132 114 255
32.913119637919721 -21.483694745069670 -11.878330356944588 169 124 105 255
33.158778850615221 -20.589251799170299 -11.449430504067692 159 114 95 255
32.869412977024666 -20.032397543801054 -11.983006293884642 147 104 85 255
32.774616467868810 -19.354040890907243 -12.166584827650269 137 96 76 255
32.582545951211529 -18.739756868320313 -12.525133177452801 130 93 71 255
32.487770196021359 -18.064201292528551 -12.708692652619163 127 92 70 255
32.490295371388669 -17.325749670185346 -12.717282423256250 120 89 66 255
32.492837208459719 -16.587337564836602 -12.725879223212786 115 87 63 255
32.738627368786183 -15.686210690151910 -12.297105312100854 113 85 61 255
32.838503629075888 -14.880874348047598 -12.130788055419117 108 80 56 255
33.084346759342793 -13.975214302805739 -11.702083580371408 103 75 53 255
33.135622855009785 -13.200314967337803 -11.623283821710913 99 73 50 255
33.381521207699564 -12.290372695713003 -11.194647250593050 95 69 43 255
33.530148380768651 -11.445541345217407 -10.940971261812848 92 68 40 255
33.776107164015372 -10.530756854582748 -10.512410576836231 89 65 39 255
33.973445471511752 -9.647712984082361 -10.171345157742053 82 62 36 255
34.511392681281365 -8.519538129870455 -9.218163217928918 75 55 31 255
34.611491678325450 -7.700228880963408 -9.052086501219549 37 15 0 255
34.322372098216391 -7.161818490058693 -9.585585681263979 57 32 12 255
33.838638118838418 -6.768702632482203 -10.468821559131129 83 55 34 255
33.549542031000044 -6.237800757778274 -11.002255321004583 115 85 61 255
33.309119656140837 -5.674045283202346 -11.448228802636550 114 84 60 255
33.117374739148659 -5.076620351364227 -11.806751919994099 108 77 56 255
33.022972253699351 -4.408110674614406 -11.990406603637837 98 70 48 255
33.074581530553331 -3.630020673712366 -11.911787645817782 91 64 42 255
33.174886388761649 -2.814192251609299 -11.745767531280848 83 59 36 255
33.275226508259038 -1.997217939877970 -11.579774720322604 71 55 29 255
33.326937214327160 -1.216770370243495 -11.501224814568218 60 48 22 255
33.086682764845108 -0.663401065839295 -11.947168188642820 23 26 0 255
35.543418066657836 -22.533706508458579 -8.660699790574114 187 149 125 255
34.323691495393632 -22.527690534724684 -10.854283562440429 189 140 123 255
33.886118144955219 -22.053394221329057 -11.649427147823673 181 134 116 255
33.497428829611636 -21.553641681361626 -12.357129457571148 171 126 107 255
33.744286645070446 -20.659740429248515 -11.928758534986770 160 115 96 255
33.502274930004603 -20.072463819230052 -12.374261138112246 147 104 85 255
33.455829136566763 -19.363157289106340 -12.470216139151489 138 97 77 255
33.311614674800893 -18.717375933962416 -12.740925941629285 132 95 73 255
33.167410628455684 -18.073262280259897 -13.011623531594950 126 91 69 255
33.218788899825796 -17.302785122074283 -12.932824631510812 123 92 68 255
33.221292516895659 -16.564083428665541 -12.941407317824002 119 89 65 255
33.419392690071305 -15.695229347552058 -12.600538158529957 116 86 62 255
33.617518996099619 -14.824245160048207 -12.259702180812837 109 81 57 255
33.815672255910215 -13.951126246900685 -11.918899797379083 105 77 55 255
33.964955846153998 -13.109224399330984 -11.665486866843793 100 74 51 255
34.163164559271223 -12.232091568866451 -11.324749778345762 96 70 43 255
34.361402731465688 -11.352809313423137 -10.984047549708066 91 67 39 255
34.608571545640075 -10.437206068374792 -10.556034641088274 88 64 38 255
34.806872182945227 -9.553339333783441 -10.215406600604979 82 61 35 255
35.200814027473200 -8.528482110110474 -9.525456168692415 76 54 31 255
35.399183630578108 -7.639199151708624 -9.184913621604750 36 14 0 255
35.010735702834410 -7.170693477502439 -9.892407727858568 64 37 18 255
34.426677073847713 -6.848548731318559 -10.949183545108724 97 69 48 255
33.989340250375108 -6.425496107095881 -11.743914641858140 116 86 62 255
33.845456990343990 -5.790931828536173 -12.014658736299367 117 87 63 255
33.750504612552930 -5.121620624928411 -12.198076348014922 111 80 59 255
33.753396417517394 -4.380150228765615 -12.206860095305785 97 69 47 255
33.756318505363680 -3.638626481142609 -12.215657883682496 89 61 39 255
33.906006427706131 -2.785634258170916 -11.962537323479410 79 55 33 255
34.006820091905809 -1.968361405784734 -11.796758663255702 67 52 26 255
34.107670887963337 -1.149934885513915 -11.631008219235554 59 47 21 255
33.768325779198278 -0.671866616489240 -12.250997951223496 18 20 0 255
36.137266029621145 -22.602249314619812 -9.143766011657760 187 155 128 255
34.911279441161469 -22.596675792936338 -11.334554238778992 190 142 124 255
34.373154157587152 -22.183101005969860 -12.303240025318587 183 135 118 255
34.031566727614944 -21.654004114292590 -12.922745774696324 174 127 109 255
34.328759898016614 -20.730261146690751 -12.407624983980583 162 117 98 255
34.282013525484103 -20.019798649396449 -12.503457653662082 150 107 88 255
34.333557549412944 -19.247544889445962 -12.424750612532335 142 99 80 255
34.286839998336148 -18.537728730726116 -12.520589599592057 136 98 79 255
34.043575531138089 -17.955432913147831 -12.965483310991317 131 96 75 255
34.144308202479209 -17.151856193558203 -12.799530105801836 126 94 73 255
34.048493607708480 -16.476331000455261 -12.982626099947623 121 90 69 255
34.198409430723785 -15.639202525381990 -12.729446807950154 117 86 65 255
34.299206093069643 -14.833296423272728 -12.563545677845269 110 82 58 255
34.498316426215922 -13.960168027307617 -12.223170108131654 106 78 56 255
34.697455109396714 -13.084899289205708 -11.882828811998991 100 74 51 255
34.798329420966610 -12.274731752185176 -11.717005374820985 95 69 42 255
34.997525509546961 -11.395707379504302 -11.376727633384291 92 68 40 255
35.245901238508822 -10.480364390491786 -10.949250205664953 88 64 38 255
35.641759697375306 -9.459021434088925 -10.260118789250242 83 59 34 255
36.037658676511796 -8.433352543824995 -9.571049163480723 73 49 26 255
36.040386318534985 -7.683136006900270 -9.579848119231912 43 17 1 255
35.600767267679743 -7.250088099807485 -10.373662696235868 69 40 22 255
34.866236108929826 -7.034953481299908 -11.690749268703598 110 79 59 255
34.426630531728591 -6.613191166198632 -12.484455783853605 121 91 67 255
34.380280538373057 -5.907829880622756 -12.580413621453857 117 87 63 255
34.432271429407962 -5.130321168121299 -12.501958933622774 110 79 58 255
34.533452538423319 -4.315631619583300 -12.336317990495729 97 69 47 255
34.438034056413045 -3.647259728181922 -12.519518292266838 85 58 36 255
34.539282737085301 -2.831375072226820 -12.353919555992036 79 55 33 255
34.738890460469776 -1.939536393007643 -12.013954865492821 66 50 24 255
34.840216672642072 -1.120809282270443 -11.848419427308102 57 45 19 255
34.597440216367460 -0.566524744442987 -12.293247597657285 15 19 0 255
35.794126451520611 -22.486657677921201 -11.291314330571851 189 143 123 255
35.450763212197131 -21.951512307041980 -11.910089457904547 182 136 117 255
35.008632305581926 -21.480974543594897 -12.703163035275935 173 128 109 255
35.159124774111746 -20.647564217513747 -12.450203263524003 165 120 101 255
35.062705807308078 -19.967190943187859 -12.633078796156809 155 110 91 255
35.015685948186388 -19.256762473915799 -12.728789185982237 143 102 82 255
34.919292562230567 -18.578384381055514 -12.911655957709200 138 100 81 255
34.822912623161727 -17.901132507280479 -13.094517341560191 133 97 78 255
34.924105795564770 -17.097002317429315 -12.928775048208792 127 95 74 255
34.877149101279514 -16.388639495526064 -13.024492721979357 121 90 69 255
34.928992887072837 -15.615769370004017 -12.945925561701500 117 86 65 255
35.030250899785671 -14.809577378635169 -12.780233017526996 112 84 60 255
35.180926670708828 -13.969248867900077 -12.527424898021138 106 78 56 255
35.430418028037735 -13.060619135389473 -12.100377026775732 100 74 51 255
35.531755539491996 -12.250163144485228 -11.934763026070357 97 71 44 255
35.682516136885340 -11.404745914030684 -11.682044161302287 94 70 42 255
36.080291683600706 -10.386912904955210 -10.993732015167154 89 65 39 255
36.428709356676706 -9.399188290602794 -10.392602858610047 81 59 35 255
36.579570435751009 -8.546475818041344 -10.140002531001528 62 37 15 255
36.384664512011710 -7.936918720481046 -10.497238917212513 53 28 8 255
35.794571004801583 -7.611420467729687 -11.551357937181194 78 49 31 255
35.402089637462183 -7.150338326500531 -12.256978672649780 119 88 68 255
34.960218377256837 -6.729325378942278 -13.049667442874238 120 89 66 255
35.061801706139903 -5.916589203543026 -12.884186088573074 118 88 64 255
35.015204830588374 -5.211689784777278 -12.980029183690164 107 76 55 255
35.215667102128208 -4.324332799760271 -12.640400200744807 95 67 45 255
35.070320836624290 -3.692779305227575 -12.910461572400237 87 60 38 255
35.221449761358173 -2.840005073312881 -12.657981289894281 78 54 32 255
35.422028168272305 -1.948142003705257 -12.318449631994156 66 51 25 255
35.523829596920535 -1.129383287793743 -12.153126391864276 57 45 19 255
36.232234540512763 -22.645235615578386 -12.032514399300311 188 144 123 255
36.085615102337243 -21.990977651237102 -12.302237603514669 181 139 118 255
35.839738224426100 -21.399158536823052 -12.746062810009079 176 131 115 255
35.941304760321458 -20.595577670692961 -12.580481431102271 164 119 103 255
35.794716105347050 -19.945556373573552 -12.850175538088138 154 111 92 255
35.846680712051153 -19.172463032529706 -12.771664502814389 144 101 82 255
35.700117953836497 -18.524705498556756 -13.041347275055273 136 98 77 255
35.652842168175852 -17.815160233349033 -13.136934631245282 133 97 75 255
35.655221106734899 -17.074199283506559 -13.145484564213916 127 92 70 255
35.657619109879761 -16.333274830841845 -13.154042628366710 125 93 70 255
35.610397040070382 -15.624919042868768 -13.249641911499481 119 89 65 255
35.563193850813548 -14.917130563791602 -13.345243878581755 114 86 62 255
35.863502342043233 -13.978367838186841 -12.831663887828881 108 80 56 255
36.064558697693684 -13.103076367025352 -12.492177829217724 103 77 52 255
36.315289006952014 -12.192021200429281 -12.065706868483858 98 72 47 255
36.417119131187263 -11.379933799759158 -11.900328992131023 96 72 46 255
36.767204750383144 -10.395986053311262 -11.299905326361710 90 67 41 255
37.018036559357569 -9.477108907091605 -10.873558680687637 83 63 39 255
37.119962619557015 -8.659613224637269 -10.708278242293659 50 27 8 255
36.824734102019931 -8.120755724530241 -11.239058228813946 59 32 13 255
36.281276259282407 -7.761300863286650 -12.204819438957145 95 64 44 255
35.886776542799311 -7.301240962477024 -12.909529946975994 126 94 73 255
35.541942015052086 -6.809693390255305 -13.527208425058262 125 91 67 255
35.693645893251272 -5.961423637678706 -13.274938960547928 121 87 62 255
35.696427687783455 -5.220440099354732 -13.283668737996464 109 78 54 255
35.848204452743431 -4.369647159876379 -13.031457273684879 94 67 43 255
35.751744337024064 -3.701461335953098 -13.214191275068714 84 61 36 255
35.903595644857091 -2.848659475510104 -12.962033351399526 76 56 31 255
36.005830899502342 -2.031564768129442 -12.796886716664602 67 51 25 255
36.108106318487387 -1.213313619859136 -12.631769678214852 58 44 18 255
35.962125194957423 -0.583585249844546 -12.901529546502701 17 21 0 255
37.515770787396008 -22.296670996729134 -11.294384791798677 188 146 123 255
37.318494421695533 -21.669247782893109 -11.650744881662376 184 139 119 255
37.021462562987125 -21.104796393811725 -12.180979526208887 178 131 115 255
36.724435809454604 -20.543647565357091 -12.711183066285940 165 120 104 255
36.477298083556605 -19.954883932909425 -13.154415231545642 154 111 92 255
36.529472899136579 -19.181775087749131 -13.075998076084346 144 103 83 255
36.432011943149547 -18.502534449042031 -13.258397582397066 137 99 78 255
36.384451423622409 -17.792695206111361 -13.353860959373037 133 97 75 255
36.436681273489967 -17.019449517985635 -13.275469724476636 128 93 71 255
36.389157584393871 -16.310226122924917 -13.370943297873708 125 93 70 255
36.391540988005289 -15.569040537738900 -13.379497492120180 119 89 65 255
36.393945700005304 -14.827881427733189 -13.388060919263467 115 87 63 255
36.645823017435561 -13.921377280945762 -12.962055360728215 111 83 59 255
36.947623209917964 -12.978846747267596 -12.449178538600648 103 77 52 255
37.149674281536363 -12.100314929302101 -12.110168732915582 98 72 47 255
37.251971773738831 -11.287396663461138 -11.945007633829221 96 72 46 255
37.503979715699160 -10.370940175299793 -11.519160908498719 90 67 41 255
37.756023439385984 -9.451780075683359 -11.093357463468635 81 60 37 255
37.758626024941691 -8.703377142416059 -11.102082330906995 42 17 0 255
37.362084650247795 -8.234665335408977 -11.805970000449861 64 36 18 255
36.865762118974800 -7.840719419012757 -12.683601573812609 112 80 61 255
36.519145545822425 -7.345637542459542 -13.300521237426352 128 93 73 255
