ply
format ascii 1.0
element vertex 656
property float x
property float y
property float z
property uchar red
property uchar green
property uchar blue
property uchar alpha
end_header
27.236222528200017 -22.251576158461432 -9.188640363092247 201 159 141 255
25.799793720828291 -22.695311096339907 -7.964712601242042 197 160 138 255
24.088800247975769 -23.490468933325133 -6.496637670847178 200 164 142 255
22.105076739465545 -24.640411345516725 -4.785826491954538 201 165 141 255
20.739420195354967 -25.043041010638547 -3.623035564167992 203 165 142 255
19.544292134183081 -25.245482096817199 -2.611237821702275 205 167 144 255
18.518592402718951 -25.245717016144397 -1.749585592219546 203 165 142 255
18.157962096046560 -24.413859396661678 -1.478699051962053 207 166 146 255
17.576862170884652 -23.861641545238342 -1.011865874112971 206 169 148 255
16.172320414836264 -24.364074405236096 0.187289075388406 209 172 150 255
15.156026324851894 -24.381661913321835 1.041598339066184 214 179 157 255
13.814253202553772 -24.828267456066129 2.185824128685084 217 182 160 255
12.312947349708452 -25.495270533885019 3.472530347239513 216 182 160 255
10.979970240087681 -25.958044408584072 4.609944302285157 213 181 158 255
9.977237491142944 -26.000582757026535 5.453729890755568 216 181 159 255
9.031469936423633 -25.976626892855961 6.247080026262608 218 183 161 255
7.709547727684026 -26.459724977815199 7.375929365294780 220 184 162 255
6.553755254138878 -26.734560085458838 8.357181693083646 219 183 161 255
5.778394289785723 -26.510219320531007 8.999607331380361 218 175 156 255
5.488358588817732 -25.637110634844419 9.209327057538019 206 163 144 255
5.787566808368808 -23.963855873442355 8.893210982502950 193 150 131 255
5.816247793834776 -22.649403615368556 8.818154118170497 180 137 118 255
5.736318502478269 -21.477750531051640 8.839818831866410 175 133 113 255
5.442030638201146 -20.596921025807262 9.052743223987846 170 129 109 255
5.200439649641368 -19.641769279494326 9.218521191273567 163 124 103 255
5.117173224208642 -18.464048348868459 9.242708815846470 159 123 98 255
5.402633506596572 -16.765702361235583 8.937073115471748 156 121 96 255
5.896003830167217 -14.764748965383745 8.445107208109732 147 113 87 255
6.385299250736495 -12.756343114537515 7.956261959868414 138 107 79 255
7.133066706054564 -10.367080586202832 7.235595985312159 128 97 72 255
8.556579589143468 -6.994383377307543 5.909355447210231 110 84 60 255
10.494293521164735 -2.854936611742914 4.121592279761899 90 76 51 255
11.169666157122464 -0.503958691152548 3.463169679283254 5 9 0 255
-3.107315393204317 -2.716771293412648 15.535373092048786 168 117 102 255
-4.313474280630942 -3.241275232313569 16.568418575211552 196 148 128 255
-4.963503006826215 -2.904953453166968 17.101097867987505 191 138 119 255
-4.710869354214282 -1.146515513247948 16.820653889741095 156 114 92 255
32.638607436447217 -18.949474742146975 -15.133095939701406 201 193 153 255
30.627404297377069 -20.038485311560237 -13.391344734776311 207 172 148 255
28.399179268594821 -21.411994639785974 -11.454946458752175 200 162 140 255
26.178839125906819 -22.799996266780738 -9.524653259422792 200 163 141 255
24.468020027925888 -23.586902912751015 -8.048767790649777 199 164 142 255
23.319034356819230 -23.698035594696648 -7.074463161566939 205 170 148 255
22.450749353730998 -23.470900977598035 -6.350797219612218 208 173 151 255
20.477068088419259 -24.628908177344783 -4.638127962842646 208 172 148 255
19.118022888806991 -25.037359334667940 -3.474588374521659 209 173 149 255
17.652940932029480 -25.592605391443982 -2.215639101680722 208 171 147 255
17.237635635462482 -24.831385257668501 -1.896029098708823 210 169 149 255
16.163811327791251 -24.909908463859097 -0.986657061392890 207 169 148 255
15.421537152024769 -24.572800124036434 -0.373967415453734 210 173 151 255
14.243692590170156 -24.801837343086049 0.629241100662171 212 176 154 255
13.014815387600578 -25.107921453863042 1.678617240816635 215 180 158 255
11.517699921078929 -25.775172776040250 2.968988100376293 216 181 159 255
10.242615511549729 -26.167169702276681 4.060798566768227 217 182 160 255
9.296394101778503 -26.138605239574929 4.857998820948751 215 183 160 255
8.298651093779313 -26.186187303850829 5.701746833676850 216 184 161 255
7.303657262763238 -26.238828392136014 6.543360589986520 218 183 161 255
6.096281981872380 -26.584451109263199 7.576071249872967 218 182 160 255
5.160934700165740 -26.575896041470742 8.364830687878055 217 176 156 255
4.549323653627084 -26.137380394745804 8.862927452453846 208 165 146 255
4.579752930255211 -24.828970990770443 8.783894094834324 198 155 136 255
4.821474802083884 -23.225623155349865 8.514565662294672 183 140 121 255
5.060335841630121 -21.617050315825310 8.247421563964849 179 134 115 255
4.765828665359294 -20.736470736036381 8.459910447560787 170 126 106 255
4.841403080447805 -19.340319366789743 8.339151160623146 165 123 101 255
4.756429348785446 -18.161590193910968 8.362686523651661 162 123 98 255
5.302283105003994 -16.092419925700966 7.817716417457916 153 117 91 255
5.423311143499689 -14.609068032288661 7.655016031910861 148 114 87 255
5.804178566242740 -12.749199303046709 7.257742973167552 136 105 76 255
6.129140438592316 -10.957433240647276 6.910399291281720 126 99 70 255
7.442523166430050 -7.736759316213835 5.670917364657328 107 81 55 255
9.789463990696021 -2.999358597184369 3.497635268687702 84 70 45 255
-2.877660637338749 -1.449487483405449 14.118219742465556 170 118 104 255
-4.634252071357423 -2.835263461208285 15.656513341807567 167 115 101 255
-5.634084523593060 -3.049757851349341 16.508618172358354 158 107 91 255
-5.832735376668609 -2.003842528495852 16.633421663192507 160 111 94 255
-5.833233571596054 -0.638891235834478 16.578054457183839 143 110 88 255
24.623036129198539 -23.961568568658379 -9.407116658046164 202 168 145 255
24.140613293573807 -23.247255659465253 -9.028351076277517 203 171 149 255
23.159663362306674 -23.150948760698782 -8.200635173562404 212 177 155 255
22.125913900935927 -23.128090318809456 -7.325058301239039 212 177 155 255
20.267200130859720 -24.146061263157151 -5.705763005272615 210 175 152 255
18.525019999312320 -25.037275943617658 -4.190695946414735 210 174 150 255
17.118385234697911 -25.522392629579002 -2.977435063936753 211 175 151 255
15.825838941350383 -25.876268056132062 -1.866517697905863 211 170 150 255
15.084183670676026 -25.537982532462934 -1.252161617004418 207 169 148 255
14.562335261192203 -24.921840945965414 -0.836021583842523 209 171 150 255
13.333218254125171 -25.221865333666301 0.218748748296690 213 177 155 255
11.836200736982050 -25.881838568084675 1.515957091685721 215 179 157 255
10.994571967400049 -25.700797049796535 2.221672519093886 217 182 160 255
9.992716502078309 -25.736674239351032 3.072448079069943 218 183 161 255
9.263406882764343 -25.421164399557426 3.677166830476864 217 184 161 255
7.943417785869570 -25.895127504068967 4.816280596035739 218 183 161 255
7.164793955641187 -25.659462659935969 5.466170454275186 219 184 162 255
5.905605675935192 -26.074714584697915 6.551199278946740 220 182 161 255
4.864271067069836 -26.208522083853694 7.439522907803877 218 177 157 255
4.039325789205265 -26.058200793301239 8.132268590330455 212 169 150 255
3.588987331496469 -25.403173188547186 8.485900289055394 202 159 140 255
3.563799932742143 -24.165891002084749 8.454261186849322 190 147 128 255
3.642938088302031 -22.779461481499027 8.327802519979571 185 140 121 255
3.772809700569638 -21.315846560686339 8.155026543551230 174 131 110 255
3.689352477313406 -20.142001346798452 8.175444224187544 168 126 104 255
3.920205746763742 -18.523124351729450 7.910408776423367 163 124 99 255
4.043210634992249 -17.046968566502585 7.742875318937877 154 118 92 255
4.478090568057866 -15.121317346336582 7.291762704586375 147 113 86 255
5.013645173918803 -13.039825310265769 6.748641758732163 137 106 77 255
5.649144766833530 -10.801154871453775 6.114074155487458 123 95 66 255
7.007963324489594 -7.505602040590361 4.821213032232407 107 81 55 255
9.551970939204978 -2.468018599523873 2.449274906950166 81 65 40 255
-4.407954993708358 -1.564395160816275 14.239561854289292 157 109 90 255
-5.806098340502984 -2.405849919725426 15.460443898375502 131 84 64 255
-6.503541848745982 -2.148966370706717 16.040436773415081 140 91 74 255
-6.654118021333034 -1.022353073992065 16.119707747319012 147 106 86 255
26.000326408363691 -22.845892752183715 -11.878359050681865 198 168 144 255
24.293827672593807 -23.623606946376327 -10.389937053863804 202 171 147 255
23.091234131926512 -23.796555199949950 -9.357739628576894 208 176 155 255
22.168301048276504 -23.633009725089664 -8.578791730347433 214 182 161 255
20.696493065949966 -24.161699928998303 -7.301477931697434 215 180 158 255
18.679478372979247 -25.389350495689371 -5.528622303260647 213 178 156 255
17.492647704903220 -25.591322255204091 -4.508677510447910 212 177 155 255
15.542845495724407 -26.772406644076739 -2.795205348786737 213 176 152 255
14.910936219906091 -26.293314933386910 -2.278362658439931 214 173 153 255
14.334568135048016 -25.746227791345774 -1.811887400842494 210 172 151 255
13.704614968622138 -25.270774616996079 -1.296599357849686 211 173 152 255
12.099057332129092 -26.063992393865931 0.106252464960903 213 175 154 255
10.715480372493374 -26.584807934423424 1.307853251068167 215 177 156 255
10.038542277066256 -26.193134181021406 1.866830323366798 217 181 159 255
9.255105683784222 -25.945930031274344 2.522943355377151 217 181 159 255
8.527212201893747 -25.630728780149610 3.128692287617554 216 181 159 255
7.425315239455557 -25.818805309499936 4.075440160803112 218 182 160 255
6.540758589704069 -25.725969066644382 4.824512880089685 220 183 161 255
5.444849579798785 -25.925059901633631 5.766616508871891 221 180 160 255
4.405459705463215 -26.057938748800325 6.657608486664060 219 178 158 255
3.581701368433983 -25.906770250620411 7.352242692178834 216 173 154 255
2.919073169573778 -25.541482104710980 7.900061872103777 206 163 144 255
2.575224611796841 -24.741558220229052 8.156945128423075 196 153 134 255
2.442373729973639 -23.649092496132539 8.221037669477454 187 142 123 255
2.413714377470939 -22.407967149453782 8.189733990778393 179 134 114 255
2.488515843717295 -21.016842454132160 8.063596796870513 169 127 105 255
2.613619462073331 -19.548107083284208 7.891135627815004 161 120 95 255
2.840966756644491 -17.927140621022716 7.624778391736157 154 117 91 255
3.378565682776070 -15.855906787375432 7.074048667135457 146 111 84 255
4.068036629397852 -13.553582223088938 6.383630360682957 135 103 74 255
4.752461885407229 -11.242022286491277 5.697083095885262 119 89 61 255
6.364588782357089 -7.574041036922438 4.159789253678042 111 85 59 255
9.052937857286963 -2.312395892708082 1.634647694497517 59 41 17 255
-4.785134346297383 -1.237829520695357 13.366610122773125 149 99 78 255
-5.882267294555902 -1.604654736760267 14.317113006764146 130 80 60 255
-7.223492390931256 -2.373180470042428 15.493480734836425 140 90 70 255
-7.720444073905952 -1.802196048490657 15.890902447465038 132 84 64 255
-8.167587235903795 -1.152673039432045 16.242401510548575 95 51 30 255
23.685849061783586 -23.626507132230813 -11.122729435575650 206 176 153 255
22.099639384856175 -24.277285766116478 -9.734879003554965 214 182 161 255
20.518624060441596 -24.937620562589416 -8.351058796971984 219 187 166 255
19.601887926888764 -24.782079520618367 -7.573770880102558 217 185 164 255
18.468206071380450 -24.906752313685388 -6.597793175373283 218 183 161 255
16.353535990526012 -26.283606781660723 -4.723970835518600 215 180 158 255
14.301061328468592 -27.605035809572030 -2.905982951053943 214 178 156 255
13.453546761076240 -27.407036255991727 -2.190018773927221 214 174 154 255
13.314113740338883 -26.303978015521409 -2.122225233414213 210 172 151 255
12.739997381393266 -25.759861699927171 -1.656410926940254 210 172 151 255
11.085309305574640 -26.624312448628899 -0.200234250108792 211 173 152 255
9.759980269300769 -27.075734014503439 0.954811257771610 214 176 155 255
9.084756872145846 -26.685283908920240 1.514247791321338 216 178 157 255
8.357116652013815 -26.368237493015670 2.121942498455212 215 179 157 255
7.898906285807698 -25.697769362757924 2.482570297453094 215 179 157 255
7.013341450499638 -25.599673770871220 3.235581128375117 217 181 159 255
6.130038873063285 -25.505744585638126 3.986832550509035 220 181 160 255
5.089356571556323 -25.631741924650697 4.883002116920181 220 179 159 255
4.104760222286586 -25.691101057433031 5.728052494780741 218 177 157 255
3.387763727243282 -25.393679869172473 6.327448342819139 216 173 154 255
2.566601034135573 -25.244261337277294 7.022872931496494 209 166 147 255
2.011086796866749 -24.734484199277745 7.474146166246243 198 155 136 255
1.666788036016726 -23.934033902157182 7.731098941354958 191 146 127 255
1.637207041748326 -22.693706936638421 7.698198581552901 182 137 117 255
1.396545269577274 -21.744328415588598 7.859488700277780 171 126 105 255
1.311936236551560 -20.572623442371935 7.876851929691185 160 118 94 255
1.486517655202249 -19.028720551276962 7.655035902261233 151 114 88 255
2.282428643547831 -16.590192153776457 6.859765323875081 143 107 81 255
3.020932959373596 -14.215911362491113 6.116602365143365 132 98 70 255
3.961155070765017 -11.533546925459831 5.186430035237350 122 92 64 255
5.617933744107631 -7.792187805091430 3.593636869062919 103 78 52 255
8.501239703665789 -2.232002442495457 0.866355706384695 52 34 11 255
-4.965963501781630 -0.597082200694217 12.307312699851281 129 82 59 255
-5.962609063537712 -0.803959093738968 13.169440645011832 142 92 70 255
-7.400169514157568 -1.727766560211307 14.442368124757280 136 89 69 255
-8.291382780171915 -1.788960005844785 15.207494305383648 112 66 46 255
-8.934723050742349 -1.457195006331517 15.742166258613281 98 55 36 255
24.124368744290109 -22.335736434823218 -12.819038340236204 210 186 159 255
21.440155120632397 -24.347922547458268 -10.413313196104355 216 184 163 255
19.588871803623192 -25.350515444515224 -8.772856944225225 222 190 169 255
19.002888458057015 -24.783297454022829 -8.296658235288930 220 188 167 255
18.035416402050743 -24.700491586950079 -7.468930151196048 215 182 161 255
16.471064722807142 -25.383660706655604 -6.090788273493189 213 178 156 255
14.096396945907372 -27.117951253345154 -3.964853439340715 212 176 154 255
13.140963814289336 -27.057301265529532 -3.146473242214029 209 171 150 255
13.216374079942341 -25.673436948294267 -3.278774616719573 207 166 146 255
12.209631367260869 -25.687880895239516 -2.412673898379950 209 168 148 255
10.505215824502358 -26.621732856231915 -0.902029319563923 211 170 150 255
8.860482728575050 -27.495914519221515 0.554379907247608 215 174 154 255
7.596872393953078 -27.885062246642036 1.659496018317157 212 174 153 255
7.139920498660331 -27.216430729773663 2.019591048106577 212 174 153 255
6.683277929503475 -26.548386741328869 2.379428969672517 212 175 153 255
6.333481971084780 -25.738024729827742 2.640460070858751 217 179 158 255
5.345751483241088 -25.787474108350153 3.491783301502892 219 179 158 255
4.519844680876105 -25.626283383002516 4.193710750243952 220 177 158 255
3.378541672073425 -25.901552522490817 5.188027974519059 217 176 156 255
2.715744726055021 -25.532095183873992 5.739554957943795 214 171 152 255
2.106892789852935 -25.092441181632864 6.241271377819430 210 167 148 255
1.656693431723937 -24.436330903969321 6.596035949394405 202 159 140 255
1.206805387503863 -23.780805754380992 6.950547485290173 197 152 133 255
0.861814607806622 -22.979383269885858 7.207758235876213 188 143 123 255
0.464476977458645 -22.251115896515103 7.513522616401275 174 129 108 255
0.379502763027801 -21.080859866264859 7.529203326253196 162 120 96 255
0.552772169269986 -19.538507062828216 7.304730991431938 151 114 88 255
1.345098375820726 -17.101771200395035 6.504466944287969 143 107 81 255
2.235259859183685 -14.506191210270401 5.612339419581048 129 95 67 255
3.274089721305074 -11.675850034854676 4.580948029027695 120 89 61 255
5.592183191371134 -6.963067197314444 2.358034160845222 108 81 55 255
7.743490301518818 -2.451857622327168 0.288308055248194 44 23 4 255
-7.334602827973612 -0.687598495240252 13.157233782640560 122 75 55 255
-8.078544925861735 -0.507707340403499 13.787658969196343 120 73 53 255
-8.967398907976190 -0.569460747119706 14.554458927137262 133 87 70 255
23.951240321471090 -21.794629608171135 -13.963540370411351 207 195 158 255
20.835424385847233 -24.350315466320239 -11.142616628927300 217 185 164 255
18.879648634532884 -25.489176020030840 -9.395557063991049 219 188 168 255
18.348931553293482 -24.853354893731364 -8.969418004753152 219 188 167 255
17.818764501481127 -24.218569609244526 -8.543727897635335 217 180 161 255
16.909049155747738 -24.069175949895850 -7.765612848486626 215 177 156 255
14.376265615783808 -26.006486681438531 -5.479772600021846 214 176 155 255
13.474740456975780 -25.872163749031927 -4.708015041604455 212 171 151 255
12.683344402548357 -25.602282392059891 -4.038279221677954 208 167 147 255
11.732288799606664 -25.545946859758828 -3.219829630592528 209 168 148 255
10.246849327693155 -26.197367537749159 -1.903932263272822 211 170 150 255
8.552091045252382 -27.140035327008150 -0.392483608063287 215 174 154 255
7.130482682263363 -27.739782340694120 0.865621875422050 214 172 153 255
6.513421196613194 -27.283397715328874 1.375216435190254 215 172 153 255
6.003803535113093 -26.686525896239516 1.784862161564661 215 174 154 255
5.494740255702226 -26.090689586344638 2.194063289719338 216 175 155 255
4.456663632875433 -26.212451441304154 3.096580796878925 218 177 157 255
3.685755802014938 -25.980321726592535 3.750365387102988 217 176 156 255
2.494919716407338 -26.328290460354793 4.796273744271559 218 176 154 255
2.149264274363077 -25.525873143203626 5.053788887926487 216 171 150 255
1.593556487625051 -25.013350262677079 5.507427402354949 211 166 145 255
1.352730696710040 -24.065663429104234 5.666996959285143 205 160 139 255
0.902340718215243 -23.408764507008897 6.022315395159524 199 152 132 255
0.556469567158388 -22.606009385279094 6.279943177160192 189 143 124 255
0.210423222034677 -21.802945731068689 6.537694120239223 176 133 114 255
-0.187657882408217 -21.073240550343968 6.844100259003767 166 124 102 255
-0.068290665191967 -19.604766138933485 6.666065498522272 153 112 90 255
0.461639437719839 -17.539053367239148 6.103090226560653 146 107 85 255
1.450705525402412 -14.796409809818897 5.109173084957092 131 94 68 255
2.792876608885166 -11.519932807195119 3.783156582596291 118 86 58 255
4.690602485712105 -7.405807229425079 1.934754993794769 103 77 51 255
7.190998847384748 -2.371669623492096 -0.480911709268725 34 12 0 255
-53.751555623826391 -0.794717722123892 52.095056040688604 188 142 124 255
-54.339883061318687 -0.726588996357179 52.601499938424695 114 84 59 255
20.284880195357829 -24.284525734352428 -11.923373026315005 217 184 164 255
18.388680089492595 -25.353846369554731 -10.221499406117090 220 186 165 255
17.423170222558895 -25.267090717091037 -9.388286301487767 220 185 165 255
16.839793199048216 -24.702314530134601 -8.911928585177975 215 178 159 255
15.607889961874719 -24.969102265623775 -7.828939100326465 216 178 159 255
13.947811743559583 -25.797932717846891 -6.344753949399745 216 178 157 255
12.455014508702277 -26.428347012568736 -5.016223321339851 215 174 154 255
11.128398439995578 -26.858327008755310 -3.842498718863567 209 168 148 255
10.288593301673046 -26.665438966032980 -3.124107147918295 213 172 152 255
9.183309746959821 -26.827741607008448 -2.156615759124179 214 173 153 255
8.241398129010889 -26.784455302444570 -1.341763317146246 218 177 157 255
6.929206835584324 -27.240974732258763 -0.179232422686482 218 176 156 255
6.152563935715563 -26.995596609397694 0.481502362258169 217 175 155 255
5.165651170180013 -27.038246785446717 1.339888165089917 216 175 154 255
4.498824761754094 -26.657486057773212 1.898147677015118 215 174 153 255
3.411147707139207 -26.852191057600436 2.851967954083989 216 174 154 255
2.853161844904491 -26.334255118614607 3.308506763175302 215 174 154 255
1.980835513257432 -26.250300471892899 4.060714122023882 216 174 152 255
1.372778711316954 -25.808976123016436 4.564717911645630 215 170 149 255
0.922603677344853 -25.151988804293978 4.920318067080274 211 166 145 255
0.577055893077727 -24.350080409446605 5.177461526160528 206 161 140 255
0.231332896150121 -23.547864346688812 5.434727327621545 200 153 133 255
-0.114565056889006 -22.745340407171739 5.692115903505510 190 144 125 255
-0.460637750607162 -21.942508298915868 5.949627724697393 179 134 115 255
-0.806885011164155 -21.139367646009049 6.207263301225623 167 125 103 255
-0.740918776122300 -19.744954765208405 6.075962200617425 153 112 90 255
-0.317087852534769 -17.828005738712534 5.606513567588991 146 105 83 255
0.718576861643868 -15.012250567204489 4.558659793138730 130 93 67 255
1.952228324086690 -11.885977115160358 3.322585619902100 113 82 54 255
4.301516525474881 -7.100777178875973 1.030774195483218 102 73 50 255
6.841494425894808 -1.991681311832394 -1.443639413184627 31 7 0 255
-49.197065020476686 -0.756322642827911 47.122766395143287 217 162 148 255
-53.650429060191371 -0.830376552794746 51.000862950807743 199 150 133 255
-54.691414526355061 -1.782547462982677 51.956020328232398 154 116 95 255
-55.359380652485285 -1.903023991945361 52.543653346378790 27 15 2 255
-55.657613827869355 -1.185760749793019 52.766311264791142 56 55 17 255
19.515908892866236 -24.491895008372467 -12.500277018331161 215 186 163 255
17.787969014285750 -25.355652962898034 -10.946523272796412 219 185 164 255
16.715936413178184 -25.405858665688726 -10.009236941959529 219 182 163 255
16.079240584070419 -24.910154719633852 -9.481444350048122 214 177 158 255
14.850460580168743 -25.177066253945782 -8.395666733746168 215 178 159 255
13.248821867601379 -25.936481190683111 -6.957838827611681 216 179 160 255
11.545270283127309 -26.845098607053927 -5.423000008011911 217 176 156 255
10.008308107751162 -27.555135351703655 -4.044305997678521 210 169 149 255
9.278018129453415 -27.223984749177930 -3.426000189298122 215 174 154 255
8.336019727547381 -27.176754540300323 -2.607572594915183 214 173 153 255
7.875218230690137 -26.499671834962243 -2.243221720800278 218 177 157 255
6.618742692080133 -26.883989526320448 -1.126996962091425 219 178 156 255
5.789788241359076 -26.708054873731584 -0.414235221434126 217 176 154 255
4.328994250945470 -27.389861981684021 0.896402082056085 216 174 152 255
3.558242455391280 -27.152663411990034 1.555030289220753 215 173 151 255
2.316067426311747 -27.563278918221783 2.660169810407297 213 171 149 255
1.969609207553958 -26.759922940000763 2.917808908406016 214 172 150 255
1.308972753687897 -26.388637825618389 3.473038221975457 214 172 150 255
1.015106532977768 -25.513723224284092 3.680871672868705 214 169 148 255
0.147832143294607 -25.435664732312858 4.432309097910974 211 166 145 255
-0.249467193996423 -24.707167488676276 4.738322148811562 205 160 139 255
-0.491159000387000 -23.759939006342449 4.896661918192819 199 152 132 255
-0.526615176518078 -22.518788266848816 4.859064474137540 190 144 125 255
-0.770117629717276 -21.568264034610536 5.018776344082539 180 135 116 255
-1.374646729792914 -21.131926945091209 5.521435999186053 170 126 105 255
-1.207746778407966 -19.589761731233978 5.290869691978543 153 111 89 255
-0.992218316067152 -17.968749832972605 5.013569567004083 144 103 81 255
-0.115039214846860 -15.376663970326916 4.106136683920596 129 92 66 255
1.011094069940953 -12.400960109460385 2.960596328302699 115 81 54 255
3.808778605500180 -6.945497198231976 0.221680326171708 102 73 49 255
6.235951430247439 -1.986828100156004 -2.166980979333914 31 8 0 255
-49.694507520375197 -0.723792113369882 46.525554335536157 216 160 150 255
-50.250755593772567 -0.542478173400980 47.001713022859775 210 158 147 255
-54.303576891504079 -1.166553478326023 50.577231099060668 168 121 105 255
-55.422845517052906 -2.305046459735536 51.616953896342324 84 47 28 255
-56.251926797663884 -2.799337298452883 52.368405151780976 119 94 67 255
-56.467863082974219 -1.897287655563332 52.508804715444370 201 170 141 255
-56.522375676052064 -0.619006538704014 52.487913409502909 166 158 117 255
18.801887695258984 -24.631000454099706 -13.127849036331753 207 184 156 255
17.295045435673643 -25.220633956569685 -11.774570672110087 217 184 164 255
16.224955580606775 -25.269903092637918 -10.834610503952717 218 181 162 255
15.696390966681633 -24.635609271421458 -10.407886575306151 215 178 159 255
14.093764518625790 -25.385003616116649 -8.961688102028262 216 179 160 255
12.603795189800593 -26.005687284724843 -7.621509246065330 218 181 162 255
10.797858308575343 -27.052959740905067 -5.980321627613876 221 180 160 255
9.425251880629702 -27.553585548066337 -4.749809355240103 214 173 153 255
8.323318020154744 -27.712272776234158 -3.775853277784790 216 175 155 255
7.437104966482366 -27.595913400211401 -3.006515264605440 215 174 154 255
6.659151728738891 -27.342772722893756 -2.339802849673276 218 177 157 255
5.565718154130110 -27.517110281259960 -1.372453306632735 219 178 156 255
4.844802434850635 -27.200939402307682 -0.759320098106969 218 177 155 255
3.809626680899555 -27.314483531926896 0.153511064403915 216 174 152 255
3.092506483311809 -27.005308674359583 0.763687035508610 212 170 148 255
1.905425973022062 -27.343318254668191 1.822317676284143 214 169 148 255
1.401531244160907 -26.754530985053094 2.229788581776290 213 168 147 255
0.898192814421378 -26.166779034611892 2.636816846973517 212 170 148 255
0.291366389463718 -25.724594540295215 3.142761524026071 214 169 148 255
-0.522017328807948 -25.574297657198684 3.846230466033319 209 164 143 255
-1.126267945784093 -25.136863898896195 4.350165517424898 203 158 137 255
-1.316221107681173 -24.117864449553224 4.458103323593349 198 151 131 255
-1.404009636236736 -22.950897203656183 4.468119722688243 190 143 124 255
-1.596016173799967 -21.928155544234983 4.577617872812226 181 136 117 255
-1.635053153445341 -20.682946388552750 4.540454214076021 170 126 104 255
-1.675724660512572 -19.434750020372491 4.504540350297304 153 111 89 255
-1.615934625788896 -18.035460463404320 4.372019233629800 142 101 79 255
-0.845299683051479 -15.592423553670216 3.557435029761848 132 92 67 255
0.631069784922232 -12.096268098441186 2.064724551393056 117 82 55 255
3.466940860026540 -6.566233892789711 -0.734593637351963 104 73 51 255
5.731140590377208 -1.832188081975346 -2.987889231276370 29 7 0 255
-46.932677456353332 -0.639322126696072 43.065142497754778 152 150 106 255
-47.663923363241679 -0.806161699079041 43.716002526981072 199 172 141 255
-48.224735247449402 -0.614815897183234 44.197218447218930 207 163 141 255
-54.546940253385628 -0.575220885014005 49.744043615583678 79 34 15 255
-55.500489872992517 -1.339947131566305 50.624183122628153 143 100 81 255
-56.491124809630406 -2.204307639338936 51.542516156086492 201 158 135 255
-56.870469229597191 -1.674426117705764 51.846128687376989 198 163 134 255
16.477512504214189 -25.496428424187911 -12.295018451400949 211 183 159 255
15.356314052857840 -25.614770581120609 -11.301569853027416 214 178 159 255
15.096967235359074 -24.636874245912708 -11.131211865862383 217 180 161 255
13.605509046033660 -25.247353604596896 -9.782957915241553 218 181 163 255
12.172421318420419 -25.797603392206668 -8.489640320522824 220 181 163 255
10.797337302337439 -26.286949851489055 -7.250975416157928 223 182 162 255
9.479890310332564 -26.714719381579414 -6.066679623259091 222 181 161 255
8.060556214882098 -27.290263617297768 -4.784025487103946 221 180 160 255
6.910580123849257 -27.523298661920194 -3.758620435076210 217 176 156 255
5.922513972500440 -27.551376600234136 -2.887798867332378 219 178 158 255
4.779141174183195 -27.796561859208026 -1.867519066095667 220 179 156 255
4.270024608275094 -27.197309589674262 -1.455201031212169 219 179 154 255
3.656579538869636 -26.741349735389690 -0.942638938519394 216 174 150 255
2.887217800369939 -26.501376140623307 -0.280146426081018 213 168 145 255
1.754243522571699 -26.765702049040215 0.732055792019992 213 167 144 255
1.093440832239935 -26.390243666259579 1.290999020624383 213 167 144 255
0.330017413715552 -26.161207606974017 1.948872320034582 209 167 145 255
-0.379797364540707 -25.863196921737455 2.555489646024284 210 165 144 255
-1.139790892881337 -25.640478887017139 3.210694343191307 208 163 142 255
-1.588475020421015 -24.984872853532920 3.566399834227610 202 157 136 255
-1.882444260268386 -24.111104857853377 3.773074684568428 199 152 132 255
-2.022794746163925 -23.017163966219471 3.831564134381097 192 145 126 255
-2.061845823816782 -21.774402971009806 3.792118042714208 184 137 119 255
-2.153633049051450 -20.602241235362953 3.803232903325380 173 128 107 255
-2.297790725279015 -19.501348858057469 3.864627462638566 154 112 90 255
-2.188803273714001 -18.028198692498563 3.681279439776802 141 99 77 255
-1.168919442809795 -15.214115100434981 2.617208658151469 129 89 64 255
0.451601089052389 -11.493924052427815 0.971093579058902 115 79 53 255
2.718873816022921 -6.784894584949257 -1.302534793150812 101 70 47 255
5.477042435371970 -1.303107446374383 -4.053777517977665 32 13 0 255
-46.874421800235226 -0.805260713153473 41.975358589697933 191 168 132 255
-47.900633752899722 -1.599049841479427 42.926040936385419 207 167 140 255
-48.460898579811669 -1.406902895502753 43.408507941531809 205 159 138 255
-49.061907294073890 -1.307304912298207 43.932335755513691 209 161 141 255
-49.410913039551900 -0.665951698490858 44.202456839288431 211 163 147 255
-54.572220499699370 -0.892630634151487 48.766248120898368 116 66 49 255
-55.663392450782709 -0.561176177270170 49.709488959237888 204 158 138 255
-56.992021312845253 -0.797960287025660 50.895407545561199 73 68 30 255
15.714812885492364 -25.703735120064778 -12.866035224022824 204 185 154 255
14.489168177576772 -25.959529090981192 -11.767038050834486 213 177 157 255
14.283248534858899 -24.913705219594590 -11.649075303011614 216 180 161 255
12.529230236170719 -25.869890344932344 -10.040217044236385 218 181 163 255
10.994301646400032 -26.560160159828115 -8.641309905440892 223 184 165 255
9.836317608648869 -26.773203701889685 -7.604816652214623 223 183 164 255
8.946743680814933 -26.643842466498086 -6.826550289575607 223 183 162 255
7.266492332787294 -27.568475314820887 -5.284900632093894 218 177 157 255
6.383278878129403 -27.450821491559338 -4.511574751888361 215 174 154 255
5.397092629438021 -27.478212078359462 -3.638368767335947 216 175 155 255
4.623645830988067 -27.228031419864465 -2.970211643482742 215 174 152 255
3.904350300694631 -26.910243313353220 -2.354073457517757 216 176 151 255
3.186587475799143 -26.595283234193914 -1.739132147784971 216 174 150 255
2.313965251365516 -26.497143872013055 -0.974051242601092 214 169 146 255
1.547625107115664 -26.260064239382842 -0.311432878062050 214 168 145 255
0.938722229045879 -25.810923052028414 0.199030368057720 213 167 144 255
0.072039619432331 -25.723722993687915 0.959491624520069 209 167 145 255
-0.792379017568891 -25.640689211399490 1.718195187020370 210 165 144 255
-1.242364004829568 -24.982227840451429 2.075338358291020 210 165 144 255
-1.949032085530689 -24.687717335577560 2.681635877800090 204 159 138 255
-2.449057531565728 -24.104444940015441 3.087591056982944 201 154 134 255
-2.897369507798174 -23.449087013951186 3.443412459907506 195 148 129 255
-2.937095021236900 -22.207573765340072 3.402182911960665 187 140 121 255
-2.876629791653102 -20.815941457351045 3.263191445265733 175 130 109 255
-3.123028298997525 -19.863165206072637 3.422299095238657 157 115 93 255
-2.559384140085854 -17.724988124101969 2.792811614592267 142 100 76 255
-1.494821045523310 -14.836111463857151 1.674578878393930 129 89 64 255
0.016586774028269 -11.264301528391059 0.119544194427050 112 77 49 255
2.424291832052688 -6.331400139166306 -2.311096867664958 98 71 45 255
5.219906303568735 -0.774415887025157 -5.122850105613111 36 25 3 255
-46.774896521270790 -0.884353923640219 40.839415560768316 202 175 141 255
-47.632530926718346 -1.313678380742317 41.624548911317390 209 163 140 255
-48.403427693270814 -1.568153166555135 42.322340477648694 207 157 138 255
-49.046493261066530 -1.556193400801590 42.890860794712296 206 156 137 255
-49.562821374437050 -1.275788860832563 43.330956664344455 209 163 143 255
-50.119830390090073 -1.087683829516095 43.812703116471624 213 167 151 255
-50.592780680559940 -0.719804541475753 44.209182728719185 215 169 153 255
-51.189095972092758 -0.626479753145816 44.731557884973924 217 168 153 255
-51.784036557236021 -0.535635940273721 45.252911013694444 215 163 149 255
-52.418701792694264 -0.538846802215346 45.815176556246456 213 159 145 255
-53.092731087887799 -0.636774689573258 46.418075695471686 212 153 141 255
-54.475975198387232 -0.934932740082218 47.661360141395278 195 137 125 255
-55.608428138651476 -0.691161869503333 48.649972554644066 205 157 137 255
13.943955377636541 -25.892440601904923 -12.541635304024311 211 180 155 255
14.056769225846722 -24.433149500801562 -12.734273585551108 210 179 156 255
12.519198877112444 -25.110728572122042 -11.326058105842378 215 182 159 255
10.403391748136301 -26.560113966180268 -9.355506628237265 222 184 163 255
9.247978042521765 -26.772631456795125 -8.316136756543528 222 184 165 255
8.254435879617915 -26.782333765938176 -7.433371520699438 221 183 162 255
6.736916053100629 -27.496782708288208 -6.040696731493711 218 177 157 255
5.855203365658923 -27.378482113965333 -5.265376437838540 210 167 148 255
5.185471808733496 -26.982692817865967 -4.695886338615168 215 173 151 255
4.673950258229752 -26.377367132496772 -4.280173844437257 215 173 151 255
3.432395642263202 -26.765164179556052 -3.153306042877688 215 173 151 255
2.298939909429691 -27.018091925004455 -2.130985752175434 217 172 151 255
1.428674134224138 -26.920874139387422 -1.364568904894270 213 168 147 255
0.975226470374764 -26.255550664795578 -1.004283268981851 212 165 145 255
0.418698263758841 -25.734333156927079 -0.543347782901179 212 165 145 255
-0.188603517121805 -25.286581597740621 -0.032684517955687 211 164 144 255
-1.052127273984041 -25.201787157978202 0.728482836928976 211 164 144 255
-1.605396880816812 -24.686586021285876 1.186870133510666 211 164 144 255
-2.618753401354354 -24.826737457321030 2.095317447426964 208 161 141 255
-3.271499278002722 -24.462263208677086 2.651567300841151 205 158 138 255
-3.566192466663466 -23.588470134101271 2.857592524384984 198 151 131 255
-3.759612719191864 -22.567278811876690 2.964339608432141 190 143 123 255
-3.953935856929036 -21.544440586439777 3.071774108183348 180 134 111 255
-3.997358347282358 -20.298648491867596 3.031074696289807 165 120 97 255
-3.386181172727333 -18.087971423050760 2.347952100512316 147 105 81 255
-2.326579925897477 -15.200566980784458 1.223742901383162 133 91 66 255
-0.771601784973313 -11.555973592281532 -0.388347261508642 116 80 49 255
1.976708705897806 -6.102238462054828 -3.174755509039358 93 69 38 255
-36.910450866128883 -0.566233445943624 30.995610450947026 187 150 125 255
-37.670152466259367 -0.671438834900698 31.677154342108736 194 155 131 255
-41.091547478140342 -0.556086049792953 34.709760273818176 197 162 134 255
-41.925205561421194 -0.858649817811852 35.469660873253389 198 163 135 255
-42.627694920314028 -0.902016622087444 36.096683381139371 198 163 135 255
-43.456455866707188 -1.213506573961126 36.852861468905360 198 163 135 255
-44.069572444513881 -1.087568250365052 37.389851892948968 195 162 133 255
-44.596311058802314 -0.786858052932132 37.839094118152389 195 164 134 255
-46.465824255572230 -0.520012248515002 39.484185505448295 207 167 142 255
-47.450015583359360 -1.212581908772449 40.402730856537460 213 166 144 255
-48.095611785616498 -1.193462675457454 40.975535566549368 206 158 142 255
-48.656059679433895 -0.997309441104107 41.461546061067594 201 153 137 255
-49.590074097011353 -1.615232627253079 42.330903355788479 205 156 139 255
-50.396221018491985 -1.967890263162985 43.069939528563793 213 166 148 255
-51.406734681606920 -2.778619619271694 44.019509846320560 214 165 148 255
-51.835644048416526 -2.323823897555428 44.372471988583158 214 165 148 255
-52.140695556160239 -1.596392523497400 44.598217992179599 213 162 147 255
-52.487099719864915 -0.959659591534546 44.866474330603538 209 157 143 255
-53.201756410728507 -1.146766335236862 45.513966481840740 210 157 144 255
-53.955104238169952 -1.429462714951228 46.201908808785092 214 154 143 255
-54.624788071722989 -1.532392969129432 46.804209875876353 211 153 141 255
-55.170996241658173 -1.361981978393544 47.279593624100073 207 151 138 255
-55.635247056941424 -1.008666098906360 47.670659363531399 209 157 143 255
15.207312256569907 -23.493001365282964 -15.083915796012775 208 189 154 255
14.889114881805966 -22.576440325577551 -14.860092631954160 209 178 151 255
13.034314839991254 -23.661602757319883 -13.134424349024812 214 184 160 255
10.234883782104987 -26.005963433806585 -10.483623276493489 220 184 163 255
8.342878566121499 -27.189150512803906 -8.718380831891977 222 184 165 255
7.562492934034168 -26.920840211581123 -8.039867676828123 222 184 163 255
6.206567038404302 -27.425227790465982 -6.797338679900434 220 179 159 255
5.326355742227548 -27.306280735706366 -6.020023680708505 193 150 131 255
4.866324651631714 -26.628346713698477 -5.654167622505298 198 156 134 255
4.146020304176204 -26.304098397284662 -5.032978770435392 212 170 148 255
2.647319181694940 -27.045321323200881 -3.647631171776936 213 171 149 255
1.257557431853741 -27.653954073813338 -2.368162534380389 216 171 150 255
0.545268750291825 -27.344458465540669 -1.753198593038888 214 169 148 255
0.299179417461289 -26.394163965312373 -1.596104047446687 212 166 145 255
-0.256616674378563 -25.873096138069258 -1.134626844659351 212 165 145 255
-0.862996349410565 -25.425474150191832 -0.623226635538344 211 164 144 255
-1.622121851046614 -25.196338035216144 0.038734106844373 211 164 144 255
-2.174901942248852 -24.680840340069125 0.497851279141855 211 164 144 255
-3.288103165805524 -24.965776072027552 1.509327213128870 209 162 142 255
-3.888837688576814 -24.528556889672785 2.016331394186693 208 161 141 255
-4.336196515733519 -23.874029619017449 2.372268722426554 202 155 135 255
-4.479310449637609 -22.780277011874546 2.428015156422674 195 148 128 255
-4.623570262851501 -21.684431034295898 2.484637009518792 186 140 117 255
-4.668152433592695 -20.438994510135558 2.442530136404514 172 127 104 255
-4.060597550395329 -18.228937645563462 1.755465904132848 157 115 91 255
-3.357500741149153 -15.861701885228882 0.972863049290964 142 100 75 255
-1.808891015291806 -12.219677335308802 -0.647527425318373 119 84 52 255
1.028356043305166 -6.619716190731936 -3.545766447039227 96 68 39 255
4.049083108651701 -0.691439263821280 -6.629211702401278 61 49 17 255
-29.630304561240507 -0.907078769495229 23.419598793513813 190 148 124 255
-30.455386876893186 -1.055456830692492 24.165374307249522 194 150 126 255
-31.412174532876264 -1.460892454276404 25.045512279572620 194 152 128 255
-32.365804859793144 -1.872101756707139 25.923232900762883 196 156 134 255
-33.227337767069173 -2.119784696708109 26.708097208029187 201 158 137 255
-33.908800611208733 -2.032865449653002 27.310413113118301 199 156 136 255
-34.367417615035862 -1.523583753664411 27.686269445500159 203 158 141 255
-35.134307595731769 -1.612365575283434 28.376355975044703 203 157 141 255
-36.074970885824712 -2.047261064917052 29.244172819319601 201 155 139 255
-36.924758926337944 -2.316384517622055 30.020079039080230 201 155 139 255
-37.640654171424387 -2.332419261884979 30.659976988139164 202 156 140 255
-38.790870294019669 -3.213980358915364 31.744080698403423 204 158 142 255
-39.414696525768335 -3.066407231172889 32.291171486859071 206 160 144 255
-39.906935768845642 -2.661510591358365 32.704036337697630 206 160 144 255
-40.398465306527072 -2.257888906977541 33.116379000067582 201 158 141 255
-41.018711166336345 -2.116805349294737 33.660782036849582 201 159 140 255
-41.680547464357687 -2.065629379594213 34.248207486445267 202 160 140 255
-42.469412450052360 -2.280089494057279 34.966390220419527 205 162 142 255
-43.512554700250632 -3.025447795353330 35.946229810562187 207 165 143 255
-44.338570477758637 -3.337936695742997 36.704033415499538 208 164 144 255
-44.821668878464635 -2.949615948257815 37.110029144212263 208 163 144 255
-45.304078234619013 -2.562528221470643 37.515522352774724 206 165 145 255
-45.912684115956949 -2.442602487860313 38.051131852754864 204 164 144 255
-46.140323220157569 -1.525423591978551 38.194678344548606 206 165 145 255
-46.915412069720773 -1.764957880984014 38.902422719487959 207 164 145 255
-47.184958202482079 -0.937065331841723 39.089273230798000 209 161 141 255
-48.207620260432861 -1.719773984826247 40.053526104008853 211 164 144 255
-48.601132552116056 -1.163102007389170 40.368803807910339 207 161 142 255
-49.410139607571978 -1.506525139965788 41.113741581033935 203 156 140 255
-50.175099087473171 -1.764487497596292 41.813818739632666 202 154 140 255
-51.061678735911755 -2.298015966323987 42.640475459545854 206 157 141 255
-52.109994904600782 -3.199757215018849 43.635565243244116 203 154 137 255
-52.620186656972592 -2.927577230025236 44.073740774203316 205 154 137 255
-52.760831919907574 -1.837153861869865 44.128695664959608 202 150 133 255
-52.943612392069127 -0.835625939837371 44.227104839336420 197 142 126 255
-53.738235051190046 -1.205206849204444 44.961165152186368 205 148 134 255
-54.895657684028635 -2.405350397053496 46.073297279952683 201 147 134 255
-55.522127282658516 -2.418388962654774 46.634070433026679 189 132 121 255
-55.904865337518686 -1.881075708079663 46.941417619270197 164 110 98 255
16.510016428861661 -21.026506765317095 -17.692486527146684 191 193 148 255
15.128873346433949 -21.477800663245773 -16.424180284446038 210 181 152 255
13.066029354816351 -22.834706082275375 -14.483696390095503 215 181 157 255
10.273586605110324 -25.175217633657013 -11.822832081240165 221 184 165 255
8.332806390073785 -26.424382806714533 -9.999063394489639 221 183 164 255
6.818501344376585 -27.129064591566419 -8.594346933986486 220 182 161 255
5.675447478966106 -27.353810743167656 -7.554824610103850 217 176 156 255
4.692394842838382 -27.374519008769312 -6.672511894113569 202 159 140 255
4.336692035154584 -26.555801087968263 -6.409225375445573 144 102 80 255
3.928887615538684 -25.807377435323218 -6.094505423071553 204 162 140 255
2.744068166527825 -26.121433297280305 -5.011569270719093 209 166 144 255
0.891089225167320 -27.365947402441577 -3.266901147737002 217 172 151 255
-0.026877723151046 -27.340277271123625 -2.446122711721216 215 170 149 255
-0.325056425446064 -26.461301120086063 -2.238532628595038 213 167 146 255
-0.777605705680656 -25.796725087947607 -1.878104834595490 212 165 145 255
-1.383428389164607 -25.348562100293464 -1.365685448709115 211 164 144 255
-2.396799527932018 -25.479646538023360 -0.448847040963983 212 165 145 255
-3.254317605556736 -25.399074625111837 0.313988204904433 212 165 145 255
-4.109571612246953 -25.322667718229582 1.075067025447765 210 163 143 255
-4.556890163784743 -24.667745017117625 1.431408333259640 209 162 142 255
-4.953306340588995 -23.940351720743109 1.737218929940411 204 157 137 255
-5.046857819342478 -22.773408819072813 1.741856392769790 198 151 131 255
-5.192141852868872 -21.677431177832801 1.797648330980650 189 144 121 255
-5.087460339898797 -20.210719204725876 1.604330254872991 182 137 114 255
-5.035240648698561 -18.813633469058544 1.462730048708352 164 122 98 255
-4.385392754310175 -16.522573143488813 0.725042702937714 151 109 84 255
-3.242008841471772 -13.478301012801268 -0.505923229917357 134 101 70 255
-28.275941147496297 -1.549501536459104 21.112578327484329 193 156 130 255
-29.690061036012679 -2.769815367644583 22.462482619102929 210 163 142 255
-30.649723842647063 -3.165189743478379 23.349274587701956 209 160 143 255
-31.516690255184074 -3.398874556851808 24.142064331664784 202 154 139 255
-32.425624274754597 -3.721416762263345 24.978499411343279 207 157 142 255
-33.287116805877304 -3.965110884579872 25.767098692477418 210 159 145 255
-34.012726169043106 -3.960475694276852 26.417127917414405 214 163 151 255
-34.647825680732069 -3.790135611329163 26.974844659216984 213 164 151 255
-35.281466607657364 -3.622451951125413 27.531454702807849 211 163 149 255
-35.825570027427375 -3.287277412415392 27.996504043311631 212 164 150 255
-36.544382831578332 -3.295033204455535 28.641364468096043 211 166 151 255
-37.436456659211331 -3.648377812732178 29.464917864319659 212 166 150 255
-38.281953257926745 -3.921284730557204 30.241305667753011 211 165 149 255
-38.950566806842346 -3.855205631150966 30.836246505804127 210 164 148 255
-39.660931723772023 -3.878376283944647 31.474669963381473 209 163 147 255
-40.456003184658698 -4.077860403271416 32.200966135741396 211 165 149 255
-40.946309659204246 -3.675358591216764 32.613407504402659 211 165 149 255
-41.565127128776112 -3.534674037436162 33.158768299721658 209 166 150 255
-42.096607878201880 -3.222453197333266 33.614272774566501 210 167 150 255
-42.627143410803342 -2.911940454056435 34.069072455199802 210 167 150 255
-43.284868259518845 -2.865670490736704 34.655771651641885 210 167 150 255
-44.537181952617075 -4.050729644337309 35.858708590298619 211 168 149 255
-45.444697490780527 -4.541370218740326 36.705661520844899 210 165 148 255
-45.925625811390319 -4.155893891174401 37.111037585685779 209 166 149 255
-46.236959267627356 -3.418041905272787 37.340604253122649 209 167 149 255
-46.759103506973474 -3.122762592687877 37.789082542453002 209 168 150 255
-47.364292807052976 -3.006842947518976 38.324154126204206 211 168 151 255
-47.926213558686214 -2.804402533832956 38.814623593348188 213 167 151 255
-48.361747187184108 -2.336184138466024 39.173871006691826 211 165 143 255
-48.671986659687718 -1.600179084771071 39.402742457359864 208 163 142 255
-49.231527810823778 -1.402009148772379 39.891465110791998 207 162 141 255
-50.079573298789370 -1.835632395128300 40.681526099121939 207 162 143 255
-51.007292414327921 -2.454807115316385 41.555574445071585 206 159 141 255
-51.931687371256075 -3.080054414345341 42.427083433271591 206 159 141 255
-52.688698333171232 -3.348859382202477 43.124497747319239 204 154 137 255
-53.075310535612800 -2.804292165305867 43.434968191311299 186 137 120 255
-53.339439800904330 -1.986768047136877 43.617242358997402 159 110 93 255
-53.726092902868572 -1.442048960839884 43.927815564741863 156 106 89 255
-54.477365861403840 -1.721247430589074 44.620928775166490 170 118 101 255
-55.266712441588567 -2.096441759290258 45.354689560598615 172 121 105 255
-56.295211104260758 -3.028121445974875 46.340447189270549 188 129 117 255
-56.596684052215053 -2.307775893417272 46.562951059865853 188 135 120 255
-56.618187024823555 -0.939871474416634 46.490798386045043 137 110 82 255
15.414881542519623 -20.311126406241954 -18.047235008123323 198 188 147 255
12.935021482272418 -22.215427118303751 -15.681606331262287 214 182 154 255
9.730173001504312 -25.106635042797450 -12.594372110527132 219 184 162 255
7.585296788066330 -26.632577228524724 -10.556784696119962 220 182 163 255
6.336388699237659 -26.988851671797192 -9.407531604882934 220 182 161 255
5.039351603736549 -27.422344387692391 -8.209570970859943 216 175 155 255
4.058424989018050 -27.442813898172858 -7.325060910892205 200 157 138 255
3.858152212653465 -26.413040040279469 -7.216727293999469 158 116 94 255
3.656974231930377 -25.381618841918055 -7.107708011619422 134 92 70 255
2.887115308212799 -25.127372687266757 -6.432447616316551 202 160 138 255
1.140647047005842 -26.225893672664910 -4.783491902481529 213 168 147 255
-0.342548798510620 -26.979947355774158 -3.395626442331462 214 169 148 255
-1.000548443071011 -26.599969807919990 -2.829888871308299 214 167 147 255
-1.401615453634633 -25.863888047516866 -2.520347191767598 213 166 146 255
-1.904623732447476 -25.271790599696175 -2.108983996436137 211 164 144 255
-3.017689815492361 -25.546459586959458 -1.087865667012238 212 165 145 255
-3.974984162038083 -25.610427977872689 -0.221712025852042 213 166 146 255
