ply
format ascii 1.0
element vertex 660
property float x
property float y
property float z
property uchar red
property uchar green
property uchar blue
property uchar alpha
end_header
50.253077716417835 -9.039397383097622 -8.536976956523930 160 123 104 255
48.708034303770518 -9.212273521068340 -9.216018970975611 157 122 102 255
48.003214059131693 -8.574611417724782 -9.562528681890498 151 121 97 255
46.882006868914203 -8.348558989415068 -10.073298715872909 144 116 93 255
46.110339379161388 -7.783847891196103 -10.445799853090989 141 113 90 255
45.894043867248826 -6.670667795207947 -10.599151465383102 136 108 84 255
46.091630147870745 -5.141642277069820 -10.589546565758852 131 101 78 255
44.975421552735668 -4.924115739581794 -11.097598572684660 125 92 70 255
43.241797824420615 -5.336166413038427 -11.848237241946862 99 61 40 255
41.444313911164869 -5.826229770030352 -12.623295263280397 167 124 105 255
40.543923844634662 -5.415877516153614 -13.045112706169164 175 130 111 255
39.097395222154006 -5.569692108659780 -13.681139325003528 175 128 110 255
38.748194522168120 -4.603773532881576 -13.886023826236539 164 121 103 255
38.807812781268950 -3.213409972154977 -13.930648410456143 153 114 97 255
38.933462227461661 -1.748736227121412 -13.949673906586284 134 106 83 255
51.971203496515813 -9.169115204183782 -8.885074198744874 164 123 103 255
51.331636139420453 -8.456232626787113 -9.205752936190663 161 120 102 255
51.531863582658929 -6.929719912326476 -9.197839754206825 158 121 102 255
51.310711014833061 -5.807520380534839 -9.354986413908335 151 120 99 255
49.416615344799908 -6.323900829689933 -10.165729426514588 144 116 94 255
48.084190561344911 -6.300933948183115 -10.756444753271708 141 113 91 255
47.657223474164397 -5.389195949671091 -10.993487468213800 136 108 86 255
48.061246442791372 -3.648873918634706 -10.906625455279226 135 104 83 255
46.249687297618124 -4.118808909442009 -11.683246233096355 104 69 49 255
43.615306336298062 -5.431217793604389 -12.779396698596102 155 111 94 255
42.642023331246776 -5.084950066596491 -13.228223497383127 178 131 115 255
42.495464078156402 -3.902852311941047 -13.355416955488053 175 128 112 255
41.524481806139391 -3.560508342901642 -13.802993503822748 172 125 109 255
41.103166306732618 -2.658429367014492 -14.036932739687828 157 118 99 255
40.818331541167993 -1.614833035234142 -14.217951451194125 136 107 84 255
53.765484002864383 -9.236944133379126 -9.209676421823147 160 139 104 255
53.967537126064514 -7.711583618080397 -9.203850761674758 160 126 101 255
52.903658899286512 -7.399648000743838 -9.688619288977605 160 121 100 255
53.663346372662573 -5.326521665561529 -9.467368695219108 158 121 101 255
53.019938693841567 -4.607579234868922 -9.789365617940248 152 121 98 255
51.679296228309084 -4.573058098113961 -10.380683262986793 145 117 93 255
50.132983859568043 -4.749815253610279 -11.050923208643610 142 114 90 255
49.424973326385754 -4.108041709570557 -11.397079242648360 139 111 87 255
48.856614937293813 -3.329744725778653 -11.689242538892245 137 107 83 255
47.249837529326697 -3.590695422353974 -12.381443502970242 98 61 40 255
45.301822085909521 -4.206391700275731 -13.204373452273671 184 139 120 255
44.118320757812398 -4.065095396330321 -13.732317261703599 179 133 114 255
44.039188866393857 -2.809722418342631 -13.835266522252851 171 128 109 255
43.546233799611997 -1.972675836051224 -14.097401962573628 159 121 100 255
43.396286215158000 -0.783906583772136 -14.227838665204487 138 109 85 255
56.462232365466235 -5.782448140977522 -9.344318822363078 154 130 98 255
55.463806307493343 -5.396242602729870 -9.802189221742196 159 122 97 255
54.607672810235584 -4.877605339102843 -10.205277920079467 157 122 100 255
54.033108369253370 -4.088970484022127 -10.500427159021910 151 119 94 255
53.109366011893172 -3.642585594025377 -10.928978678664464 146 116 90 255
51.419818789967650 -3.953188906134926 -11.649768318684323 143 113 87 255
50.013443115143815 -3.996514755294413 -12.261767813286383 143 113 87 255
49.375170689116914 -3.286777232920315 -12.580272239794482 142 110 85 255
47.627572875027084 -3.685871606883723 -13.321428497354248 97 61 37 255
47.338856927595572 -2.634559024004545 -13.506278937992150 175 134 112 255
45.943750255651281 -2.697060670899646 -14.112221884906504 169 127 105 255
45.517791830703146 -1.786786636390957 -14.349118818914320 159 122 98 255
44.885136748062791 -1.086636330535555 -14.664559421853085 143 115 88 255
60.073508216667136 -1.431670322607374 -9.156439380658455 156 125 93 255
56.608064915276515 -3.410797855949852 -10.547280972021326 150 123 94 255
56.521533817512847 -2.140508374321314 -10.657858609014767 148 120 91 255
55.032977457449277 -2.234101719220632 -11.298738740483145 139 112 83 255
52.849322419285642 -3.019684049690056 -12.201616544562981 135 108 79 255
50.951187774701594 -3.541189457986547 -12.995692185275487 145 118 89 255
49.824345417222020 -3.312880092952014 -13.497978537803164 148 121 92 255
48.908460810494290 -2.881111382236554 -13.920351916975903 105 71 44 255
49.103988191040202 -1.340923938541948 -13.923878256349596 171 137 110 255
48.258560925718228 -0.841587211963997 -14.319513406666474 150 121 91 255
61.311183262263711 -0.714480531316951 -9.808843605147359 133 133 84 255
53.078547783820994 -1.916943192876090 -13.289469755522916 131 119 79 255
51.738165935016497 -1.890131491952729 -13.869238859395864 138 129 88 255
51.584464149877050 -0.692133280991527 -14.006153453523382 102 91 50 255
44.251440679930226 -1.297086039991825 37.766298524620197 161 127 103 255
42.280450066688076 -2.427453756359057 39.012032941963810 151 114 91 255
41.182277518493436 -2.503162179060155 39.736364973255007 142 104 79 255
40.581098711336239 -1.972991681991971 40.164098987362067 136 100 74 255
40.289001987843307 -1.061332086708092 40.407637976452662 128 99 69 255
43.774493519283567 -2.433685702310527 36.929500784310420 170 131 111 255
40.690317600037247 -4.920848327075305 38.853237801835192 161 118 100 255
39.410000893691745 -5.226392807502293 39.690285019064873 153 109 90 255
38.935459914542946 -4.548762790720843 40.042373072251834 146 103 83 255
38.461209481164332 -3.871657933959852 40.394244374391093 138 97 77 255
38.540498322449650 -2.506027013650680 40.413665160140667 131 95 72 255
38.679231192842735 -1.060121906772395 40.397727831763149 118 87 63 255
43.112008194614219 -3.794050539026159 36.207891096537310 172 135 113 255
40.402861727920651 -5.819696785326300 37.917890629308502 164 121 104 255
39.185323550202384 -6.046335948991356 38.721410102928814 158 115 97 255
37.971006524612989 -6.278856551702063 39.522471657087308 154 109 90 255
37.990463349108438 -4.995342403083271 39.575181952370471 149 104 85 255
37.209985352246520 -4.700929735826833 40.112786202444724 140 98 78 255
37.288987995356706 -3.337689932280455 40.129724528774233 129 91 70 255
37.182600681831502 -2.201254231776488 40.259171715058727 120 84 62 255
37.380237429663964 -0.677729297298129 40.204913763088001 120 86 60 255
43.255775126598508 -4.176626873268049 34.996772591062836 178 142 118 255
40.239170889695600 -6.567788831958950 36.907283442881578 170 126 106 255
38.652096953277493 -7.243407077593616 37.941267995275410 160 115 98 255
37.623959473297901 -7.246914192545091 38.632602568095635 158 112 95 255
37.151461020239651 -6.572287316780347 38.983805275435259 155 109 90 255
36.679253380291385 -5.898189980946142 39.334787420235543 149 104 85 255
36.329770815845478 -5.072022365638190 39.610760856157924 140 97 78 255
36.407755656784445 -3.709835724528432 39.625776954904794 131 89 69 255
35.813133958384526 -3.188354204594134 40.051551196584384 130 91 70 255
35.706098833601061 -2.052545332581303 40.179815234603694 142 103 80 255
34.990603937274983 -1.686487131862862 40.679211301523949 137 100 76 255
43.584368181830683 -4.338071062568872 33.667363532822350 169 144 114 255
39.642994075140109 -7.841063631125536 36.163013801489797 177 135 115 255
37.872954506759640 -8.738812048048288 37.316093015608658 164 121 102 255
37.031087040911899 -8.515647925262499 37.895613537456427 160 114 98 255
36.682132868875101 -7.690808478517567 38.170846937605944 159 112 95 255
36.026618281031006 -7.244777811098601 38.635103654795486 157 110 92 255
35.800180590937600 -6.268219693442262 38.834808544329121 149 104 85 255
35.451000930881094 -5.442966305013954 39.110216069245638 137 94 75 255
35.345249928323312 -4.311339293585945 39.235797245870017 138 95 76 255
34.508915492064972 -4.098266006610970 39.811106708552245 149 106 87 255
33.795662303577927 -3.734494274933013 40.310466880166842 156 111 90 255
33.265298266530920 -3.141513842654263 40.697222768839666 138 97 75 255
33.339652249927042 -1.775561500838990 40.712354796743881 119 82 59 255
39.787922361471828 -8.215153561405771 34.960841213157721 178 139 120 255
37.402843694195781 -9.855349279767239 36.504246243599283 170 127 110 255
36.131734400771705 -10.157300689945657 37.353181891809356 163 119 101 255
35.784013589660447 -9.335065587302438 37.627147534047950 160 114 95 255
35.497300961068703 -8.436882583507639 37.863198600545019 157 111 94 255
35.454482407798025 -7.234639215807988 37.947711618723901 155 110 91 255
35.166398640891941 -6.333954854412582 38.184806922387580 147 104 85 255
34.817034498862569 -5.508723489019019 38.460022566337557 139 96 77 255
34.346038929589099 -4.836094969546821 38.810769745793593 145 102 83 255
33.390570921764834 -4.777638585222576 39.462065438511132 156 113 94 255
32.618768946943277 -4.492487085768573 39.999148944908470 157 112 91 255
32.029534579338360 -3.978632530723530 40.422860600166445 119 74 53 255
31.922917273235043 -2.847196881449065 40.547459207813162 147 105 83 255
32.295989083851481 -1.092831319690390 40.375181494280483 129 95 70 255
37.486789042569654 -10.297948132353156 35.346907277859543 180 133 120 255
35.970421502570133 -10.894898877699347 36.354512193526887 170 124 111 255
35.193637462869361 -10.598466386247736 36.897422071657388 165 114 100 255
34.785202570277562 -9.852710714036675 37.209082939027780 160 112 95 255
34.620883994017788 -8.804759325606938 37.367683879188974 154 110 92 255
34.638321540131841 -7.527729747557999 37.412506465741643 154 109 90 255
34.350231468442132 -6.627753788181394 37.648939254094444 147 104 85 255
33.819096766753518 -6.031933632200776 38.037611139250657 142 101 81 255
33.046382656338153 -5.742942298090384 38.577406207836205 151 110 90 255
31.973147002218127 -5.840138198764777 39.304997938231949 161 116 97 255
31.143784762827693 -5.634681308106906 39.879727663802285 153 108 85 255
30.556831356906741 -5.123895142995252 40.302715104345026 125 77 57 255
30.450986104769925 -3.995685668562487 40.425040784795314 163 115 95 255
31.003077811793446 -2.011972338763826 40.136691420718662 140 95 74 255
38.245872063859281 -9.924295000912650 33.758495822279286 180 137 120 255
35.563675417954869 -11.931742430427960 35.510413295171247 176 130 114 255
34.726419372677185 -11.709306187772825 36.093545188241592 167 120 104 255
34.440576611873041 -10.814133380907862 36.327614441894866 161 115 99 255
34.276193693386659 -9.767503611536881 36.484930500543783 156 109 93 255
33.806737376840942 -9.096941522941336 36.835192853270655 153 109 91 255
33.701812585181102 -7.972266220553649 36.955098043946066 149 106 87 255
33.595714856071595 -6.845450445447341 37.075897166150583 146 103 84 255
32.944282864440879 -6.402479861966441 37.541111895933199 146 105 85 255
31.871493661319647 -6.496483657812973 38.272077510873288 153 110 91 255
30.921875246475992 -6.442141191642975 38.924996695455263 159 114 95 255
30.274983968183960 -6.007444772712063 39.386762027144130 121 76 57 255
29.749066522604068 -5.420386098470431 39.772161606343317 154 106 88 255
29.522947574543252 -4.447621342606965 39.968646482586649 160 112 92 255
29.833718265328372 -2.775576031144226 39.827174757280105 146 100 80 255
30.141610926947322 -1.098258028543228 39.687915586187557 127 85 63 255
36.627314099478582 -11.181246478551827 33.729292852414801 179 135 116 255
34.748729810444217 -12.221206728515853 34.979699012903211 168 123 105 255
34.035178358917506 -11.849568617537415 35.486073727546739 162 115 97 255
33.749085183621304 -10.954652015165919 35.719672744104855 159 114 96 255
33.341026305861988 -10.209556516090004 36.031071148788413 154 109 91 255
32.508534837507966 -9.993280816429831 36.612920941342281 151 108 89 255
32.404015968864400 -8.871154023481978 36.730841068584141 148 105 86 255
32.237928628895389 -7.822866126743605 36.888109959832121 146 105 85 255
32.010639606540025 -6.849084647646691 37.084449765873529 148 105 86 255
31.241302090035163 -6.561869418303303 37.625736841938050 155 112 93 255
30.653567433058782 -6.047472877818450 38.051344797261038 153 108 89 255
29.946799276577622 -5.688236018464636 38.552528864423621 103 56 38 255
29.301086531272006 -5.254215817598379 39.014762760507224 173 125 108 255
28.775726678856699 -4.667426185542638 39.400431204865484 161 112 95 255
28.667695631898653 -3.538837636014421 39.521076684514981 152 106 85 255
28.974431890091608 -1.863770339177734 39.378656396685642 138 96 74 255
36.403254120426226 -11.998744327278189 32.763258416567879 181 134 116 255
34.404100995313740 -13.181565980272723 34.099213596354502 175 130 111 255
33.447325695805858 -13.107537522753518 34.763728806691830 164 117 99 255
33.222608719602505 -12.139497531931113 34.957137109922172 161 114 96 255
32.875814746388642 -11.320349626033533 35.229102514942895 157 112 93 255
32.468250624405897 -10.576141106720115 35.540138581562928 152 109 90 255
31.818929228359991 -10.134078120653498 36.006473702947801 150 108 88 255
31.773925244083046 -8.936534030971814 36.084599464126342 147 106 86 255
31.306055009759632 -8.268116935223077 36.434347692518173 146 105 85 255
31.018733199362060 -7.371690688198441 36.668204124529609 148 105 86 255
30.371194632102856 -6.932888018680046 37.133174134962104 152 109 90 255
30.203409633754461 -5.882935887183891 37.290407806034636 147 100 82 255
29.736103686701881 -5.215536489908914 37.639737152271309 101 54 38 255
29.030704291905465 -4.856957275662012 38.141583808026354 176 128 111 255
28.088675565822143 -4.809869506035909 38.794832461602255 163 114 97 255
27.623716028776812 -4.146721612616147 39.142401733097415 157 109 90 255
27.869821720946447 -2.551200160252506 39.034911872277931 140 98 76 255
33.632733206613779 -14.660177496388997 33.496831509205975 180 131 116 255
32.494995829531575 -14.808996979481265 34.281638245206807 168 122 104 255
32.453757889248010 -13.620451740380958 34.354922842525411 163 116 98 255
32.350471872005897 -12.504152573113174 34.468586907945024 159 112 94 255
31.701450223354584 -12.061145701259875 34.936075567055440 156 111 92 255
31.294992444459012 -11.318938852776000 35.246284468878571 151 108 89 255
30.647532629363440 -10.878800252290148 35.712566020595773 148 107 87 255
30.843065212687179 -9.380512765526078 35.632958427942413 147 106 86 255
30.255965838733459 -8.865067489224401 36.060128975405974 145 104 84 255
30.148819004498108 -7.741754553040153 36.176706040697638 147 104 85 255
29.741629968367704 -6.998226682405857 36.487459801325144 150 105 86 255
29.632752090056783 -5.871747761488791 36.605362667681732 139 91 73 255
28.986932425249563 -5.434601728960615 37.070394686352159 114 67 51 255
28.460955724452276 -4.845215445088741 37.457896775417268 175 125 111 255
27.401941947708963 -4.952287758118132 38.189552051024506 168 117 101 255
26.878140209985816 -4.366850212560450 38.575415363515930 159 111 94 255
26.709130225627803 -3.316051061249766 38.732295619645626 148 103 84 255
27.128397861136932 -1.484101695211280 38.509852399423195 130 92 70 255
34.934109613960885 -13.621555184859744 31.543680931013171 177 135 112 255
32.456327249720687 -15.392744191910140 33.209535399655465 172 125 107 255
31.321960873711816 -15.543325731065465 33.995841967363788 166 119 99 255
31.159571799963146 -14.506059373971425 34.146331761171780 162 115 95 255
30.996252648039047 -13.467108200257741 34.297518840143056 160 114 93 255
30.530413631788605 -12.801609520755903 34.646449748332486 153 111 89 255
30.426042883201632 -11.685150794375318 34.759253514697718 149 108 86 255
30.320499635137196 -10.566558556746202 34.872945166709968 146 107 86 255
30.273736234700579 -9.370135268371598 34.948396709616873 143 105 84 255
29.447771804053161 -9.158084436570221 35.532396799440306 142 103 82 255
29.280349744188470 -8.111680002814552 35.686679254600961 146 103 84 255
28.992830283254534 -7.216313775007222 35.919369392520252 145 100 81 255
28.764336549733173 -6.243556966798394 36.113639658860109 129 80 63 255
28.001088126701916 -5.960849357443209 36.656407887294165 142 93 78 255
27.594671379976887 -5.218697998004416 36.966603490707996 178 127 113 255
26.538233467861772 -5.326452152757270 37.700020866828567 173 121 107 255
26.192235788652397 -4.509436140475657 37.970750221739536 161 113 95 255
25.904898512210508 -3.614351333425930 38.203348827117992 152 107 88 255
26.439366164944545 -1.627505595778189 37.901522391909168 136 96 75 255
33.328322281749422 -14.869710009795284 31.534501699994905 175 131 110 255
31.707572022236803 -15.606171656568108 32.645805567785146 170 125 106 255
30.696714056805433 -15.608275374912921 33.354501456773249 167 120 100 255
30.533577402961441 -14.571077458030402 33.504232971892634 161 114 94 255
30.309259709635455 -13.606980901150422 33.694357010648389 158 113 92 255
29.783610802181954 -13.016686164678504 34.083005859831758 153 111 89 255
29.738556601356805 -11.825534199775035 34.155159748418328 149 108 86 255
29.452545835762606 -10.933620056932398 34.386052221933880 144 106 85 255
29.285622180422166 -9.889556507428836 34.538628029316385 142 104 83 255
28.640644637156839 -9.451003937806149 35.005746551000669 141 101 79 255
28.532363347502951 -8.329222719504685 35.119849367047294 142 99 80 255
28.422912020840045 -7.205304575322202 35.234845522684168 146 100 81 255
28.015917437369581 -6.462091036005830 35.545488646870837 117 68 51 255
27.313210347462359 -6.102923084609159 36.050383395285621 158 108 93 255
26.670805242469669 -5.669055659525839 36.515549959545694 186 134 120 255
25.793792453382792 -5.546002910068751 37.134624873303949 178 126 112 255
25.506649929869184 -4.651999401831404 37.366402178552107 168 117 102 255
25.043076393893557 -3.990232393454448 37.713979652390307 156 110 92 255
25.223769109492338 -2.472032043313448 37.639037441576690 140 99 79 255
25.285232548037328 -1.105709251981750 37.642531750221593 122 88 64 255
31.970707763522654 -15.821770452283062 31.370377201597364 175 127 110 255
30.657353357546754 -16.190024998560006 32.283606992044895 168 122 104 255
30.312623490408242 -15.375972402275409 32.552767766890497 164 117 101 255
30.088066595051288 -14.412492435323315 32.742097929627903 158 113 94 255
30.283263590165632 -12.924418919751417 32.652710554109206 154 111 92 255
29.517018228331267 -12.631800162130020 33.201880447742894 150 109 89 255
29.350471618721116 -11.589843935097434 33.352853311274885 144 106 83 255
28.645731207873666 -11.225112620406037 33.861015166824870 141 105 81 255
28.538003702498628 -10.106134907927725 33.973033979345104 138 102 78 255
28.012940952698244 -9.516186345047089 34.361906745749877 138 99 74 255
27.963057518405151 -8.318398414956505 34.435723333868509 139 97 75 255
27.556512435885082 -7.575985786293842 34.746041839936225 148 102 82 255
27.150018585708267 -6.833664807133459 35.056323009096502 97 49 31 255
26.448756424411272 -6.475292630892909 35.561823099347976 171 119 105 255
25.748765846871891 -6.119236414660406 36.066358276358272 190 137 123 255
24.873886858162876 -5.997145881870779 36.686524519921392 185 129 116 255
24.235402918828868 -5.568942557507967 37.150085254238945 170 118 102 255
24.007278288698728 -4.598962524082026 37.342124643937893 159 111 94 255
24.245306099206687 -3.004641037914325 37.226014489069200 144 102 83 255
24.655399421004716 -1.171172793918004 36.996452137323217 127 92 72 255
32.232735322908781 -16.041412996421627 30.090170471975227 177 132 111 255
30.315738582725430 -17.142651664141908 31.413090716787337 174 126 111 255
29.549465350196272 -16.847705494541003 31.964392107398169 166 120 104 255
29.446005598739191 -15.738247830857375 32.071552943805472 163 116 100 255
29.341372246864353 -14.626663302188746 32.179594481818071 156 111 92 255
29.594809046956328 -13.064477000211809 32.048018398843226 150 107 88 255
28.949332493886544 -12.622017795796665 32.518294382794409 147 106 86 255
28.841548911166427 -11.504718206143821 32.628705533376547 143 105 82 255
28.316042057949403 -10.913192663407443 33.018627314262744 140 103 80 255
28.147386418679247 -9.868831478430025 33.169869224385764 137 101 77 255
27.859278403645021 -8.974505883532572 33.401047713344468 137 98 72 255
27.452450848210390 -8.231552160011290 33.711605244615328 136 94 72 255
27.222732374859561 -7.259773642291805 33.903830348072347 146 100 80 255
26.697847551973325 -6.669397801071170 34.293264555445091 96 49 31 255
25.997177219282321 -6.310261112129638 34.800023387705039 172 120 106 255
25.063166242970226 -6.261341697960631 35.462421981884319 191 139 125 255
24.131402985125987 -6.216519467573505 36.123111819980693 189 133 120 255
23.493933128737666 -5.788689205140258 36.587269282180273 176 124 107 255
23.090639735134403 -5.052150498639662 36.895165218981191 162 113 96 255
23.327216621055840 -3.459167084254773 36.776466173626659 147 104 85 255
23.793336533934337 -1.549008533473398 36.505047284300588 131 94 75 255
30.034643098078448 -18.020857292912893 30.502790133726876 178 131 111 255
29.088332717829587 -17.946057379597477 31.177747059681053 174 127 110 255
28.384475262971733 -17.579155283011801 31.688741790759536 167 121 103 255
28.700685785867279 -15.951832900533674 31.510870063376700 164 117 101 255
28.535555655283929 -14.915284880771480 31.658146318791182 155 110 91 255
28.846977412386650 -13.279247922204405 31.483901678080656 148 105 86 255
28.083386024021792 -12.987046113696664 32.035151813422686 145 104 84 255
28.094039976937097 -11.720385045892044 32.064058272638135 141 103 80 255
27.865760433727530 -10.752284210454775 32.254211750376300 139 103 79 255
27.932782130350887 -9.404855112818950 32.245358613464305 136 100 76 255
27.466231654530446 -8.736527870297692 32.596250200824926 135 98 72 255
27.058929467718428 -7.992680176684530 32.907195254475425 133 92 70 255
26.887000807150770 -6.943781052441580 33.059601513224550 144 100 79 255
26.479314673937552 -6.199232487638056 33.370839382752422 97 50 32 255
25.485817416775035 -6.222102302361236 34.076421976665785 160 110 97 255
24.027097693558460 -6.865161825262135 35.094866951247326 188 134 122 255
23.097903073181072 -6.821726598821840 35.756658520380597 189 136 122 255
22.753160188072769 -6.008378205344030 36.025154432820841 179 127 112 255
22.524422441929772 -5.039421007494866 36.215675841795701 164 115 99 255
22.700840970890170 -3.524285272952227 36.133920236553308 149 104 86 255
22.932727863201762 -1.926706584267492 36.015121682709434 130 92 73 255
31.440054621239057 -16.844456079919837 28.444012040921763 179 139 112 255
29.168652474146739 -18.380313358448802 30.024771741095833 178 131 111 255
27.984601221887061 -18.601470479086885 30.864497211702144 174 127 109 255
27.581988842152128 -17.866056798942424 31.171983269912062 168 121 103 255
27.657348326501420 -16.536668301882116 31.154156896641837 162 115 99 255
27.671183846128997 -15.278299433353197 31.178333982473589 154 109 90 255
27.623862680742434 -14.091619271558017 31.244235691286121 149 106 87 255
27.397003974894034 -13.127155671458979 31.432338219396513 146 105 85 255
27.524974483157763 -11.710542286703742 31.379245772607902 142 104 81 255
27.946447155928666 -9.913139724107339 31.126828761827369 138 103 78 255
27.951498977615046 -8.638785316515282 31.157659687747696 133 99 74 255
27.719351262399243 -7.664696243549031 31.349768709911643 131 94 68 255
26.781360506883118 -7.601901591098624 32.021329993811833 132 91 69 255
26.432034602941371 -6.780543996938121 32.292990374495560 142 99 78 255
25.614361087236745 -6.570757480437294 32.882597536095716 92 47 28 255
24.623255925970966 -6.594323450499104 33.589758158746747 148 99 85 255
23.401541263113984 -6.930180372693229 34.453174800175759 181 128 116 255
22.822983889933539 -6.423621187400954 34.880047716518732 191 137 125 255
22.535368926898741 -5.531579716433555 35.109567196946102 180 127 113 255
22.131499423257821 -4.793940600196891 35.417947696686923 165 116 101 255
22.132196675007208 -3.511598050676525 35.452135902054636 151 103 88 255
22.246571323228807 -2.070120366815331 35.409454827142127 134 92 76 255
22.243716446569323 -0.781257661782035 35.446385386390489 123 87 68 255
30.629187439443569 -17.130169173273714 27.920565639037420 183 138 116 255
28.184263611320802 -18.886783675161524 29.630470333106643 180 132 117 255
27.362187181778665 -18.666244367191155 30.225952540966802 175 127 112 255
26.720890912745858 -18.226886795324020 30.697238819788993 167 121 103 255
26.735687908923865 -16.972776238606343 30.718362294723761 161 114 98 255
26.808253420657707 -15.641185420420925 30.699980513464368 152 107 88 255
27.056836331068013 -14.082071123187745 30.561045382054147 147 104 85 255
26.947672166488218 -12.967614484342675 30.667538070116166 144 103 83 255
26.778274917414592 -11.926165412093667 30.815391300035458 141 103 80 255
27.020538867893862 -10.355544769531832 30.681248856054594 138 102 78 255
27.083712435372178 -9.006858183202610 30.669984710852589 128 94 69 255
27.203682136301609 -7.578904387623510 30.619967946041413 126 89 63 255
26.501461452006964 -7.211385101041287 31.133056078536868 128 87 65 255
25.917419612028624 -6.693698498194379 31.565146053195008 137 94 73 255
24.575864161113884 -7.171562578288956 32.515580242715771 83 38 20 255
23.762144222449393 -6.966412746408452 33.104564065485306 137 88 74 255
22.892098537061486 -6.841391336284175 33.731939405037679 177 126 112 255
22.313881156735249 -6.334330937956480 34.159592928414384 189 135 123 255
21.794291310370085 -5.751334214517556 34.547108453350660 183 130 116 255
21.390683881212453 -5.014146359563370 34.855314240077291 170 118 104 255
21.332722914411022 -3.810200829317864 34.927330976424656 153 104 89 255
21.503259994000047 -2.291546734541669 34.843370216250861 140 95 80 255
21.499346653355644 -1.003276696494936 34.878767612431318 128 91 73 255
28.861757192771734 -18.589044469411220 28.060875710693068 185 136 119 255
27.202069104367780 -19.393048545518411 29.238398906859658 180 133 117 255
26.501273646875376 -19.026146847603684 29.752239239848706 176 126 109 255
26.218142476902045 -18.143602948148526 29.977122376987666 169 122 103 255
25.934571930431815 -17.260275644160743 30.202323315061903 162 114 99 255
26.006005531018246 -15.929499846856373 30.182133993721209 154 107 89 255
25.957298576970260 -14.744596367149569 30.245100781479067 145 102 83 255
26.025169521898732 -13.407342404472303 30.227605106590431 141 101 81 255
25.737893420364770 -12.517305402665613 30.455581493038466 138 100 77 255
25.978949147706828 -10.948454808575605 30.318675315214193 135 102 75 255
26.276001444295446 -9.299243264269592 30.143287209754760 125 93 65 255
26.628684950263107 -7.569001583135162 29.929697897666500 122 88 61 255
26.102460621217404 -6.973142360432774 30.322969938494396 124 86 63 255
25.460250315159101 -6.530731038310563 30.796237348973762 132 89 67 255
24.121367958120175 -7.007611309383719 31.750067988523227 77 32 14 255
23.366641503769984 -6.724982106419588 32.300684276170330 134 86 74 255
22.729228134304748 -6.291328055757106 32.770292617722987 161 111 100 255
22.035068183559503 -5.936667818794461 33.278953059926778 189 137 124 255
21.169219432132763 -5.816351222295395 33.905868096198986 184 132 119 255
20.535503060775852 -5.389427427711155 34.372673979582373 170 120 106 255
20.419506135856608 -4.264284530340205 34.482721621745782 154 105 91 255
20.588784319291392 -2.746948195969310 34.396369279478677 142 97 81 255
20.812844205778902 -1.147007542009533 34.272485350817647 131 94 74 255
29.596986390604371 -18.225686826307253 26.440749901237041 183 142 116 255
27.698057717272235 -19.314119963545068 27.792333623156793 186 137 121 255
26.281610072799026 -19.825577242272885 28.807038719397866 178 132 116 255
25.820054713184533 -19.164658641805346 29.155705551736474 176 125 106 255
25.418088843157477 -18.430319467970321 29.462796491191625 167 119 100 255
25.312041293530001 -17.325084265876910 29.563638077089024 160 112 96 255
25.322925670159606 -16.068878351879050 29.583067267919887 153 106 88 255
25.155362738135040 -15.033600211093528 29.726905239566747 146 103 84 255
24.869259615239713 -14.146386571064113 29.953354726748216 141 103 82 255
24.582719910171676 -13.258387711388735 30.180126294572347 138 100 77 255
24.998501572309777 -11.465803134301410 29.917953731829755 132 100 71 255
25.410917858036498 -9.667079855253974 29.658343509998303 121 90 61 255
25.761650719934266 -7.937980366266828 29.441882414679384 119 85 58 255
25.236309685682244 -7.342969640191598 29.835188916835904 120 84 60 255
24.943810472291801 -6.444118580096386 30.066480902607111 127 85 64 255
24.129300893911761 -6.232356632012056 30.660859915809226 72 27 8 255
23.374384372189979 -5.947158315289585 31.213680993012019 126 78 66 255
22.101604970595133 -6.356620930411566 32.126425254336283 144 95 81 255
21.178060574725293 -6.310263091555726 32.796177545133105 177 125 112 255
20.429160297768874 -6.036039205147915 33.344417636678543 183 131 118 255
19.853806352342900 -5.531942051695353 33.771985789212920 173 121 107 255
19.508122450253779 -4.718197100597990 34.039974664283648 159 110 95 255
19.619043057321136 -3.280168436348788 33.990886154198648 149 101 85 255
20.183643051453544 -1.212510534201613 33.626956556010356 138 98 78 255
28.192396429416362 -19.241202538481730 26.339162780696824 187 144 120 255
26.954001299622604 -19.525853131502515 27.234541630337901 186 139 123 255
26.075184589112865 -19.375798107457172 27.876969728310428 177 132 113 255
25.257601431795848 -19.155693114927601 28.476225615143051 171 123 104 255
24.678206248013055 -18.642991783637399 28.908013309255182 165 116 99 255
24.571472360941527 -17.538288196191729 29.007724197501091 159 111 96 255
24.875606076122807 -15.910630575490273 28.818938439099981 155 108 90 255
24.530714694994089 -15.098634328851290 29.086042955523510 150 105 86 255
24.068394246245788 -14.436002877336307 29.435586408578018 143 105 84 255
23.840355396024279 -13.473629758673525 29.620654274355701 139 101 78 255
24.370501244943227 -11.531164938651756 29.273671919343201 132 98 71 255
25.188054696160805 -9.204070848755805 28.725259998056629 120 89 61 255
25.186714493534737 -7.928118264885512 28.751631295336551 118 84 59 255
24.545631388147200 -7.484772710043075 29.226812371512551 115 79 55 255
24.252895046608643 -6.586180857689271 29.457643685302799 120 80 59 255
23.728669081749842 -5.992444702778556 29.850805120493817 63 20 3 255
23.032059562339299 -5.629602229562806 30.364773360642801 119 72 56 255
21.531443217659955 -6.345085296758981 31.442163051907869 137 88 73 255
20.666895164400017 -6.221249752621503 32.073548920103178 164 112 98 255
19.804352420842037 -6.101070892791085 32.703409047828870 181 128 112 255
19.343894543921095 -5.441868405061371 33.051505178996109 176 123 107 255
18.940766828678846 -4.705451442826586 33.359442254236853 166 114 98 255
18.992976931871169 -3.345354724060485 33.348564780089561 155 106 91 255
19.213656684626812 -1.747199443080660 33.219884231597774 145 102 83 255
18.978375043603421 -0.771555769081942 33.410521470455251 132 95 74 255
-6.155707252164632 -0.687766572856845 51.712051497691078 179 169 121 255
-7.006620856556509 -0.769346987916663 52.330717689822478 157 123 88 255
27.149087191473313 -19.817966112542365 25.989958048377929 189 146 124 255
26.032775423123468 -19.957348429572050 26.803426611303109 185 138 120 255
25.392744251495031 -19.514266611715357 27.279340934853053 176 131 112 255
24.635660241628358 -19.220516025274037 27.838074993166174 171 122 105 255
24.115764396641765 -18.633802520688164 28.228751389093077 166 115 98 255
23.831591111294330 -17.751446600869770 28.452491684498568 159 111 95 255
24.016369686578145 -16.273229324916372 28.344284645156392 151 104 86 255
23.847448441171139 -15.238309520780263 28.486527972102863 146 103 84 255
23.736032080581168 -14.126883951716422 28.588117699004016 142 104 83 255
23.565140258363755 -13.088391356369044 28.731841283931914 138 100 77 255
24.033362747759554 -11.220172635600591 28.423500384262525 130 96 69 255
24.788292979236303 -8.967870220117732 27.912573711196814 123 89 62 255
24.843101833713462 -7.615434639646111 27.897010130077632 116 82 56 255
24.375640821277642 -6.943052921450743 28.250813727918285 112 76 53 255
24.023873000092948 -6.118883004156658 28.522811361404763 116 78 57 255
23.556766046729393 -5.447153522011888 28.876339447095404 55 14 0 255
22.687786286246848 -5.312273260314839 29.513844201304892 107 61 45 255
21.190170193995584 -6.026268963875737 30.595401191331860 132 85 69 255
20.440963197385628 -5.747043235548119 31.147992674566183 157 106 89 255
19.636186866394326 -5.547867588010661 31.739751339931360 174 122 105 255
19.117998962920041 -4.964373385752822 32.129031039229432 178 125 109 255
18.543509615704977 -4.459587967253526 32.558040781316947 168 118 102 255
18.423578835198725 -3.332617546856511 32.666126131804930 159 112 96 255
18.302483514550829 -2.203505786883909 32.775114022230241 144 103 83 255
18.067267842124949 -1.229043189497247 32.964717773120242 133 96 74 255
-6.947921670413422 -1.088496104869535 51.264345790364828 176 165 120 255
-8.377747488545879 -2.106579382938151 52.292054257008687 154 119 87 255
-8.221460709315863 -0.574815804904688 52.207000438477792 158 119 86 255
27.995927474364919 -19.312840551180443 24.274943834840826 190 149 124 255
25.753045633026659 -20.832644511567878 25.897092385090417 191 146 125 255
24.581509113080529 -21.047924968544720 26.753897056161804 185 139 121 255
23.943959036557288 -20.607873684676889 27.229308269553798 177 132 112 255
23.483989914971630 -19.948635765801214 27.577891517054354 171 124 106 255
23.435418372972862 -18.772525112249269 27.632833627400970 168 116 101 255
22.975184720072889 -18.112844902658793 27.981580989121852 157 110 94 255
23.041608980008789 -16.784435437327829 27.954542260992838 150 103 85 255
22.755956330236842 -15.900098606982681 28.178743772932023 146 102 83 255
23.285234077380721 -13.967618797271314 27.821698926629495 141 103 82 255
23.229474724185394 -12.778457362153716 27.882057790872040 137 99 76 255
23.752267050998540 -10.834153052332681 27.529945829998155 128 94 67 255
24.155459340170381 -9.033782809104594 27.263289028857002 119 85 58 255
24.266528287675158 -7.605795145653417 27.205030858488186 110 78 53 255
24.260195617217249 -6.325754373170639 27.230551468241288 108 73 51 255
23.964669481549038 -5.423445145397750 27.462235641764892 114 77 56 255
23.553938714279582 -4.673092742896984 27.776023562564376 46 7 0 255
22.284300635573743 -5.071767808958043 28.701687074718478 90 47 30 255
21.018377047696276 -5.477227130403946 29.624514332484523 125 79 63 255
20.269350073668505 -5.196102305131831 30.179033511086203 148 99 84 255
19.464943123927128 -4.995009314969252 30.772912783996588 169 118 101 255
18.889404007029214 -4.487183610132263 31.203765020693311 179 128 111 255
18.144687388933278 -4.213911220415923 31.755011618590231 173 125 108 255
17.740684408232255 -3.475811334503533 32.063695169969833 163 116 100 255
17.449557679451686 -2.581489791774004 32.292064161231480 148 106 86 255
17.383154016820043 -1.372855375976940 32.360580215676805 133 97 75 255
-7.844175986028660 -1.658720235746443 50.892864194500618 164 145 103 255
-9.322114740535454 -2.762833370079534 51.961127217098749 164 126 97 255
-9.429433622948835 -1.659224686277639 52.059279457653403 208 167 135 255
26.301511705029355 -20.688683225532827 24.395065776281172 194 150 128 255
24.066704251438637 -22.211877089307762 26.021576780060684 191 146 125 255
23.017652404555378 -22.284444162479758 26.794475898416806 186 141 122 255
22.676749877421827 -21.480605835489087 27.057725844992035 178 133 112 255
22.511639720510971 -20.455407943098891 27.194499630990265 173 126 107 255
22.813922664608384 -18.837344430888805 26.995100387539480 169 117 103 255
22.353894709667259 -18.177630880303582 27.344069840627498 159 112 95 255
22.185641503840174 -17.146749047274994 27.483191067338595 152 105 87 255
21.667422893678662 -16.561607562539933 27.873969179660804 147 103 84 255
22.252723105595720 -14.556425239675633 27.471367463554515 142 104 82 255
22.544279299334193 -12.918844465742922 27.280089832087668 138 100 77 255
23.179803806294757 -10.824594027521101 26.841712284166647 128 94 67 255
23.464877710338754 -9.175190913667052 26.655368445503427 117 83 58 255
23.631951564103730 -7.671913296446235 26.553935521268215 111 77 52 255
23.968964266380510 -5.936564611739669 26.330514942856269 107 72 50 255
24.130903290264087 -4.423916222729304 26.232995718784906 105 70 49 255
23.832881129324392 -3.517735977255711 26.465948214480647 42 6 0 255
22.449997660884662 -4.065699542596235 27.478009902612740 72 34 16 255
21.128270268888485 -4.544542086809770 28.445966278407269 118 74 57 255
20.378814751725770 -4.260403891877900 29.002880399735318 136 89 73 255
19.687587651441817 -3.901792154942996 29.517929632408141 160 111 96 255
18.771285048603602 -3.855367863157710 30.194474401766286 173 123 106 255
17.687834831483002 -4.046111600195673 30.990876492845047 172 123 107 255
17.001771428292557 -3.696907592177809 31.502004598447570 166 119 103 255
16.654313267634421 -2.881211704191060 31.770152816730018 154 111 92 255
16.362766160739341 -1.986798806290722 31.998215769770695 144 105 84 255
-8.475324347485383 -1.804682533934454 50.335962300611953 184 155 116 255
-9.844249365710624 -2.738589372669423 51.333283852472164 178 134 105 255
-10.214258592685667 -2.061155940514311 51.617327928492131 190 145 116 255
24.790715619056670 -21.845563019683084 24.393765033862394 195 152 132 255
23.387371520911188 -22.349665935237766 25.427466361277538 192 146 127 255
22.575406430639617 -22.129382309213781 26.032109541714135 187 140 122 255
22.058178567523242 -21.545176439387149 26.422941232243261 180 133 115 255
21.483017419442717 -21.035636257889422 26.855734010992137 174 125 108 255
21.492149538983085 -19.788755203820131 26.864890861288302 165 116 99 255
21.150251295768129 -18.983480896623007 27.128546426273033 159 112 92 255
21.389227548947531 -17.434615239521150 26.971182386450636 151 105 86 255
21.103709900462462 -16.551895757764214 27.194010169219922 147 104 84 255
21.743556183630631 -14.472042593512555 26.746303897954164 141 102 79 255
22.148100405198392 -12.684252135669794 26.469242780455772 135 99 73 255
22.779754759488469 -10.589455650804751 26.027774281193587 126 91 65 255
23.004597020711685 -9.014830602406988 25.881151155226519 118 82 56 255
23.169436171391851 -7.511074595169418 25.778084632694942 111 75 52 255
23.904413351527353 -5.244098341805511 25.262214566198224 104 73 49 255
24.691697489937695 -2.892204235619602 24.708657299814831 83 61 37 255
24.732808294113966 -1.523383343882756 24.695550487197806 34 20 0 255
22.894777370383764 -2.677438837574471 26.042906746652477 44 25 2 255
21.119665245424073 -3.765959729872634 27.344471612574921 103 66 47 255
20.143456468865821 -3.787258040542952 28.067579683842467 126 79 62 255
19.339303957647815 -3.581438025726754 28.666077173871571 148 99 82 255
18.142123781763217 -3.920958792483930 29.548901166770889 169 115 99 255
17.173519155846520 -3.956131377100405 30.266216111886081 174 122 106 255
16.263562219100947 -3.917956487606659 30.941012048762019 170 121 104 255
15.972217382418449 -3.024617201562023 31.168267814054559 159 113 95 255
15.624528884431385 -2.208810965794100 31.436304232656539 150 107 88 255
15.778756290439304 -0.685605512812685 31.341403351848811 136 101 79 255
-9.315658780900264 -2.289753394977993 49.930369755144469 189 157 121 255
-10.209994958306140 -2.459367003058958 50.592092959509017 178 136 105 255
-10.528320523135278 -1.695860236238332 50.838941590752256 177 133 108 255
26.278171089460500 -20.544465485776982 22.196792812620828 195 159 132 255
24.108339362041960 -21.983481406788798 23.796705732791509 198 153 134 255
22.884299139250857 -22.268552904967549 24.705036582135932 193 147 129 255
22.249014353299714 -21.828096441422815 25.182928850869274 189 142 124 255
21.497945928389896 -21.536371200107084 25.745376691089803 182 135 117 255
20.748395161017186 -21.247442577424209 26.306642783258212 174 125 108 255
20.756465917806565 -20.001131326919932 26.314284969546179 164 115 98 255
20.704839619200158 -18.825894085215538 26.365578226671147 156 110 90 255
21.057223946197894 -17.127950699126359 26.121771843345272 150 105 86 255
20.828532563734115 -16.169613826507941 26.302491803318730 146 103 84 255
21.002876519563927 -14.686785537967012 26.188860505384923 141 100 78 255
21.347487627026226 -12.974682820134490 25.950954342401076 135 95 70 255
21.861268232818844 -11.031298380028346 25.589613767349789 123 86 60 255
22.485813720829640 -8.930046908171818 25.147521406115345 117 81 55 255
22.648540910239149 -7.426035305814793 25.042728847201914 107 74 51 255
23.950148819677878 -4.400328128429180 24.106633988572810 98 72 47 255
25.813906813269739 -0.600453931206516 22.760458339483961 54 41 15 255
23.899291564980530 -0.524603267956991 24.186586146762778 29 24 0 255
21.616025027052558 -2.297017447624683 25.867078824756078 78 48 27 255
20.131211315107805 -3.006496745210143 26.964721474627595 121 74 58 255
19.101739564713199 -3.106906700965055 27.730010259070468 143 91 75 255
17.681538344350088 -3.754302620666977 28.780236595313369 165 112 96 255
16.602307718091282 -3.943912743971055 29.581611388957242 172 122 105 255
15.805887356543650 -3.749597905357177 30.176630763566095 171 124 106 255
15.513825494115679 -2.855635952497494 30.403797272580505 164 117 99 255
15.165609310688438 -2.039188621072014 30.671937499797764 156 112 92 255
14.928405551864842 -1.065301149480035 30.859160310532445 138 102 80 255
-9.423385787653160 -1.587914401941362 48.995646182722993 196 163 130 255
-10.004451976540253 -1.245444397844892 49.433103054598675 196 151 123 255
-10.688431844764409 -1.075139377502978 49.945355479427249 187 141 117 255
25.355468437741337 -20.972773570197774 21.767259602879363 200 159 136 255
23.191937197247626 -22.412293423972812 23.372561384568087 198 153 134 255
22.380401880869300 -22.187557632703999 23.981730965731856 194 148 129 255
21.453950081415712 -22.112409035740342 24.675468650022225 190 143 125 255
20.529749193561685 -22.041399079331967 25.367462117605896 183 136 118 255
19.898273748244890 -21.606441949457633 25.843797352002127 175 126 109 255
19.847555362112985 -20.434987067540447 25.892428398262354 164 116 98 255
19.853275002354167 -19.186907020737607 25.899524931732486 156 111 90 255
19.857338573992308 -17.935818652698543 25.907870805530138 151 106 87 255
20.147778854727846 -16.309173917530359 25.705418796167407 146 103 84 255
20.722765394742538 -14.303626218032377 25.293569731364414 140 99 77 255
21.064207821545892 -12.590431557194137 25.053730619982133 134 94 69 255
21.345292486731779 -10.946730577258677 24.858393376058757 125 85 60 255
21.966213745575345 -8.845380095540406 24.413024254864553 116 82 55 255
22.468806777110643 -6.887364492581185 24.054847795614052 106 76 51 255
24.161910990363992 -3.329526120582614 22.820758446302108 93 73 46 255
20.114753966261702 -2.226205100660536 25.857512899253720 105 65 47 255
18.693048174764101 -2.864240369542244 26.915017695629388 132 83 66 255
17.219766600804121 -3.587799643990706 28.010327407706427 155 104 88 255
16.086565722430493 -3.854138030759316 28.855434817788705 166 118 101 255
15.347028267510069 -3.581391492317778 29.411007746145458 171 124 106 255
15.054250238246482 -2.686806453119175 29.638086186073906 165 118 100 255
14.761040626229658 -1.791419823107674 29.865506528653412 158 113 94 255
14.301164427335095 -1.130790256865055 30.215466134706503 145 107 86 255
-9.586540088678049 -0.971189357718629 48.095527844168970 197 158 127 255
-10.375337758730439 -0.966775848124996 48.686621250784498 196 151 125 255
-11.317465250912051 -1.221457000817395 49.390089959704511 187 143 119 255
23.966453278709395 -21.980766765677373 21.687121491036862 201 158 138 255
22.510935528504547 -22.550132282534491 22.776853412890034 199 154 135 255
21.467774515783276 -22.617171237761312 23.560352068406502 195 149 130 255
20.485503501308017 -22.616094044355151 24.298566635865456 188 141 123 255
19.911923612884749 -22.105986189362511 24.733355321989166 182 135 117 255
19.512846573374617 -21.376545677061642 25.038590454379687 176 127 110 255
19.402740781907625 -20.278121762520584 25.129346367019309 164 115 98 255
19.176144268696561 -19.325670507632935 25.306557711199872 158 112 91 255
19.121487408318103 -18.149197160613483 25.356180026112497 152 107 88 255
19.409923929153763 -16.523223498203720 25.151243570547933 143 100 81 255
19.867371451124114 -14.667872301978008 24.820960294712165 138 97 75 255
20.378386018970559 -12.731008262203886 24.451004723235371 132 93 67 255
20.600295607493990 -11.162916907508446 24.295599399950731 123 86 60 255
21.275010413454538 -8.986977356795308 23.804350491370514 116 82 55 255
22.229181719016253 -6.424653361283845 23.105908833841255 106 75 51 255
24.764739325973807 -1.728559817684982 21.234665397704987 83 69 40 255
18.730420683025898 -2.004450294673575 25.766513828078331 115 75 57 255
17.147631258744440 -2.879738735326555 26.949433186328292 142 97 81 255
15.792856577561878 -3.454037154205196 27.963209398590863 158 111 94 255
14.998161647495920 -3.257672915812918 28.561732171517292 171 124 106 255
14.427093521699845 -2.752296287156014 28.994469789620950 169 120 103 255
14.133534407520585 -1.856955188630593 29.221523082098031 159 114 95 255
13.508207937545961 -1.431814888335452 29.694473738589920 148 107 87 255
-10.747755775167036 -0.688276670413813 47.938558312965256 191 151 123 255
-11.791415762533546 -1.112232586941161 48.720785413400677 192 145 122 255
24.738642026933491 -21.557713583689292 19.991663945369339 203 166 139 255
22.582286989771404 -22.988286046481562 21.611929454950882 201 158 138 255
21.306396422568810 -23.342127989479081 22.573339790956879 200 155 136 255
20.440805578380235 -23.192442189702547 23.227718408257743 194 148 130 255
19.461299890620040 -23.192712725484995 23.967253925300099 186 139 121 255
19.004839325513728 -22.537383742120369 24.315474799075389 181 134 116 255
18.952692633338160 -21.367579713350267 24.361248044034653 174 125 108 255
18.726350300248640 -20.416617478119292 24.537315384615852 162 113 96 255
18.614274147124178 -19.316387034272253 24.627914513545278 156 108 88 255
18.673082468076615 -17.991301990238867 24.590715573787179 151 106 87 255
18.901677172074386 -16.439353835627060 24.426559739958805 143 101 81 255
19.470278918935577 -14.434455073094909 24.008174799283893 135 95 73 255
19.749866487162336 -12.796669385247640 23.805962882175436 128 92 66 255
19.912857733389956 -11.303925092484491 23.690971484949586 122 86 60 255
20.584126356587177 -9.128575268472048 23.195972875142672 114 83 55 255
22.213323762041910 -5.659917868828984 21.984837541938504 107 74 51 255
24.850726266859681 -0.810775994869857 20.020084936540457 80 69 39 255
19.097792358455479 -0.682301579786213 24.363199843135021 98 68 46 255
16.904736727237179 -2.404213134762244 26.009333824575776 132 90 72 255
15.441308662796416 -3.131800328007273 27.110068183497219 154 107 90 255
14.093365500600783 -3.712318703632661 28.124428339447746 171 124 106 255
13.412947730173755 -3.364071793510334 28.639916590042276 171 123 106 255
12.954426029751261 -2.705108769733101 28.989590327381990 161 116 97 255
12.661304833947497 -1.811236848515364 29.215688784584131 151 111 91 255
12.477575959418118 -0.759153941947943 29.360078558526624 132 96 74 255
-11.276231710592270 -0.664732256192281 47.304172540958021 193 145 119 255
-12.111981004264919 -0.747647388605742 47.935695971649608 193 141 119 255
22.827698837326210 -23.212424847602506 20.312111444147035 203 164 139 255
21.202971386818831 -23.995331774861199 21.541684846611133 204 162 142 255
