ply
format ascii 1.0
element vertex 668
property float x
property float y
property float z
property uchar red
property uchar green
property uchar blue
property uchar alpha
end_header
-50.572144011357636 -16.234942976641108 -10.145288190473423 177 129 117 255
-50.609204532891624 -15.749467026232224 -9.448711524966029 165 119 106 255
-50.635675060789673 -15.200006318313115 -8.956252431298935 153 107 94 255
-50.630245004449286 -14.448518280961110 -9.076370593808974 140 94 81 255
-50.640865947709607 -13.799494719919068 -8.890185790435908 118 77 65 255
-50.635572344578748 -13.047495941936802 -9.010346788773404 104 71 58 255
-50.651660534526194 -12.434485594426988 -8.722039974373047 63 38 25 255
-50.662492678758007 -11.787775224102660 -8.535843440535530 29 11 0 255
-50.710691482885039 -11.390196417786257 -7.634668539249162 16 7 0 255
-50.758963147857465 -10.997337888720566 -6.733390980263493 9 7 0 255
-50.775344276387244 -10.393207013334631 -6.444925318021774 4 6 0 255
-50.759838910417294 -9.572922821319708 -6.769395155024654 1 3 0 255
-50.808337662797449 -9.189313126973516 -5.867934986535204 1 3 0 255
-50.840932731571804 -8.699967079147214 -5.272892426210603 0 2 0 255
-50.841647962100218 -7.991194654183815 -5.290869117345835 0 2 0 255
-50.821142183448075 -7.132814236728521 -5.717615954457017 0 2 0 255
-50.774095249522816 -6.083939388339232 -6.655409803488112 0 2 0 255
-50.737792839311666 -5.105757340207958 -7.388951400472308 0 2 0 255
-50.850686018777544 -5.192213689784822 -5.260807516829686 0 2 0 255
-50.803913611723871 -4.136700227970223 -6.198828615800039 0 2 0 255
-50.943585743085642 -4.430890266924763 -3.559256575091069 0 2 0 255
-50.945852458527249 -0.860949526824569 -3.751926242422428 0 6 0 255
-52.505436225946838 -2.214982562055567 25.230951116361325 168 168 121 255
-52.704937017442262 -3.234698895439536 29.002214723481273 200 159 134 255
-52.803708936046661 -3.419527896032832 30.828680755197098 198 147 130 255
-52.923745691896471 -3.794876477765513 33.064935869650810 194 145 128 255
-52.932554455737531 -3.225573893860542 33.151104914778188 201 154 136 255
-52.952073450528083 -2.748003895419160 33.442062718006156 205 156 139 255
-53.008772253444810 -2.594257124390467 34.449917808897965 206 155 138 255
-53.113203504879742 -2.862844733659387 36.379664009186001 205 153 138 255
-53.143600863818307 -2.488462020197957 36.875661597666181 203 154 140 255
-53.152942844780668 -1.928686075244826 36.961952943242380 210 157 144 255
-53.104234739003893 -0.849835454171881 35.921352221196031 198 145 132 255
-51.056986590898312 -17.705404803391147 -14.721306584812510 183 153 129 255
-51.086883933322490 -17.168263758039657 -14.126872639399096 190 143 129 255
-51.132031407676713 -16.732533321531278 -13.225986177023628 187 139 124 255
-51.192431310283069 -16.400640173584947 -12.018586692549718 181 133 119 255
-51.268085507275416 -16.175011552541775 -10.504613572232699 167 119 106 255
-51.323555872966978 -15.823153068640707 -9.399050833411764 156 107 94 255
-51.343653596479484 -15.240322999025011 -9.008448221218998 144 97 85 255
-51.333441588432180 -14.454938045237469 -9.230785829776778 129 83 70 255
-51.348612747971472 -13.840211113024679 -8.942320590991699 103 63 52 255
-51.363854145837912 -13.226982072235785 -8.653833133035391 78 48 36 255
-51.384229926242583 -12.650156974506885 -8.263140670418238 49 28 14 255
-51.374301957197787 -11.864257573928953 -8.485553650282725 27 12 0 255
-51.384699777649537 -11.218945132450486 -8.299226497647737 16 10 0 255
-51.460986178125928 -11.038983525062804 -6.784244219596076 9 10 0 255
-51.532283369586501 -10.830988917592862 -5.371288401746199 4 6 0 255
-51.558094900629413 -10.304012520847664 -4.878119162325049 1 3 0 255
-51.543489024387057 -9.487271576703890 -5.202697643211195 1 3 0 255
-51.559336537801421 -8.889572167578422 -4.913952986217339 0 2 0 255
-51.605634203858187 -8.515784965408741 -4.011762024696736 0 2 0 255
-51.540667378855268 -7.324967107618434 -5.358858963580019 0 2 0 255
-51.536524773906272 -6.578352709201070 -5.479137603908725 0 2 0 255
-51.527411010846905 -5.793086900655950 -5.701713633155975 0 2 0 255
-51.518389033119561 -5.006511209013226 -5.924342770830947 0 2 0 255
-51.494282309412895 -4.103308425859396 -6.453843342948801 0 2 0 255
-51.551217760707551 -3.816468954015974 -5.346967995854413 0 2 0 255
-51.436249696217459 -2.210060130161537 -7.717706181783853 0 2 0 255
-51.572480594293246 -1.094714802665166 -5.112815258814123 0 4 0 255
-51.604588119569456 -0.624952546455006 -4.517173164472922 0 7 0 255
-53.225428155787611 -3.150432102530942 27.246987386948831 189 179 141 255
-53.369804586320818 -3.773342270360672 30.098626587319984 201 159 138 255
-53.443707654682292 -3.781381724949114 31.516440961358768 199 150 135 255
-53.482443104794420 -3.479847933819912 32.217273991503788 190 141 126 255
-53.496110447712226 -2.954036070406801 32.405886839282516 201 154 138 255
-53.514924054646912 -2.474689603227048 32.696955038076908 209 162 146 255
-53.604267083345597 -2.641782203274204 34.422629410047136 210 159 144 255
-53.673562652600111 -2.632320675325445 35.738598205178334 209 158 144 255
-53.737910087755132 -2.582914901347607 36.952232046662289 212 160 147 255
-53.731999030267232 -1.882812758963681 36.731093125204382 214 158 148 255
-53.711156457295580 -1.039527825171845 36.202381441027740 201 144 133 255
-53.825489334468294 -0.823270229882866 38.322598224435353 198 147 127 255
-53.880280353726178 -0.699063375613932 39.331615356519393 121 79 53 255
-51.669106719481064 -17.003866544261484 -17.126705224996613 139 138 99 255
-51.802963970524658 -17.175187611160652 -14.284107241941967 179 139 122 255
-51.850536292656827 -16.772117838935372 -13.280514276055158 173 127 111 255
-51.878983925147203 -16.242297254458208 -12.685577609481811 169 121 106 255
-51.926688691415798 -15.848776222088176 -11.681773689603347 161 112 98 255
-51.979259085927481 -15.494119727210759 -10.575643824934446 141 91 78 255
-52.031898178400503 -15.145305225279657 -9.469382186076245 136 88 76 255
-52.036627402274078 -14.461340003547548 -9.385199145918079 108 65 52 255
-52.070214341375355 -13.984011301795988 -8.687654085170891 79 42 30 255
-52.089478891266658 -13.406424119645024 -8.296736511721747 51 23 12 255
-52.104018251759236 -12.795957759405070 -8.008025274529984 28 9 0 255
-52.104238405464578 -12.081431598696881 -8.026037794372940 19 7 0 255
-52.094939356259687 -11.295854162792551 -8.248580928750016 13 8 0 255
-52.124098651553041 -10.794818545988917 -7.653077007983313 7 8 0 255
-52.182119296829917 -10.512830031994227 -6.443899847275134 0 2 0 255
-52.254607324447875 -10.345965453826551 -4.927753334587635 0 2 0 255
-52.236029320514810 -9.492883599712329 -5.354790722201358 0 2 0 255
-52.260706417005863 -8.968705473273005 -4.861301759245862 0 2 0 255
-52.309447246109862 -8.632432695486031 -3.856286290374840 0 2 0 255
-52.348675951222880 -8.226686336670440 -3.055763326823239 0 2 0 255
-52.292073830962956 -7.072676729957038 -4.301355185473881 0 3 0 255
-52.245161005154834 -5.987721726478171 -5.342504018058662 0 3 0 255
-52.198348184624898 -4.897113204690200 -6.383816970670466 0 2 0 255
-52.175609810974450 -3.993010291012610 -6.913640963890998 0 1 0 255
-52.100239804827034 -2.660184285712603 -8.569276551627183 0 1 0 255
-52.336548113975688 -3.851942202455589 -3.572757802494891 0 2 0 255
-52.264711151819895 -1.099192562225838 -5.264868767952862 0 5 0 255
-52.295279060226768 -0.629315072232956 -4.668891132238457 0 9 0 255
-53.905673182796022 -3.819138852580963 28.650544147068928 191 176 142 255
-54.042665107499587 -4.446023347248428 31.503906528929321 201 158 141 255
-54.055656646936782 -3.918206806278761 31.692617531569425 198 151 135 255
-54.083069118978997 -3.526846539549751 32.188844419758880 195 146 131 255
-54.053379272401529 -2.591348926247548 31.454922392098695 199 152 136 255
-54.071493043721588 -2.109672410237778 31.746085848235907 205 159 143 255
-54.146888543269618 -2.182246556488280 33.267613044444261 208 159 144 255
-54.255691574655891 -2.587170355919071 35.507081115434715 212 162 147 255
-54.316938802043076 -2.537354313060646 36.721386129734043 215 163 150 255
-54.325927737905630 -1.977596912458409 36.807755547895454 209 153 143 255
-54.292236189582596 -0.993156391211727 35.971064283702788 193 136 125 255
-54.330022796753347 -0.715823765132654 36.672714337513980 121 66 51 255
-54.391674760756061 -0.680577500077476 37.887296685971393 179 128 107 255
-54.462910255666785 -0.747496782101450 39.307177762025816 178 135 109 255
-52.514491496226370 -17.149625266158566 -14.543576258756900 168 151 124 255
-52.604754101701019 -17.073638425302349 -12.516960159996756 160 121 102 255
-52.618029512630400 -16.447125905802721 -12.228374502984593 149 103 88 255
-52.631371339375391 -15.822139856454683 -11.939765068030169 147 101 86 255
-52.649313861126956 -15.232229424596952 -11.548866709097467 122 77 64 255
-52.676391538497704 -14.712025430684889 -10.953387125348627 103 63 49 255
-52.739803648526951 -14.467722428242894 -9.539610850013219 77 43 29 255
-52.794221404036833 -14.162138466702203 -8.330234922785962 49 23 9 255
-52.839645479863428 -13.793645067060837 -7.325300434109238 28 10 0 255
-52.903274092392238 -13.570061542920030 -5.911050835458468 17 4 0 255
-52.894451310377413 -12.791055561193460 -6.133533447880438 10 0 0 255
-52.931032455408449 -12.365313312016283 -5.332931220739511 5 1 0 255
-52.867974621928134 -11.157901885587634 -6.783283379591978 0 2 0 255
-52.836728100235042 -10.194681641185781 -7.517560202345976 0 2 0 255
-52.936997722894546 -10.279097278328436 -5.284274313827439 0 2 0 255
-52.924043875799903 -9.461930429269515 -5.609226651485301 0 2 0 255
-52.992745063519564 -9.305425659113212 -4.091987256671246 0 2 0 255
-53.007148261193841 -8.711957619829590 -3.802818728072452 0 2 0 255
-53.076008309981674 -8.568073617035978 -2.285296951430951 0 2 0 255
-53.081518675404823 -7.905470311208376 -2.200748555159976 0 3 0 255
-52.978395556385195 -6.333853326014577 -4.573215783902867 0 3 0 255
-52.898033759615139 -4.940327314556896 -6.434116957219487 0 2 0 255
-52.944601694260449 -4.612891498679019 -5.428401669976267 0 1 0 255
-53.113530409856658 -5.335647052960510 -1.657883694508143 0 1 0 255
-53.015357559378302 -3.778697582557839 -3.928651929001774 0 2 0 255
-52.991412963046919 -2.129858402130012 -4.579352819255860 0 3 0 255
-52.966022108755368 -1.183200596314563 -5.212082031620128 0 5 0 255
-54.541938461135082 -4.132245710400568 29.235481073589597 183 171 136 255
-54.640013528781445 -4.447927014320086 31.372645290082204 201 158 143 255
-54.675077302606958 -4.144918658266235 32.074248355423606 199 152 136 255
-54.647196397581254 -3.211669077998224 31.339985204825211 194 145 130 255
-54.659976380894754 -2.683954384113704 31.528745272291076 202 153 138 255
-54.659376274183209 -2.019450803488539 31.409752293929671 204 158 142 255
-54.739870962837109 -2.183511610428695 33.137295484299159 208 161 145 255
-54.797951910883725 -2.124656968498243 34.352069267715819 212 163 148 255
-54.865106070253667 -2.165223474898568 35.772184959367394 213 161 148 255
-54.855968895373010 -1.415458747310282 35.448088218833021 209 153 143 255
-54.891878781466836 -1.135458942450640 36.150083756999891 194 137 126 255
-54.896477491892156 -0.526532516892459 36.133763659008366 191 137 121 255
-53.298706061861452 -16.949455240310854 -13.082300378624495 151 121 98 255
-53.336809403425519 -16.519859684851454 -12.179711236374942 124 85 68 255
-53.328034410007497 -15.728925890122113 -12.402504234560752 122 82 68 255
-53.306523785755928 -14.836147811499004 -12.932313390371689 108 73 58 255
-53.349103375508918 -14.447905792993197 -11.927250133114171 82 53 39 255
-53.404559293364194 -14.167238206945555 -10.615057582840848 37 15 0 255
-53.489964273896902 -14.134032436634627 -8.586298108939559 29 12 0 255
-53.494350667565584 -13.453453632063329 -8.501954568890312 19 9 0 255
-53.477473163342069 -12.598750726123271 -8.929406515634469 14 9 0 255
-53.836239828859881 -14.837267212045518 -0.348845620812881 8 3 0 255
-53.576252242170170 -11.981272553185008 -6.611021106184410 3 4 0 255
-53.397445283787782 -9.770725984687502 -10.928864673262183 0 4 0 255
-53.594259260790125 -10.704287686255824 -6.237410878197295 0 2 0 255
-53.624721108339934 -10.248465303314802 -5.538638162897314 0 2 0 255
-53.659531130970272 -9.832787971682052 -4.737393562480804 0 2 0 255
-53.720022091335530 -9.642072804980799 -3.321627891637718 1 3 0 255
-53.746462170014034 -9.162169631214525 -2.724994935453878 0 2 0 255
-53.802847910855320 -8.946730621263995 -1.411366846790770 0 3 0 255
-53.808128567943697 -8.286746692967355 -1.326702101455680 0 3 0 255
-53.775115011849245 -7.286103414825604 -2.163949760443813 0 3 0 255
-53.592943122891441 -4.945334928914292 -6.586746000056451 0 2 0 255
-53.547359587287673 -3.810744821845745 -7.731853330259810 0 1 0 255
-53.736379627313561 -4.798541073683722 -3.242159547478934 0 1 0 255
-53.712303415263229 -3.861306644972657 -3.874940828362810 0 2 0 255
-53.909975689534782 -4.961323627437054 0.820509200114145 0 2 0 255
-53.674823791697960 -1.346726931309362 -4.954105908922429 0 5 0 255
-53.681012472544197 -0.677936842605206 -4.869862163756409 0 9 0 255
-54.996368227704870 -2.578950998876763 25.511892426535098 166 172 130 255
-55.207734436479200 -4.136775022485210 30.523097329377009 203 166 148 255
-55.262225603011593 -4.056640722709318 31.738125219850360 196 147 132 255
-55.287140457267334 -3.665848948800999 32.234915426910220 194 141 127 255
-55.286750531238916 -3.004150118169534 32.115946761738542 199 147 133 255
-55.311895056672874 -2.616315597945146 32.612760831731379 199 152 136 255
-55.358311041651078 -2.461209277720798 33.622842110287110 207 160 144 255
-55.425971099576245 -2.542962007696531 35.146300472522881 211 162 147 255
-55.438738820531881 -2.026201814789502 35.335338646034586 208 156 143 255
-55.498119880525934 -2.026126997763754 36.653722842321230 210 154 144 255
-55.477324567870880 -1.136083228587751 36.021406789429079 196 139 128 255
-55.507354823224091 -0.811834122942997 36.621163900764998 202 148 132 255
-54.050512646492344 -16.559555822897394 -12.233181032436164 108 82 67 255
-54.062301692672030 -15.935227945694379 -11.944213718025253 66 39 28 255
-54.026124217472116 -14.909811374299693 -12.883807119041421 37 19 8 255
-54.030048486989067 -14.217623979603147 -12.799653850079551 48 35 21 255
-54.090089309020499 -14.003140072099555 -11.281968405745374 29 17 1 255
-54.154207355047816 -13.831009786792279 -9.661695989469649 18 14 2 255
-54.074291519254757 -12.420627931582302 -11.727955774847601 11 9 0 255
-54.138561735074823 -12.255803996008254 -10.107533117304285 9 8 0 255
-54.126854558786228 -11.431186983409603 -10.432946804966832 5 7 0 255
-54.063194436429001 -10.144006529603402 -12.090008869676069 5 8 0 255
-54.351841975068467 -11.990992597495207 -4.732898798059068 2 6 0 255
-54.356382297779064 -11.321760236113647 -4.648303830207283 1 5 0 255
-54.336994142550921 -10.435350076497670 -5.178419449207638 0 3 0 255
-54.329699979774446 -9.655634996803599 -5.401255910286409 0 4 0 255
-54.386518369463012 -9.463445858477030 -3.984719992725900 1 4 0 255
-54.419410064217068 -9.056226268435751 -3.182841066846947 0 4 0 255
-54.420380568009392 -8.354403240984155 -3.200699155161828 1 4 0 255
-54.461446795974275 -8.028506713491296 -2.193735783305669 1 4 0 255
-54.202605895757387 -4.866421930903883 -8.873532446571630 1 4 0 255
-54.147893357322260 -3.614807362137185 -10.326830392781460 0 2 0 255
-54.273245095500940 -4.084625922905431 -7.167602905122806 0 2 0 255
-54.314699126333487 -3.758334788496228 -6.160734701009176 0 2 0 255
-54.548134807019565 -5.307879110580004 -0.232823657861729 0 3 0 255
-54.271757951585350 -1.150831689685518 -7.445872242455494 0 4 0 255
-54.365552296381509 -1.351030931182237 -5.105833605428359 0 8 0 255
-55.747436350879738 -3.467871858842017 28.851366956646757 193 163 140 255
-55.818712112813394 -3.608401879764486 30.580345056167971 197 144 130 255
-55.858286108417936 -3.395767361888332 31.488065604619436 194 138 125 255
-55.886048190803287 -3.051035493022596 32.087806342065676 194 139 126 255
-55.929790504675751 -2.892397518155363 33.098386556433780 199 149 135 255
-55.973627181707251 -2.738808030345993 34.109072953489118 201 154 138 255
-55.993773626201161 -2.312085026625439 34.503589592402733 207 158 143 255
-56.018000706714069 -1.933724776236133 35.000843530672284 207 155 142 255
-56.018582971720789 -1.276139157567329 34.881764570065087 208 151 142 255
-56.082634431326646 -1.372567212311125 36.406385131129156 194 137 126 255
-56.091379498683125 -0.812215645888344 36.492793218344389 185 131 115 255
-56.123982009439480 -0.538367279532309 37.195670438828699 184 133 112 255
-54.767212382377984 -15.908536228032489 -12.202256616199804 33 19 4 255
-54.763346382102924 -15.151183107459914 -12.322866045325952 15 5 0 255
-54.815625407223301 -14.900454207716464 -10.906804051326674 17 11 1 255
-54.797049000813985 -13.287484855406987 -11.455364760798091 14 12 0 255
-54.759841226005335 -12.219044543243243 -12.498231756179962 9 9 0 255
-55.097236060205994 -13.233485348386992 -3.329237367285600 4 7 0 255
-55.075296258172926 -12.318129219671462 -3.961938224528296 4 8 0 255
-55.091469844105703 -11.057245272453301 -3.587520173203416 0 4 0 255
-55.036160534514359 -9.807206143933001 -5.143065730023466 1 5 0 255
-55.063150557075630 -9.358396445985633 -4.443353530224840 1 5 0 255
-55.097698755534267 -8.987323809025384 -3.538511553602461 0 4 0 255
-55.080033251556578 -8.098161983574627 -4.069075026204246 0 3 0 255
-54.991496624717350 -6.491446382630485 -6.548049483641762 0 2 0 255
-55.078612265984795 -6.651995431419664 -4.207539592240209 0 2 0 255
-55.076181089267614 -5.909084839507415 -4.328101320077963 0 2 0 255
-54.786353805306859 -2.206539841388178 -12.346113656217483 0 2 0 255
-55.041392618095486 -1.196130447807988 -5.667964797820616 0 8 0 255
-56.350809174140863 -3.469543547604616 28.718775601824234 178 170 132 255
-56.406529713078164 -3.474979549422258 30.140521404334493 194 141 126 255
-56.454920538670940 -3.397161352157525 31.356948501300025 193 134 123 255
-56.488584258157665 -3.143363774938081 32.162514951546996 192 132 121 255
-56.544562602876255 -3.168380499804670 33.584696368285393 187 138 122 255
-56.552520618707902 -2.601529324899658 33.671114056437204 201 154 137 255
-56.564307815720710 -2.081115429405656 33.860275909792648 207 159 144 255
-56.561439664907070 -1.374763104856413 33.638310958960119 208 154 141 255
-56.625209491008256 -1.511278982534563 35.266419690631608 200 143 132 255
-56.696434467316330 -1.750522135878100 37.100309133031487 191 133 121 255
-56.741894277744883 -1.666933088309676 38.214817037397466 174 120 103 255
-56.754261093039119 -1.159198772143824 38.404170260361127 144 95 74 255
-56.759392660561765 -0.555988947790453 38.387876752608321 95 64 33 255
-55.489905416059081 -15.325405329864225 -11.966106032521736 17 11 0 255
-55.576706222712765 -15.447898143101270 -9.421646915008353 7 8 0 255
-55.639269381100249 -15.345191209391018 -7.594450506314217 12 12 1 255
-55.562981075669150 -13.877802178880643 -9.867777733356832 7 6 0 255
-55.535397116649065 -12.883162516987440 -10.706067987303584 7 7 0 255
-55.688489975472102 -13.698790632849892 -6.212805226331170 7 9 0 255
-55.827761576968783 -14.397420999076076 -2.129119360096240 3 5 0 255
-56.029610353304022 -15.755495809510492 3.800921319884139 2 5 0 255
-55.818294434172188 -12.895172200651629 -2.472062004456234 2 6 0 255
-55.745979354240262 -11.440923145241044 -4.643513868051002 3 7 0 255
-55.750145368626207 -10.772692408514430 -4.558811437603651 2 5 0 255
-55.688437932493684 -9.410851241804011 -6.423016612934475 2 6 0 255
-55.689317278327941 -8.701380432629136 -6.441046938183717 1 4 0 255
-55.728470271193004 -8.399446955787724 -5.330642135083394 0 3 0 255
-55.719121334952256 -7.580534763924618 -5.656430784270867 0 3 0 255
-55.761922960232340 -7.323926295898261 -4.443270091689271 0 3 0 255
-55.853385947027618 -7.603949755468975 -1.793456885680257 0 3 0 255
-55.955328671389694 -8.012323691561861 1.164534768775184 0 2 0 255
-55.552525021898433 -2.103720549106455 -10.878423962779550 0 2 0 255
-55.557693625416704 -1.419950227351691 -10.794332606991304 0 2 0 255
-55.611503052541472 -1.285816640720824 -9.273257265200471 0 2 0 255
-55.609947605691019 -0.527359370334011 -9.394402359838523 0 3 0 255
-55.698599852904877 -0.802472937340767 -6.846513139793728 0 9 0 255
-57.016656716261444 -3.611373615842709 30.317087647809331 184 140 121 255
-57.048182163531614 -3.353205714348263 31.123014257256642 139 77 66 255
-57.069497939297378 -2.962391024246131 31.620595037423612 152 91 80 255
-57.111545399215210 -2.848732495578147 32.735097058276835 166 118 98 255
-57.122780099853017 -2.325898621749261 32.924319519925149 201 159 139 255
-57.110120524767368 -1.479153765364998 32.393722062574057 209 162 146 255
-57.138780335735937 -1.188814888201392 33.097051374035459 211 156 143 255
-57.208685188493966 -1.464823444839226 35.034573737880436 192 139 125 255
-57.312905028451183 -2.222753620912258 38.000853139651042 188 130 118 255
-57.341825054819623 -1.951914083756463 38.704615489581812 166 115 98 255
-57.367435758814992 -1.636682238938320 39.305570812246515 100 53 33 255
-57.338467177868750 -0.555863068606286 38.260581456944919 85 56 25 255
-56.258725088410415 -15.969182567092375 -10.172972901301478 10 12 0 255
-56.277972138273952 -15.454217476059441 -9.575640276517220 1 2 0 255
-56.306920134055758 -15.044630324032028 -8.670535569095989 2 3 0 255
-56.406525758944632 -15.395598234864579 -5.508636633484855 1 3 0 255
-56.390712996273571 -14.516684980548149 -6.039349713054207 2 4 0 255
-56.288365527535589 -12.692713707237459 -9.340097576343453 2 4 0 255
-56.411133285448834 -12.607022297344741 -5.477339518016947 1 4 0 255
-56.454032284987612 -11.662350276107219 -4.179080649764273 0 4 0 255
-56.390625180943580 -10.234373586623491 -6.249411740945334 0 3 0 255
-56.362593750201292 -9.197113422744124 -7.191093568501799 0 4 0 255
-56.379549050105439 -8.669889885528832 -6.695983766238726 0 3 0 255
-56.390183595508880 -8.071045624300041 -6.406121977967018 0 4 0 255
-56.413733881445225 -7.622964566883198 -5.705635336459295 0 3 0 255
-56.466220755617897 -7.516937114363031 -4.081144244586937 0 2 0 255
-56.534813789345705 -7.608770570625637 -1.943127117644110 0 2 0 255
-56.622708792378880 -7.940686871552700 0.811193457978504 0 2 0 255
-56.209405158237900 -1.527961558203032 -12.573570679510510 0 2 0 255
-56.275215089505295 -1.580368948663050 -10.538351395628411 0 2 0 255
-56.334706034380709 -1.564902228514313 -8.708286319623994 0 3 0 255
-56.368678089481293 -1.242859042042539 -7.699666628998500 0 4 0 255
-57.612553567797278 -3.567741200205305 30.082582254602158 196 166 137 255
-57.651566168392534 -3.444933431041875 31.197521374160431 176 118 103 255
-57.652610370438154 -2.781327465968246 31.078189511165107 116 58 44 255
-57.663305244362604 -2.254136119070367 31.267421084900889 81 39 17 255
-57.648787527255877 -1.358889253949201 30.633594278612691 165 145 116 255
-57.681923688116527 -1.155269740037724 31.542956640603677 199 161 140 255
-57.737311068400651 -1.282594583827773 33.172676926430256 209 156 142 255
-57.833873249083290 -2.028156590058671 36.140328682446494 173 119 105 255
-57.892538560991134 -2.222959424116013 37.873443300218241 168 115 101 255
-57.922857937529642 -1.999442219387575 38.680506192076365 214 159 143 255
-57.896503407721305 -0.920400878245914 37.634986913146520 155 106 85 255
-57.914476089812560 -0.507600267292716 38.030331415631309 98 70 37 255
-56.846783607676379 -13.938993374389497 -14.347599173066840 2 5 0 255
-56.973452116452684 -14.675917369727884 -9.952924939172533 2 4 0 255
-57.014840887571637 -14.439757503753754 -8.534102765459238 2 6 0 255
-57.059251243853922 -14.245663991762171 -7.012468791629885 1 5 0 255
-57.056651742975689 -13.501240202340938 -7.133031562230940 0 3 0 255
-56.886393026623018 -10.751705036773473 -13.104999507539958 0 3 0 255
-56.984025660400121 -11.195274408037946 -9.735501943943461 3 6 0 255
-57.152351105635063 -12.513531505153423 -3.901511638062857 3 5 0 255
-57.091246706293866 -11.056212902158080 -6.075505005349783 1 5 0 255
-57.047895987077339 -9.804823762304096 -7.633713239953977 0 4 0 255
-57.001706140121065 -8.508589543411418 -9.294843243251307 1 5 0 255
-56.996799376224260 -7.718562537612925 -9.518463757589416 1 5 0 255
-57.065510722751057 -7.853822844596976 -7.174544027222055 1 5 0 255
-57.099016864608771 -7.553338386715723 -6.062861503382067 3 6 0 255
-57.117913307356659 -7.070574789106743 -5.464642220342625 1 4 0 255
-57.175116294708374 -7.083251887084984 -3.530948231647301 0 2 0 255
-57.061952862097321 -4.893347674023715 -7.555447374948301 0 2 0 255
-57.022394706247226 -3.642530265352363 -9.012056515114693 0 2 0 255
-57.082838059632614 -3.699409723257219 -6.975545116709725 0 2 0 255
-57.017080357025129 -2.091400405522961 -9.357140960398567 0 3 0 255
-56.969084142260400 -0.706023219108246 -11.122533460692580 0 3 0 255
-58.174136216961976 -2.984228034411842 28.613025679414221 168 166 121 255
-58.251050048557062 -3.491306573066240 31.169327141279041 201 152 130 255
-58.261171306607359 -2.964438202949211 31.358692927287251 186 121 107 255
-58.213345944117378 -1.522022984582108 29.489410457804155 90 50 25 255
-58.240133653887703 -0.553116299365200 30.073672807527146 154 150 113 255
-58.337755465477223 -1.422906139546299 33.351470090709796 197 157 135 255
-58.400638017569086 -1.746914525485266 35.394161276500739 185 127 113 255
-58.478041233857752 -2.317440663133880 37.951950317775982 136 78 65 255
-58.451411637372964 -1.192420720147837 36.802917140129239 174 117 101 255
-58.482748642507715 -1.015691554751044 37.713351051101881 135 87 65 255
-58.508421000638720 -0.747365765000026 38.417890502208792 95 73 37 255
-57.551931812585416 -13.843932130391124 -14.812249984367384 1 5 0 255
-57.592245582752305 -13.625628560501582 -13.290324171823954 1 7 0 255
-57.670135486577252 -13.896218508337952 -10.330509297922504 1 5 0 255
-57.705251318236101 -13.628431910478881 -9.013521745985202 2 6 0 255
-57.692242963235572 -12.739481515893885 -9.545103637188390 2 6 0 255
-57.660577139665172 -11.601526818947434 -10.795773349799617 1 5 0 255
-57.789663996990967 -12.582946876257481 -5.883391757945901 0 2 0 255
-57.779591688695412 -11.733554406586904 -6.312206111173225 0 2 0 255
-57.820477510473040 -11.565364868092303 -4.789146114449750 0 4 0 255
-57.735635327170932 -9.701505355100906 -8.094744831400192 0 3 0 255
-57.693732660828857 -8.404393663709328 -9.756839303332242 0 4 0 255
-57.734897597193203 -8.238885266422955 -8.233773254153391 0 3 0 255
-57.773473100133693 -8.044248405050112 -6.813288725127848 0 3 0 255
-57.780033528718363 -7.409004231099715 -6.625864907745381 0 4 0 255
-57.800067074544984 -6.962644289759226 -5.924561945488279 0 4 0 255
-57.715904349654423 -5.042694893805944 -9.231720194241120 0 3 0 255
-57.701396880381715 -4.096953530459203 -9.866818751179153 0 3 0 255
-57.783231494137048 -4.530800599862232 -6.801348103412067 0 3 0 255
-57.865136738062354 -4.980702762857732 -3.735489335436284 0 3 0 255
-57.693310445126137 -1.745130096025619 -10.436261127122407 0 4 0 255
-58.828941476335501 -3.175523080371619 30.317427055356120 190 161 129 255
-58.857120488798422 -2.965314557988549 31.227713441132693 184 118 102 255
-58.822097680598233 -1.660189142555822 29.666323565043399 119 62 43 255
-58.899847263797476 -0.910178639700362 32.088418041848229 153 147 110 255
-58.996972780246622 -1.934711688145399 35.677470072350644 199 151 129 255
-59.033670798886952 -1.892703258643934 36.897367786115268 180 121 105 255
-59.062588674009881 -1.714415117608411 37.808294275429745 114 58 39 255
-59.065396218935646 -1.063121366680591 37.688884339718697 90 52 26 255
-59.086696841661507 -0.746895218203321 38.290762106129279 83 74 31 255
-58.312192627671095 -13.043583557836897 -13.053542664197550 1 8 0 255
-58.225655512847283 -11.072579127515439 -16.771136171067667 1 8 0 255
-58.242978608021950 -10.582186496361984 -16.070344437311689 4 8 0 255
-58.315884988571462 -10.904126028417181 -13.005724688170517 2 6 0 255
-58.470899390406707 -12.446840576447727 -6.446236384278166 2 3 0 255
-58.404032803498794 -10.739411051040335 -9.342180034867113 0 2 0 255
-58.371044032034163 -9.520257945007472 -10.799437174639081 0 4 0 255
-58.570635521580016 -11.075416966062846 -2.405903707383573 0 4 0 255
-58.489704830410567 -9.126981849747466 -5.919325392931341 0 3 0 255
-58.473986892473086 -8.160485230667817 -6.657098080535832 0 4 0 255
-58.451146556914246 -7.077978890916512 -7.703476964080323 0 4 0 255
-58.433238957006090 -6.065020328957203 -8.544354835989736 0 4 0 255
-58.446762610168996 -5.539843660972011 -8.048439228335383 0 3 0 255
-58.402587021853790 -4.101639644000940 -10.020836517311750 0 4 0 255
-58.563202577463798 -5.918362356571294 -3.250853730896267 0 4 0 255
-58.572196005138686 -5.333269127588437 -2.960285473206966 0 5 0 255
-58.376759973210447 -1.437787365884873 -11.413571178877419 0 7 0 255
-59.417761025463200 -2.995417549315803 29.773791076774472 159 160 114 255
-59.465016668738706 -3.193753596649685 31.611920998395107 163 105 86 255
-59.453050312456860 -2.256336257452958 30.874054729571952 158 90 74 255
-59.405716260181684 -0.623301350378156 28.590198225288873 102 72 42 255
-59.548735227722439 -1.277933750066865 34.105811799393535 182 156 125 255
-59.613065643170501 -1.845386901599028 36.666397244178654 177 120 100 255
-59.639701164299176 -1.666668458713744 37.577814622078478 119 67 45 255
-59.647603233695968 -1.110434574437008 37.664511540996870 85 62 29 255
-58.970504009627042 -10.762600388226616 -15.713641184696542 1 10 0 255
-59.093494401473414 -12.035020648991491 -9.870837727927153 4 7 0 255
-59.100577757680988 -11.424966034513773 -9.580477160424323 3 7 0 255
-59.049773558354495 -9.852443406918638 -12.066886301919112 3 6 0 255
-59.035578643664273 -8.878247603154364 -12.805187348026209 1 8 0 255
-59.096620185277452 -9.168576601665251 -9.943591003806830 0 6 0 255
-59.157739520442092 -9.473900575972309 -7.081634766785953 0 6 0 255
-59.195330699361946 -9.389572832428669 -5.350905343320846 2 6 0 255
-59.138608902740231 -7.683739699008584 -8.146620484352127 2 6 0 255
-59.073437049828549 -5.813709406814866 -11.354279872365282 0 5 0 255
-59.162799099129174 -6.633851037695010 -7.154149536751731 0 3 0 255
-59.123594654850578 -5.203696460084799 -9.127437208884601 0 4 0 255
-59.180565467061172 -4.731863485333861 -6.591362994017118 0 7 0 255
-59.139585874299392 -3.248393464387490 -8.668019274787014 0 7 0 255
-59.094469095703069 -1.675847307316587 -10.950842413476153 0 10 0 255
-60.055579110835026 -3.103359755545526 31.274994169726028 187 150 119 255
-60.075060582090657 -2.806562831171618 31.980178699570928 176 104 89 255
-60.052592868457268 -1.591458599595640 30.623129016872724 94 46 20 255
-60.122719825452499 -0.949445024856345 33.254451086428787 142 125 85 255
-60.178427241128318 -1.467612739244800 35.713274536544446 209 163 133 255
-60.219530838356569 -1.666274164021345 37.450346579578451 148 107 79 255
-59.711059308132889 -10.493838186783606 -14.551747828380144 0 9 0 255
-59.743760515163409 -10.367742068959345 -12.820993603303805 0 8 0 255
-59.751078989143245 -9.027600343703085 -12.549040067756664 5 10 0 255
-59.750180243677995 -8.267862529730962 -12.670361713006457 2 7 0 255
-59.785126255842137 -8.201120144962360 -10.836190308663845 5 9 0 255
-59.784424686824785 -7.445045162871892 -10.957463208828585 5 7 0 255
-59.791349441079369 -6.836433756281465 -10.667031493311640 3 5 0 255
-59.693110969884543 -4.138911274840751 -16.141431250827509 1 9 0 255
-59.844972885598715 -6.412994619470822 -7.924167972731709 0 7 0 255
-59.754512718227659 -3.845016088037156 -12.987347045831825 0 8 0 255
-59.641691940091185 -0.792438430902891 -19.286815086201329 0 9 0 255
-60.628874750609626 -2.557540458024093 29.906228920320814 176 167 122 255
-60.672374568354307 -2.898594920354697 32.056027779977455 177 116 93 255
-60.662656567794151 -1.914316173732644 31.214070718963256 105 50 25 255
-60.707846708867535 -0.808498667157593 32.815029743911282 149 127 85 255
-60.755455796763584 -1.278487346631366 35.172003682391335 102 59 26 255
-60.772083410260329 -0.953718795039265 35.774693902224357 68 48 7 255
-60.467464194815577 -5.487564033216771 -12.590680184260862 0 10 0 255
-61.259273066826175 -2.715668689688101 31.512743170562032 170 146 104 255
-61.258087254613265 -1.914469276081732 31.083187024912888 121 82 47 255
-61.241390356657931 -0.646950252250093 29.621132623670690 101 103 50 255
-61.289977682043663 -0.526688444921930 32.065470255403852 181 176 124 255
-61.853610912678306 -1.914508390027706 30.952280028109897 135 138 85 255
48.775355912117675 -1.322590118483546 -23.121215370853321 136 114 85 255
55.556878332811351 -6.572886117209222 -16.234237338537326 148 112 90 255
54.663608396237095 -5.471911083642283 -17.021025079664781 151 114 96 255
54.785637238230692 -4.942826108100306 -16.896258730792368 143 110 91 255
56.001701504096530 -5.041231881201057 -15.789517194911525 133 106 81 255
57.999836155913044 -5.598558148802567 -13.981135876646988 124 97 71 255
55.520734115503132 -7.331895347513267 -15.487833202449934 156 108 91 255
57.364048762866219 -7.773609617107468 -13.825345088806188 154 107 93 255
56.939086741688158 -6.945695788982064 -14.189829681295606 150 110 96 255
56.592285316791674 -6.158951540848776 -14.484635414736744 148 113 97 255
57.341261786474178 -5.996281026623919 -13.800845262160891 137 108 86 255
58.090601630086866 -5.838592706365930 -13.117079337304745 126 97 76 255
52.187075449195817 -7.467725349868658 -17.708632026521798 158 118 97 255
53.405185227837052 -7.535187446055602 -16.609075754580715 165 120 101 255
54.858850966572220 -7.741130682663410 -15.300525307124843 163 116 96 255
56.391510125814278 -8.000725684429398 -13.922224460007243 160 111 94 255
57.376279180562932 -7.963310885841253 -13.031423942932065 152 105 89 255
57.264161718587530 -7.313568252831004 -13.115925501265764 150 104 89 255
57.465655437043552 -6.840687547796520 -12.921907597558771 145 102 86 255
57.039996912769368 -6.010757220711113 -13.285445580552533 136 104 83 255
57.712228285936732 -5.808135561521482 -12.673602181101984 127 95 72 255
53.402489697407589 -8.911260935858095 -15.845967806231528 165 124 102 255
55.250277952730414 -9.322712434224940 -14.194723601726679 166 118 103 255
55.765092410327782 -9.014218472398696 -13.723181726862066 169 122 107 255
55.809339586282874 -8.448829262864777 -13.668158951552272 167 121 104 255
56.324599524296815 -8.145399577504421 -13.196771491237911 162 113 97 255
56.526113690337439 -7.669598502671974 -13.003137417373296 148 101 86 255
57.198888904954913 -7.460169193111227 -12.393034762902005 142 99 83 255
57.557856430376319 -7.077244813231943 -12.060714196079999 141 98 82 255
57.288630477947834 -6.338436688944057 -12.284034849217164 130 98 77 255
57.255062307279303 -5.732513057877895 -12.299203701377536 125 93 70 255
51.637901990083321 -8.737036251663952 -16.620592447017174 171 126 108 255
54.116729534072391 -9.477466365155195 -14.421774248847413 170 121 106 255
55.575077317601824 -9.678431587380913 -13.121801735198432 169 121 107 255
56.326714804800076 -9.501548644731088 -12.444247030338801 168 120 106 255
56.449831204036400 -8.982727083263484 -12.320108601038868 170 122 107 255
56.415808621317552 -8.377207241569693 -12.334454410367414 164 115 100 255
56.381837062768540 -7.771165907061899 -12.348949533260026 155 106 91 255
56.662544608276932 -7.341396205272403 -12.086816587458856 147 99 85 255
57.258117347083328 -7.091214144712794 -11.547976621161155 144 96 82 255
57.224486788754092 -6.486866742818478 -11.562850750148868 130 89 69 255
57.190908666559153 -5.881951827185944 -11.577882099373056 127 89 68 255
57.157383404213618 -5.276456740230941 -11.593072903788254 122 86 64 255
50.691055831657593 -9.614756937798418 -16.683535467711835 167 129 103 255
51.992948339202911 -9.706204439432710 -15.525939720964345 170 127 106 255
52.351197568198103 -9.299422582298916 -15.195245245504765 174 127 111 255
53.968869953344011 -9.575506146969488 -13.761898800617018 170 121 107 255
55.665965016326822 -9.905504686782081 -12.259502406769201 169 121 107 255
56.655205216531499 -9.859365392081131 -11.377367911835421 168 120 106 255
56.306185201845693 -9.082713845626813 -11.667184837721607 168 119 104 255
56.981015435129990 -8.870679530617878 -11.060897362269003 161 112 97 255
56.868384960028806 -8.223928735193681 -11.144166704885180 152 105 89 255
57.228540844404392 -7.841265370843999 -10.813841152663514 146 99 83 255
57.510092146399614 -7.416361534346407 -10.552565408525766 142 95 79 255
57.555341458077066 -6.858876539215629 -10.498306814849713 132 89 70 255
57.442990831844497 -6.211328571056285 -10.582148569226916 128 90 67 255
57.567230039542977 -5.698565757881184 -10.459200595477967 124 88 64 255
51.203670266971415 -10.663385873896047 -15.451994984152549 173 131 107 255
52.586489660035170 -10.795116583843381 -14.229542939079550 178 131 111 255
52.787814031051624 -10.306608605269631 -14.037103651369733 177 130 110 255
52.595165410135593 -9.608020260233346 -14.188159404562697 174 125 110 255
54.058112099821045 -9.801003961065447 -12.896981969868222 170 121 107 255
55.521701783733022 -10.003987983698067 -11.605705893110496 169 121 107 255
56.118365052912736 -9.743066835639397 -11.070008582457916 168 120 106 255
56.399784295797303 -9.312636315988499 -10.809168075578299 165 116 101 255
56.760277662791964 -8.927548224899297 -10.479707685658667 156 107 92 255
56.805308812859892 -8.369064559067724 -10.425196451700998 150 103 87 255
56.692555638904935 -7.722231152158031 -10.508266458924481 146 99 83 255
56.974559211157469 -7.296635332872782 -10.247844543066634 141 94 78 255
56.940883714891157 -6.693734963352128 -10.262469139632600 133 92 72 255
57.223172908792634 -6.270357323956574 -10.002269162719529 129 91 68 255
57.347647889020067 -5.758030821930035 -9.879671055071867 125 89 65 255
50.614316148571362 -11.129485432526991 -15.183530751224964 177 130 112 255
52.393740431050588 -11.462772260576713 -13.623089760310251 182 131 112 255
52.990001889941908 -11.182782868926296 -13.088985880532221 182 132 114 255
53.033948540696088 -10.612932715356095 -13.033983751265879 182 131 115 255
53.314853881817925 -10.169927632289770 -12.773769600452653 177 127 113 255
54.701596136020271 -10.324010080237201 -11.555335314240267 172 123 109 255
55.457015621410847 -10.145139091530353 -10.884466641725766 170 122 108 255
55.738750685306087 -9.712845365644526 -10.624387264986439 164 116 102 255
55.704565739586172 -9.108858413834895 -10.638273067559368 158 111 95 255
56.381775717940457 -8.897030838158699 -10.036018458128154 153 106 90 255
56.743097098329315 -8.514045453958644 -9.707718607244800 149 102 86 255
56.709273100274146 -7.912391663746476 -9.721941043343890 141 95 79 255
56.754582545986977 -7.354662657951678 -9.667814138583054 138 92 76 255
56.799971531005951 -6.796941230151660 -9.613821946316847 131 90 70 255
57.161905728111066 -6.419274738290696 -9.285931400744175 128 90 67 255
57.682307520650568 -6.134400878315006 -8.821093724326943 122 88 63 255
49.629049177188506 -11.392670798326449 -15.254397698094323 172 126 111 255
51.332008478956396 -11.676468278509859 -13.767520825293246 179 129 112 255
52.719505433838464 -11.806249275248121 -12.553277207424941 184 132 115 255
53.000686675922481 -11.361783236558253 -12.293708054896115 183 132 115 255
53.282038733549484 -10.919077021150883 -12.034219862578823 182 133 118 255
53.642659539244562 -10.520365777942644 -11.706604642189376 177 128 114 255
54.715504497450041 -10.506620476766329 -10.765122450873292 176 127 113 255
55.155800818220911 -10.157763950684256 -10.369373555421475 166 117 103 255
55.438041148874532 -9.725597059057719 -10.110140524844866 164 115 100 255
55.482971031321654 -9.165108918572344 -10.055696147242742 157 110 94 255
55.923859227623467 -8.822788709058173 -9.660175376925991 154 107 91 255
56.206597750299494 -8.395475974329415 -9.401211744473187 147 100 84 255
56.172678320566092 -7.793149270699374 -9.415351874279480 140 94 78 255
56.455697681740986 -7.368103267284354 -9.156596223700262 137 91 75 255
56.580411882269033 -6.855268257722869 -9.034466760642573 128 89 68 255
56.863743870129667 -6.433003214142801 -8.775911845122835 124 88 64 255
56.988708884404787 -5.921819181064834 -8.654012749242611 118 84 59 255
48.800023478338545 -11.741285771334773 -15.185401370705250 178 130 116 255
50.505463815704161 -12.017561544814370 -13.703653569393595 179 130 116 255
52.211644343412985 -12.305495740209892 -12.221774717146815 179 130 116 255
52.889121350568672 -12.066718291321820 -11.623195743806946 182 130 117 255
53.091703897998372 -11.582330733432286 -11.432409337911707 180 131 116 255
53.294424741334211 -11.099155772189548 -11.241713834954965 178 129 115 255
53.734989741769567 -10.743898661715434 -10.847187879706297 175 127 113 255
54.413540675614627 -10.519028606976306 -10.248778152560931 172 124 110 255
54.458285541867014 -9.956338387676553 -10.194281448763746 164 116 102 255
54.978800649322778 -9.652111858339083 -9.731949501453613 159 111 97 255
55.023791922275365 -9.091215426571623 -9.677658585603496 152 104 90 255
55.861996596851924 -8.966544900565765 -8.943439079987655 148 101 85 255
56.145285419377331 -8.540191073987003 -8.685299149506335 144 98 82 255
56.349399825584157 -8.071361129446942 -8.495265593359136 139 93 77 255
56.315572099879176 -7.470320202943341 -8.509408440295232 134 88 72 255
56.758047077088378 -7.137085101142176 -8.115507588063082 127 89 68 255
56.645013688653108 -6.491610549884996 -8.197937442567934 123 87 63 255
56.452588824160443 -5.799735334435212 -8.348572533574696 116 82 57 255
48.322651405131978 -12.876923445166867 -14.829839252336939 176 131 114 255
49.792460709467093 -13.020199895847185 -13.556302581174691 178 130 116 255
50.153027521124130 -12.605307124758156 -13.230528889314002 180 131 117 255
51.148143675555701 -12.519628333213021 -12.363137875944290 181 132 118 255
52.302332980677591 -12.522939782267585 -11.360286591917344 181 132 118 255
52.743112101833646 -12.161398813897861 -10.966876603390119 186 134 121 255
53.104782263490506 -11.761046623562052 -10.641246663948863 181 132 118 255
53.387296091980858 -11.321051212860851 -10.383415417978654 177 129 115 255
53.828724239969773 -10.967277116294554 -9.990183956465415 173 125 111 255
54.349772935542489 -10.658859745444943 -9.529262579561220 167 119 107 255
54.077044012897943 -9.926000488425743 -9.745899662125623 160 114 101 255
54.439623048829361 -9.535485498771678 -9.420643909750879 154 108 95 255
54.722967430691966 -9.103908197088529 -9.163222882784453 150 102 92 255
55.244834972508841 -8.804877148625863 -8.702576068311458 144 98 85 255
55.210698116734164 -8.201993547128666 -8.716412022939153 138 94 81 255
55.176605885229264 -7.598591560520404 -8.730386007668869 137 93 80 255
55.142558608067191 -6.994659154533039 -8.744500023308916 131 89 73 255
55.426611350087512 -6.569058085746136 -8.487572659366094 126 89 70 255
55.472246498785267 -6.010133591950307 -8.434143945819898 120 86 62 255
54.881600190603677 -5.089009368755057 -8.923320812512685 111 79 54 255
48.284845154820374 -13.629730616034536 -14.081342383905707 175 127 113 255
49.915700445204493 -13.849102866637452 -12.677250017698981 183 129 117 255
50.753273748701616 -13.676534808173770 -11.947677450282498 178 129 115 255
50.876502275131884 -13.144389129802960 -11.825322350894311 183 134 120 255
51.476420469846431 -12.858067908237587 -11.298209980442010 180 131 117 255
51.997186751191350 -12.534602181353804 -10.838605258686982 179 130 116 255
52.438753474417496 -12.173162463740809 -10.446526067521290 182 133 119 255
52.801073100410463 -11.772918129816730 -10.121990605191939 179 130 116 255
52.845615456503936 -11.207181216431863 -10.067512673429974 173 124 110 255
53.128761369423842 -10.768232926085332 -9.810634034936385 167 119 105 255
53.412075620991629 -10.331033062073359 -9.553833495302740 165 117 105 255
53.218308962151724 -9.638906064440079 -9.702210854284942 156 110 97 255
53.660980359086324 -9.289629890052183 -9.310561713544388 149 103 90 255
53.944737331048287 -8.856519397881712 -9.054027377468060 146 98 88 255
54.706195236210533 -8.686754423423565 -8.392366365006978 141 95 82 255
54.592362044337136 -8.039308475094884 -8.473668088995225 134 89 76 255
54.319301103656045 -7.302475382759368 -8.690213914506245 133 89 76 255
53.886918994736874 -6.474581370892352 -9.042044562940788 128 86 70 255
53.852681381818769 -5.866936240178561 -9.056277694978547 123 86 67 255
54.455823326783815 -5.618653040372095 -8.530116656372627 117 82 60 255
54.342117610496217 -4.966836949282097 -8.612157936400052 109 77 52 255
45.863234647421393 -13.195765958062665 -15.350964406068385 172 128 113 255
48.450189404195100 -13.879443090106037 -13.145262878532634 180 132 118 255
50.163511673605399 -14.140503083041139 -11.678772308230918 185 133 119 255
50.923137881570710 -13.929619586143531 -11.018901576083749 179 130 116 255
51.364912700781673 -13.561531552313426 -10.627971629675102 182 133 119 255
51.409076947734121 -12.992096853798060 -10.573290867238399 182 133 119 255
51.532896935083926 -12.463932346328420 -10.451468509880300 180 131 117 255
51.418020728763679 -11.812262178667225 -10.531496615960577 182 133 119 255
52.019695423395234 -11.534667996157523 -10.006336328924078 179 130 115 255
52.382769290870044 -11.135197764458468 -9.682994381169550 173 124 109 255
52.746042207664402 -10.738035393093199 -9.359716046479576 163 115 101 255
52.711198160646688 -10.130688701652915 -9.372879520075116 156 108 94 255
53.234148383398662 -9.822285508766541 -8.915198636515356 150 104 89 255
53.757360839157400 -9.517267434341122 -8.457560371421152 144 98 85 255
53.961993595202358 -9.042332860422476 -8.269140089349008 140 93 83 255
53.847858009223927 -8.394162192476657 -8.350012817513687 136 90 77 255
53.653991492225487 -7.701058409320026 -8.498336633663541 132 88 75 255
53.220832308121686 -6.873874217755329 -8.848757515652579 131 89 75 255
52.787559567553672 -6.043393208895182 -9.199378727790446 128 88 71 255
53.072273298300360 -5.611956560461564 -8.944275693754577 122 85 66 255
53.835982358464037 -5.452083410450172 -8.285270988873236 116 81 59 255
54.200947127673146 -5.070887153867588 -7.962969486774227 107 75 50 255
45.143897724538334 -14.228382364967871 -15.189231792730823 175 138 116 255
45.743878702503110 -13.913004157321112 -14.665698597443168 181 130 115 255
46.583031295656014 -13.720071279046962 -13.941252256186829 184 132 118 255
48.298633213815037 -13.970026499141397 -12.479975537786913 183 134 119 255
49.218399155525248 -13.831425176631271 -11.688459614784534 188 136 123 255
50.058912806629593 -13.658720752042413 -10.963916764328928 185 133 120 255
50.421678148516349 -13.248239909905323 -10.641364465518961 184 135 121 255
51.023757977191195 -12.962638339056468 -10.117851782365364 183 134 120 255
51.227524253997700 -12.475434144156139 -9.929420257546042 180 131 117 255
51.112475974035078 -11.823898095689131 -10.009138944093991 178 130 116 255
51.236694872599770 -11.296392951080335 -9.887917958200148 175 126 111 255
51.839630792529988 -11.021203852450640 -9.364620723414305 170 121 106 255
52.203505601234355 -10.623323590185166 -9.042454424362973 162 115 99 255
52.328176913346624 -10.100269814216020 -8.921472912940686 153 105 91 255
52.612584601260068 -9.663389959175149 -8.666498491337535 147 101 86 255
53.216487771496730 -9.400411819086330 -8.143391328197055 142 96 81 255
53.261748534091083 -8.838137481886932 -8.089724555072536 138 91 81 255
53.227218193680955 -8.232328973181481 -8.103239109083404 133 89 76 255
52.873211796442121 -7.450535836666319 -8.385168420931876 134 92 78 255
52.838701650425918 -6.842602333197206 -8.398971330773293 135 93 79 255
52.964054929356678 -6.322987102643026 -8.278741718252206 131 92 75 255
52.929660359143895 -5.714538160881077 -8.292803281556587 127 90 72 255
53.534844378049087 -5.465356903555431 -7.770231381106214 119 84 64 255
53.660575312840393 -4.948519602818308 -7.650313743317298 110 78 55 255
