ply
format ascii 1.0
element vertex 656
property float x
property float y
property float z
property uchar red
property uchar green
property uchar blue
property uchar alpha
end_header
-56.088687458993860 -3.044622899166669 -22.451534780797793 0 4 0 255
-57.374536421846614 -3.064227708822543 -22.206487227973632 0 3 0 255
-56.815419554002290 -2.193886376806518 -22.321197744267522 0 3 0 255
-55.479818332804172 -0.940285398616496 -22.587436180326399 0 3 0 255
-24.583764022317212 -12.585924842029243 -29.080582374594115 186 146 112 255
-27.047131153516375 -12.843767974291524 -28.600142262991874 185 139 109 255
-28.243021994237552 -12.628143530615262 -28.369319525172635 184 137 109 255
-28.951426243283748 -12.230342411898036 -28.234522121477703 181 134 106 255
-29.854554969028271 -11.912295531249299 -28.061361954557519 166 116 91 255
-30.172944055457634 -11.369475690240094 -28.003423749123563 144 96 73 255
-30.199029568665793 -10.712631933383292 -28.003112488232411 122 75 52 255
-29.835504716786119 -9.900521645470448 -28.079625641955737 87 46 25 255
-30.056426822552766 -9.320676988719470 -28.040987410715147 69 33 12 255
-30.179928354205146 -8.702518467902266 -28.021582780415002 48 15 0 255
-30.400784532123822 -8.124466263899336 -27.983017627504445 51 22 3 255
-29.842717611139676 -7.228334212263903 -28.098069182697976 47 21 4 255
-29.868884285272941 -6.569846188601204 -28.097975089612412 40 22 3 255
-33.301927905781952 -7.326272843926304 -27.426015724772533 34 23 5 255
-35.176970730917446 -7.450363774581348 -27.061254012864659 15 14 0 255
-39.971142669077523 -8.813695399487358 -26.120614255875687 1 10 0 255
-44.861575177633455 -10.244662718547687 -25.160816165297526 6 13 0 255
-47.805015412594798 -10.872388932913395 -24.585002703420720 8 9 0 255
-49.288535488166616 -10.889552189107945 -24.297188852054688 7 8 0 255
-51.355388261521057 -11.167025545181673 -23.894229786949452 7 8 0 255
-52.060101121465834 -10.863273217934875 -23.760076183817901 5 7 0 255
-51.694885619143321 -10.094704948057824 -23.837139702079888 2 6 0 255
-52.593915677281672 -9.881050329367355 -23.664676275969939 2 6 0 255
-54.951235153241953 -10.319116460643286 -23.204284616411648 0 4 0 255
-54.099756228214801 -9.337779127712096 -23.377472202602505 0 5 0 255
-54.706631799947161 -9.006528968319969 -23.262733584711405 0 5 0 255
-55.021788953165554 -8.546559305501049 -23.205636144381252 0 5 0 255
-56.405964996597049 -8.574426138583107 -22.937397799322518 0 4 0 255
-55.263226180266486 -7.453115329955821 -23.168380531935689 0 3 0 255
-54.412257204949384 -6.459413629892140 -23.341822210034863 0 3 0 255
-56.476178860277315 -6.811478761114685 -22.939326879152432 0 5 0 255
-56.208167962446709 -6.087604116039230 -22.997673617396508 0 3 0 255
-55.648829035009925 -5.225217429045202 -23.113677417139336 0 3 0 255
-55.089631133706263 -4.359390899342529 -23.229740295933127 0 3 0 255
-56.472834121923739 -4.412351829777023 -22.961836984977644 0 3 0 255
-55.719498943856081 -3.452280814537588 -23.116417111851852 0 4 0 255
-55.354714684648798 -2.674277496451637 -23.194253125608974 0 4 0 255
-54.698788447424533 -1.753106587521998 -23.329759986252185 0 3 0 255
-55.984420198257340 -1.771870274500287 -23.081268407270301 0 3 0 255
-55.910960377414341 -1.132889950573627 -23.101677076445561 0 5 0 255
-24.508520066090455 -13.226164181285540 -29.775137652057630 176 153 112 255
-27.069130855587559 -13.513832646352768 -29.268396882016340 191 147 119 255
-27.972566943352916 -13.183368726139875 -29.092678350757708 191 142 118 255
-28.680937783137836 -12.782839871184521 -28.955932094529821 186 139 113 255
-29.389161507000495 -12.386073553801580 -28.819219325363079 183 134 108 255
-30.194654432860773 -12.031060956600626 -28.663071722886535 165 115 92 255
-30.415547113142878 -11.450746465801359 -28.623772560332462 144 95 72 255
-30.636400607118901 -10.871480501458265 -28.584507617901401 118 71 48 255
-30.467679516276831 -10.138034756807784 -28.623152277105142 86 47 25 255
-30.591125146338442 -9.520694756232672 -28.603426567117175 67 32 11 255
-30.617191393994688 -8.864501905027893 -28.603206085085375 50 19 1 255
-30.253855522372135 -8.049792854499970 -28.680896605572954 44 16 0 255
-29.890610613159595 -7.232865151043526 -28.758625264577219 41 17 0 255
-29.819447804229810 -6.534181235056693 -28.777988530334831 37 19 0 255
-30.721507556573783 -6.239150135032162 -28.602710319683005 36 21 1 255
-32.791085640954833 -6.437263845704450 -28.193855564439261 31 25 0 255
-35.249411181394237 -6.810511469711969 -27.707170274189515 29 38 8 255
-43.058008402452543 -9.465212876218075 -26.149773511836116 2 9 0 255
-42.401831693619982 -8.551944438233690 -26.286154760556954 8 10 0 255
-46.609103307922624 -9.723670718742895 -25.449162641540433 8 9 0 255
-53.464985122965942 -11.459481840958304 -24.086785819416228 5 7 0 255
-53.099699296641546 -10.694662268192204 -24.164930437260217 1 5 0 255
-53.901180859332015 -10.441875216066748 -24.009495816660049 0 5 0 255
-53.827590115588350 -9.805128882618888 -24.029325640601549 0 4 0 255
-53.365224350942754 -8.994113535104802 -24.127079615952219 0 4 0 255
-53.194546539801763 -8.311271947272246 -24.166475739642273 0 3 0 255
-54.675975867257193 -8.374218857546012 -23.874938944288942 0 3 0 255
-56.448597942242799 -8.577781764494290 -23.525035323621488 0 4 0 255
-55.111781268898199 -7.367472016048239 -23.798216691241372 0 3 0 255
-52.026624681219857 -5.343837723048253 -24.421925652284465 0 5 0 255
-53.119040793535817 -5.238788504156290 -24.208466076811440 0 5 0 255
-54.696858912009759 -5.366011761481005 -23.897698034436104 0 4 0 255
-54.817618453044190 -4.818214939671321 -23.879045564809658 0 4 0 255
-55.423888505903989 -4.499968815383099 -23.763089034306233 0 4 0 255
-55.447480809314669 -3.908121961067792 -23.764018296101248 0 4 0 255
-54.791507964678715 -2.991400421941691 -23.901314819073846 0 4 0 255
-54.426914287877622 -2.210628447318356 -23.980257424491676 0 3 0 255
-56.391879979767253 -2.553668171471557 -23.591894688827125 0 3 0 255
-56.997725792184440 -2.246596461215347 -23.476211860553143 0 5 0 255
-55.565633395433196 -0.945712504618726 -23.769555853220417 0 5 0 255
-26.603880045557020 -14.000748748564646 -30.035389911798752 191 150 119 255
-27.897043831374447 -13.814121725258914 -29.778216760753303 194 142 120 255
-28.507931410626270 -13.374217210247750 -29.659262839555161 192 141 119 255
-29.118693160605687 -12.937539178678961 -29.540342125371190 187 140 114 255
-29.924143635875936 -12.579530819497649 -29.381975050929263 182 132 107 255
-30.729425888106420 -12.225819524554183 -29.223643376243814 165 115 92 255
-30.950225839955692 -11.646817362038163 -29.183786808322154 144 94 71 255
-30.976236705252035 -10.991795114086756 -29.183444675714028 118 70 47 255
-31.099615911289959 -10.375539340919360 -29.163398420155254 86 47 25 255
-31.028270918092261 -9.681633148866609 -29.182867767480481 65 33 11 255
-30.567580725057212 -8.829762996586027 -29.281331840296154 49 20 1 255
-30.204334838074459 -8.014752776157692 -29.360094321411516 42 15 0 255
-30.133144111677495 -7.317175212161615 -29.379678230713033 38 17 0 255
-30.061980388725971 -6.618992632587094 -29.399302748355133 37 18 0 255
-29.990843981082605 -5.920199192832897 -29.418968967436960 40 24 1 255
-30.308891817630183 -5.383567434280167 -29.359721461999818 22 25 0 255
-40.891123851016886 -7.891916751688072 -27.228064482806637 1 9 0 255
-42.083092871847697 -7.764150579772476 -26.991338244741002 9 7 0 255
-47.066992551670836 -9.282569580543580 -25.984821422392947 6 5 0 255
-51.855353463364423 -10.743830896718023 -25.017819851715721 2 5 0 255
-52.365256082282713 -10.357657908139117 -24.919394252954532 0 3 0 255
-55.110731254123067 -10.959798183082356 -24.367000451608796 0 4 0 255
-52.704416095893663 -9.291178091359271 -24.860858853929592 0 4 0 255
-50.201466418389145 -7.565500589663088 -25.374514747569812 0 4 0 255
-52.363285593335604 -7.921747449365554 -24.940697669308058 0 3 0 255
-55.787720459195612 -8.860988813857844 -24.250294872650748 0 3 0 255
-57.754171178695657 -9.155874432897818 -23.856037430040736 0 3 0 255
-54.766138054982491 -7.192862414584852 -24.468614317882547 0 3 0 255
-52.458677937188867 -5.526163081953513 -24.943073084048130 0 3 0 255
-51.705616810316627 -4.566670867554066 -25.101734974510286 0 3 0 255
-53.574603733370424 -4.825634143618316 -24.727423388607974 0 3 0 255
-54.278048149129631 -4.547923612100846 -24.590063577491051 0 3 0 255
-54.981352905842471 -4.273822038648206 -24.452755836463012 0 3 0 255
-55.878665540697199 -4.095542007191540 -24.276014153989138 0 3 0 255
-54.543350983076834 -2.855193066311330 -24.553429302571210 0 4 0 255
-55.537600041274658 -2.726681343646462 -24.357057456198731 0 4 0 255
-56.628686718675652 -2.650308247395557 -24.140992390434981 0 6 0 255
-56.264093796861346 -1.871754817563101 -24.221157055832244 0 5 0 255
-27.042095045500503 -14.152353441984758 -30.624425296615620 195 150 123 255
-28.237540757072338 -13.929837853465287 -30.383722505660153 193 145 123 255
-29.043096120958182 -13.565064206718162 -30.223101723662602 190 144 121 255
-29.556288182688263 -13.092240287829227 -30.122549751395091 183 137 112 255
-30.458926248033009 -12.772985154836618 -29.941987684670345 176 127 103 255
-30.971867554656512 -12.306598674463757 -29.841506059257725 161 111 89 255
-31.387339208904308 -11.804621944750409 -29.761071203306621 141 92 69 255
-31.315952203233252 -11.112112376520670 -29.780726055078553 115 67 45 255
-31.633969338471815 -10.574232234556035 -29.720374873192988 88 47 26 255
-31.270589222514388 -9.764424718355798 -29.800134481550664 67 32 11 255
-30.615330116830108 -8.834381559121894 -29.939962479419940 51 20 2 255
-30.154851151938232 -7.979727114233228 -30.039808290110990 43 16 0 255
-30.180993434925426 -7.321722909079142 -30.039643290106781 39 17 0 255
-30.207141370725395 -6.663652878200708 -30.039520011938656 37 21 0 255
-29.065932290664392 -5.520439975472172 -30.279560227981101 30 29 0 255
-39.283806063933241 -7.190444800003746 -28.198636684443258 70 74 41 255
-41.934121633337810 -7.684625761559516 -27.658505994422413 16 8 0 255
-43.320059076194127 -7.646726825876613 -27.378551643327334 14 7 0 255
-45.774958304025461 -8.081754406625635 -26.878528452226988 13 10 0 255
-46.965802324600475 -7.976582380536840 -26.638684043351802 6 5 0 255
-52.140919381254974 -9.634875375033019 -25.578449747106085 0 4 0 255
-54.011031162565786 -9.855425622867187 -25.198614700538208 0 3 0 255
-51.508454710071447 -8.133259132646330 -25.719316534910597 0 4 0 255
-50.755168739668903 -7.182902447699732 -25.879878410468613 0 3 0 255
-53.207697634239508 -7.678047104655747 -25.380118968619406 0 3 0 255
-56.145345157415818 -8.407632412991006 -24.780341441256908 0 3 0 255
-53.060988762877685 -6.395528768382817 -25.421343191826402 0 3 0 255
-51.239737783986300 -4.947690448305309 -25.802259189148607 0 3 0 255
-54.565060794143591 -5.875577631031959 -25.122575035716615 0 3 0 255
-54.782894968378287 -5.372326930943885 -25.083339334104977 0 3 0 255
-54.709470522891507 -4.733284139430296 -25.104199966566782 0 3 0 255
-54.539014716435730 -4.047673109364254 -25.145134015649127 0 3 0 255
-54.853884243950944 -3.591318163134773 -25.086058630988653 0 3 0 255
-55.265744534529318 -3.182767028187683 -25.007026811177774 0 4 0 255
-55.580498791492715 -2.729526105926141 -24.948068296172799 0 4 0 255
-55.798179845315587 -2.230773723269920 -24.909185431338138 0 4 0 255
-54.948714236546977 -1.213744022700340 -25.090543478893856 0 7 0 255
-25.992463280881537 -14.422815383480739 -31.516112269119162 192 160 126 255
-27.869792339722437 -14.450520936770275 -31.130122838637789 199 152 128 255
-28.675316452615277 -14.082470093742330 -30.967282765667598 195 147 125 255
-29.480671826302085 -13.718728565477306 -30.804477690766412 189 141 119 255
-29.798965720054667 -13.172042150710283 -30.743119697555500 182 134 112 255
-30.798773653985620 -12.890995504915892 -30.539821617597191 168 120 97 255
-31.506299204653146 -12.501354635775471 -30.397407140601203 153 102 81 255
-31.921639081934046 -12.000684815607414 -30.315875367144343 136 88 66 255
-31.850218593806488 -11.309491084475539 -30.335788808743523 113 66 46 255
-31.778823815250007 -10.617717955697216 -30.355739071550303 92 48 27 255
-31.415512236468544 -9.808149895504542 -30.436571207825615 68 31 12 255
-30.663077162141860 -8.839010583116789 -30.598566590275873 52 20 3 255
-30.202697328848643 -7.984325025446637 -30.699757541916583 43 17 0 255
-29.547866116350320 -7.047116196483501 -30.841551454459569 35 17 0 255
-29.087733638656402 -6.186359386986538 -30.942825345208590 32 26 0 255
-33.957100030052629 -5.560496640214780 -29.948983631946994 84 74 39 255
-38.746548870389319 -6.945555376532312 -28.955311927451504 123 101 74 255
-40.327124657367222 -6.978524908382340 -28.630958220061082 122 98 79 255
-41.421383420631031 -6.809828830992771 -28.408056357421103 28 11 5 255
-42.612598892032707 -6.689284987876093 -28.164920418053811 14 4 0 255
-45.066834250746638 -7.128704302737972 -27.658173827653911 20 14 0 255
-47.423376106100960 -7.538675145605936 -27.171752554927544 10 8 0 255
-50.070869092691112 -8.090882798547383 -26.624529717049143 3 4 0 255
-51.357797267819933 -8.050036523909398 -26.361295137923427 0 3 0 255
-51.867402401167510 -7.666761093139030 -26.260364428514400 0 4 0 255
-51.988426377186045 -7.110301346797911 -26.240614105578373 1 4 0 255
-52.983428267025403 -6.952105156849356 -26.038374119982393 1 5 0 255
-54.657918732388310 -7.110523740854717 -25.694203462669101 0 6 0 255
-54.487373810768560 -6.427744133581953 -25.735459427533499 0 4 0 255
-54.996425890781182 -6.058858864580742 -25.634788767022847 0 4 0 255
-55.214180866490210 -5.556632439578706 -25.595024246043401 0 3 0 255
-53.976064966592617 -4.371854874689134 -25.859581921829651 0 3 0 255
-53.902783779154589 -3.729850941225621 -25.880793749736462 0 4 0 255
-54.411742453798439 -3.363743661268430 -25.780356871252799 0 3 0 255
-54.823582128192982 -2.953767656881283 -25.700263561219515 0 2 0 255
-55.235348247726762 -2.545751335684002 -25.620229864323484 0 4 0 255
-54.774024879562518 -1.717396689303357 -25.722836980450012 0 6 0 255
-53.536896157885508 -0.508550446741069 -25.987813727335599 0 8 0 255
-27.112507232327602 -14.827981730835248 -31.960938043126482 197 156 127 255
-28.112825317358045 -14.528846005284905 -31.754770198958070 198 151 128 255
-29.210312060845723 -14.272011145582340 -31.528084817327674 194 143 122 255
-29.918087179986856 -13.872393077545226 -31.383650403987311 187 137 115 255
-30.528356359974396 -13.439091095313771 -31.259805324598581 178 130 108 255
-31.138500229625777 -13.009008520310829 -31.135996717988540 160 112 89 255
-31.748519031965344 -12.582140695677239 -31.012225380069637 146 95 74 255
-32.163759413545165 -12.081966958571385 -30.929597411985782 131 83 61 255
-31.995021647558161 -11.352750182210045 -30.970322647576090 112 65 45 255
-32.118247201258612 -10.738807096545997 -30.949428210684651 93 49 30 255
-31.852277450142253 -9.969085948319659 -31.010782011111367 69 31 12 255
-31.294525313215843 -9.079678527400617 -31.133831648094379 53 18 2 255
-30.639634012807335 -8.147364867809813 -31.277473471026859 43 17 0 255
-29.595848779529405 -7.051692891046343 -31.503364529926962 33 19 0 255
-28.163298788002606 -5.789414215687074 -31.811505625214018 27 29 0 255
-31.547959530140105 -5.189263892468247 -31.112604286807333 106 106 64 255
-37.212114228079628 -6.925347029173508 -29.920645092183655 119 88 59 255
-39.084308069184829 -7.074189054899904 -29.530254579508870 119 83 58 255
-39.984228591709780 -6.815499711296127 -29.345430443877937 113 81 61 255
-40.495257465541187 -6.393407829400346 -29.242862778380662 81 55 35 255
-41.686346938837687 -6.270088531043015 -28.996479692335313 43 24 9 255
-43.168651453532931 -6.280889574817763 -28.688488430534939 13 0 0 255
-44.262064990465916 -6.128273593056477 -28.462754945516906 19 11 0 255
-45.840917729825037 -6.197097963122062 -28.134307994760682 13 11 0 255
-48.293538843039784 -6.664994525820518 -27.620933810732218 1 5 0 255
-51.522525585451035 -7.495605721815352 -26.943179443129758 0 6 0 255
-51.546474799066573 -6.894071275372468 -26.943721887160223 1 6 0 255
-52.638427340198092 -6.778656457715343 -26.718231236387659 2 6 0 255
-53.535993879879697 -6.580089757104176 -26.533898555903129 0 6 0 255
-54.821651630901385 -6.565231453962426 -26.267401166585877 3 8 0 255
-53.583534092658510 -5.386740826086893 -26.535370019646955 4 7 0 255
-53.025038567947036 -4.518057685075277 -26.659523842358837 5 6 0 255
-53.340011131326207 -4.055993102007946 -26.598745848950408 3 4 0 255
-53.557905514181840 -3.549530148038428 -26.558583040920290 0 3 0 255
-54.357857004254242 -3.320582833773287 -26.395144583595759 0 2 0 255
-54.575625281092755 -2.817513402952386 -26.355102410749289 0 3 0 255
-54.793363487057746 -2.315315997897642 -26.315123312026500 0 4 0 255
-53.750304248353075 -1.204023215551899 -26.542458517270639 0 8 0 255
-26.744935388023066 -15.354255040611065 -32.712817778320165 198 164 129 255
-27.939969064126871 -15.124022586287836 -32.462238685427231 202 156 131 255
-28.940005096169926 -14.826994967537871 -32.253346615955699 197 151 127 255
-30.037190238303964 -14.572265406728732 -32.023666867996731 192 144 121 255
-30.939442462767772 -14.249111835759749 -31.835673912325774 181 133 111 255
-31.257469011005981 -13.706126142632982 -31.772663610694089 170 122 100 255
-31.672763243053140 -13.202454850875867 -31.688865350385029 155 105 82 255
-32.282611140015206 -12.776889281802070 -31.563456902945589 138 90 68 255
-32.600412823696843 -12.239764943836732 -31.500558066287930 120 72 50 255
-32.237079288872650 -11.434542288271132 -31.583461809090281 101 56 35 255
-32.165693159012733 -10.743506112840279 -31.603933406975493 88 46 28 255
-31.802508277854002 -9.934684434921337 -31.686914098203502 66 29 10 255
-31.536678537418851 -9.162986231406180 -31.749111944331254 53 21 2 255
-30.590143837915264 -8.112364218598032 -31.957111940944905 40 18 0 255
-29.060372691606204 -6.817015744559882 -32.290090902241921 24 19 0 255
-27.239254898477640 -5.392511359135028 -32.685581079857926 37 45 9 255
-32.152794120320152 -6.092950458429002 -31.644297361438539 121 115 75 255
-35.775166407329124 -6.954805357275916 -30.873855419408677 139 110 77 255
-38.036103395957866 -7.259381033383207 -30.394979473553384 116 82 53 255
-39.130413242978193 -7.078316772553777 -30.166024497484322 93 62 33 255
-39.544321102302405 -6.610718207776941 -30.082878131725757 96 64 40 255
-39.958150897486291 -6.145175600602229 -29.999782000102307 82 56 33 255
-40.857633275959103 -5.893232035120207 -29.812621767082852 67 45 27 255
-41.465524615520081 -5.518297557699000 -29.687981733249067 50 31 16 255
-42.364669302740538 -5.275037228149813 -29.500923857396565 14 0 0 255
-43.554970667952404 -5.165881554777414 -29.251447286976834 17 8 0 255
-46.104464888071249 -5.670578037252426 -28.710490081664723 10 9 0 255
-49.041777276260916 -6.363864113620551 -28.086282299243663 5 9 0 255
-49.745579865756667 -6.062769806091197 -27.941072690128550 0 6 0 255
-51.031665581951387 -6.030543743480237 -27.670970205824538 0 4 0 255
-52.414541167566654 -6.049678802453400 -27.380093744626805 0 3 0 255
-53.214831069120777 -5.807754848457776 -27.214217930421746 0 4 0 255
-51.783079775138447 -4.534577838118267 -27.527381395192918 0 3 0 255
-51.515993540164857 -3.796557413102235 -27.590707716791002 0 3 0 255
-51.734067322705528 -3.284524852457267 -27.549968068532301 0 2 0 255
-53.019174048547569 -3.277536199679545 -27.280197337513002 0 2 0 255
-53.140072422631420 -2.724159454030811 -27.260404980464564 0 3 0 255
-53.648898816995938 -2.356617572931626 -27.157366958307101 0 4 0 255
-52.896977383917005 -1.385164905547882 -27.325156642718952 0 6 0 255
-28.059267096359179 -15.828643986847737 -33.107527984379928 204 164 133 255
-28.864475759579875 -15.456410491606519 -32.938069016967013 202 156 133 255
-29.961570982590104 -15.198394181575665 -32.705358621744978 198 149 127 255
-30.766409877616468 -14.835597854325044 -32.535973022564725 189 143 119 255
-31.376419502321767 -14.402760769382311 -32.408815391776976 178 131 108 255
-31.791664388089004 -13.898258279227647 -32.323885111624634 168 117 96 255
-32.109518050173648 -13.358179494825322 -32.260086884681591 151 101 78 255
-32.427311146093643 -12.819693533837963 -32.196326379082485 132 84 62 255
-32.842331461236967 -12.321049614393161 -32.111510081969563 117 70 48 255
-32.479055871549633 -11.516336223725759 -32.195488170579338 97 52 31 255
-32.504934960971184 -10.864596477631594 -32.195128129902606 83 43 24 255
-31.947286815520698 -9.978423246959920 -32.321373071811628 65 31 12 255
-31.681506441937046 -9.206958743829304 -32.384376889442940 49 24 2 255
-30.346223136191014 -7.998164096961347 -32.679455231420270 36 21 0 255
-29.302915622445312 -6.901364432062621 -32.911294570979187 25 22 1 255
-28.162638007547628 -5.758404801393255 -33.164272060752928 131 133 93 255
-32.563120428806286 -6.912552507253693 -32.214958825296009 137 119 83 255
-36.185115408393187 -7.765458564545838 -31.434444908645055 153 113 85 255
-37.765538210163925 -7.778208053982326 -31.096945654691176 165 120 95 255
-39.054115976509394 -7.675838569823512 -30.822775877716786 103 61 36 255
-39.565152151696765 -7.248429399859063 -30.717404434338469 116 80 53 255
-39.784644746145688 -6.698320771236453 -30.675364477618935 102 69 44 255
-40.004102412897794 -6.149185385022562 -30.633376139799800 94 64 41 255
-40.223525465488336 -5.601017222828645 -30.591440442045645 85 60 38 255
-40.345798561630176 -5.011231518316734 -30.570652465376277 78 57 38 255
-40.662269000960180 -4.507558056469904 -30.507731066858192 52 39 20 255
-41.561248955831957 -4.264094593337774 -30.318298715880069 19 13 0 255
-42.945461415822450 -4.242317859394689 -30.023447303832008 33 27 11 255
-44.717672342482501 -4.402623489425409 -29.644268731461302 12 14 0 255
-45.810072965932306 -4.265000766935117 -29.412805902674499 1 8 0 255
-47.775705734567907 -4.531011267693330 -28.991538768698845 0 7 0 255
-50.517239195206741 -5.163493703675258 -28.401555004698174 0 7 0 255
-52.190855843896344 -5.318786100067882 -28.043670123215485 0 5 0 255
-52.117782123756143 -4.672821404936371 -28.065569469221735 0 5 0 255
-51.462695177345722 -3.754404459203371 -28.214112850923975 0 4 0 255
-51.195759642865113 -3.014237189076695 -28.278337370458907 0 4 0 255
-52.092735225019624 -2.822214218346446 -28.089458483424089 0 4 0 255
-53.280454813710804 -2.773181164262397 -27.837343319753117 0 5 0 255
-52.625602752721790 -1.849349890823589 -27.986157079408677 0 7 0 255
-28.178545859983558 -16.532798594454491 -33.752297575139195 202 168 130 255
-28.983670263404349 -16.158627745132108 -33.580622712328733 206 160 134 255
-29.496596871045995 -15.679691038630040 -33.473084650360640 202 155 132 255
-30.788076479163607 -15.496502962438441 -33.194648010251179 200 148 127 255
-31.203387006879126 -14.988209843565684 -33.108549394539132 187 139 116 255
-31.715925641903510 -14.519234362106516 -33.001120780326389 174 125 102 255
-32.033760334883937 -13.978056576107591 -32.936461671917641 159 108 87 255
-32.643402296767078 -13.551611035568996 -32.807742933180599 145 95 72 255
-32.863805029559074 -12.976449906676507 -32.764526141797880 127 79 57 255
-33.181436885837115 -12.440587746879331 -32.699983118923519 111 65 42 255
-32.818208635344178 -11.636652899035283 -32.785036890197055 93 48 27 255
-32.746810186211349 -10.946890462734572 -32.806034881687047 81 39 22 255
-32.092023883939390 -10.022164831057594 -32.955263744581600 65 31 12 255
-31.729068017184318 -9.211600579710549 -33.040439516590631 46 17 0 255
-30.685703825161539 -8.121596319207171 -33.275211454253302 33 8 0 255
-30.614616864834119 -7.424311369009402 -33.296380992510805 94 74 43 255
-33.167762700684818 -7.810279698691090 -32.740754532678487 150 128 94 255
-36.206266841328102 -8.412291928749440 -32.078355680836843 164 119 94 255
-37.592199672815639 -8.339357562546795 -31.779202928265626 167 116 93 255
-38.492035898503133 -8.069135481829065 -31.586921749956723 147 101 78 255
-39.197386353230257 -7.721238994245411 -31.437419235041261 115 69 46 255
-39.514037677986636 -7.211050963911006 -31.373425308655719 120 82 56 255
-39.636375788452426 -6.618851261256808 -31.352212236448331 112 78 53 255
-39.661583077086220 -5.985046851788255 -31.352416817857964 96 66 42 255
-39.881012490075676 -5.435739032166552 -31.309946078034805 89 63 40 255
-39.809119714507489 -4.759660070327627 -31.331625098673818 80 58 35 255
-40.125598695836118 -4.254301384072278 -31.267900666481481 70 56 30 255
-40.247873702800462 -3.664194533235488 -31.246963547696133 51 45 16 255
-40.661328170885980 -3.204654447267401 -31.161988526029639 33 29 0 255
-40.589442150274209 -2.528831925221368 -31.183900422025282 28 34 3 255
-50.585255464818431 -4.561367941537398 -29.007284924148188 0 8 0 255
-50.899952749661480 -1.623549373996084 -28.969342617335499 0 10 0 255
-29.394879527651739 -16.967835744792239 -34.157739731172320 202 166 136 255
-30.297052493628627 -16.632946804789128 -33.962248293128852 204 163 138 255
-31.004388497634864 -16.230197101885594 -33.810069766537055 201 155 135 255
-31.419639481215171 -15.721332440518509 -33.722840820037199 196 150 127 255
-31.834807652174817 -15.214617150194570 -33.635647879336908 184 138 115 255
-32.152602124065112 -14.672877011359304 -33.570128970577308 171 122 100 255
-32.567616128846538 -14.170176914159569 -33.483010632755303 159 109 85 255
-32.982548069804608 -13.669612550705551 -33.395931141521935 142 92 69 255
-33.105621269935853 -13.057239388511491 -33.373800699372296 118 70 50 255
-33.228677249385299 -12.445371965845411 -33.351709849654682 108 61 42 255
-33.157241221861653 -11.756965007864622 -33.372931800680497 92 46 28 255
-33.085831433848853 -11.067973254465201 -33.394194906575521 77 37 21 255
-32.528367794267211 -10.183089254445392 -33.523679210313475 60 20 4 255
-32.457065032694288 -9.491561116661117 -33.545027652090653 41 3 0 255
-32.677373274216336 -8.918234325515925 -33.501514334787416 90 48 34 255
-34.646954417003997 -9.063600774580664 -33.068609210693580 172 129 109 255
-36.616112361950258 -9.219705604200286 -32.635753969725123 162 119 98 255
-37.807548043041436 -9.063252394537329 -32.376031507502084 161 110 89 255
-38.901581053902419 -8.872522964798165 -32.137993867126660 158 107 88 255
-39.315398368556743 -8.400988170287249 -32.051453536790717 144 97 76 255
-40.020527574337478 -8.055191552620130 -31.900057785544028 133 88 67 255
-40.239916899174119 -7.505616799636030 -31.856890419054992 123 83 60 255
-40.167945251154777 -6.831728613356205 -31.878682199616527 109 76 53 255
-39.998905568925466 -6.115154503187128 -31.922163856938710 99 70 46 255
-39.635743360553448 -5.312771562552072 -32.008972684052061 92 66 41 255
-39.466829052291928 -4.593250567499013 -32.052567584420650 86 65 38 255
-39.395032820307165 -3.915362435383159 -32.074585076650195 76 60 34 255
-39.129158265029531 -3.150562079964544 -32.139934483210496 70 56 29 255
-37.795874097738306 -1.906729399479403 -32.443345846876277 60 60 26 255
-29.734812880460879 -17.080479565085497 -34.753823633315136 204 166 136 255
-30.539462958607288 -16.710262476941026 -34.577790624298707 204 163 140 255
-31.635855078645164 -16.453435442306429 -34.336068667869903 199 154 133 255
-31.856377871717086 -15.872893804593716 -34.291562951827899 194 148 125 255
-32.368707453693986 -15.404113217290615 -34.181368254664996 181 134 111 255
-32.589118630096209 -14.826513615092310 -34.136935681387875 166 118 95 255
-33.101272805027463 -14.362286408309771 -34.026817661340715 150 100 77 255
-33.418823445909055 -13.825318453043479 -33.960554741309174 128 78 56 255
-33.444595782322011 -13.176006593591154 -33.960053864477665 119 71 51 255
-33.470372444402955 -12.526659209050095 -33.959593022708056 107 60 42 255
-33.301717920591869 -11.800234925758886 -34.002987215717418 87 40 23 255
-33.424732712549883 -11.189049396865812 -33.980702847493106 68 25 9 255
-33.256141913390479 -10.461177812397338 -34.024182197643341 51 7 0 255
-33.962270932348929 -10.086127467168581 -33.870547250349404 134 90 73 255
-35.542830288994452 -10.071188651566288 -33.519802036663371 172 126 108 255
-37.317380671708065 -10.144568981171247 -33.125293795150426 166 119 101 255
-38.217169283689458 -9.866352247876861 -32.927991993682497 168 121 101 255
-38.631057352438688 -9.390875151046899 -32.840270733622425 157 110 90 255
-39.044866371734258 -8.917478132904492 -32.752599342874412 151 104 84 255
-39.652839167468699 -8.528056729872347 -32.621166355148326 137 92 71 255
-39.969358914298056 -8.018123623105026 -32.555503690907848 127 87 65 255
-40.188722198536567 -7.468222070913868 -32.511800023944403 117 81 57 255
-40.116783570610295 -6.794011136029411 -32.533869249191305 108 76 51 255
-40.141953190838336 -6.161179511781953 -32.534087540653566 99 72 45 255
-39.681794206352890 -5.316714458498026 -32.643895156853240 90 69 40 255
-39.804092372570238 -4.724860064303002 -32.622321818843112 89 68 39 255
-39.247056922551650 -3.833504747602007 -32.754155339266710 81 64 34 255
-38.010914513003257 -2.636955727801578 -33.039400947574997 74 62 30 255
-27.712936256069270 -16.998177362046320 -35.881379829923461 195 170 133 255
-30.171930414949117 -17.228939058663428 -35.326061328343393 204 162 137 255
-31.268265192243518 -16.968008808723127 -35.081310422459353 204 160 139 255
-32.364366895170889 -16.713015544023222 -34.836599479647788 197 150 132 255
-32.779322632343337 -16.207576645730597 -34.747184675982957 190 142 120 255
-33.291458327466586 -15.741180727294861 -34.635628262206140 174 126 104 255
-33.511734597610172 -15.165971053628340 -34.590647277243882 157 108 88 255
-33.731971606058039 -14.591819493573453 -34.545704712646305 139 88 67 255
-33.660478314979457 -13.905603938989088 -34.567336686989883 124 74 53 255
-33.589010616664950 -13.218816434268689 -34.589007945086628 111 63 43 255
-33.614777786382234 -12.569698084867824 -34.588541762380210 99 52 34 255
-33.834946204826537 -11.997570470193793 -34.543762128933203 75 28 10 255
-33.763514112141479 -11.310117610345145 -34.565559239856803 77 30 15 255
-34.372346435334919 -10.895468316978949 -34.432158199045965 173 126 108 255
-35.855550271983105 -10.837945164081148 -34.099208100474421 164 117 99 255
-37.532748663854875 -10.867660556004367 -33.721953283594480 167 120 100 255
-38.821009744335299 -10.747028228426430 -33.433457553679894 166 118 98 255
-39.234793220486353 -10.272112786372531 -33.344605877074727 162 114 94 255
-39.162881830365819 -9.597242574941873 -33.366689295621747 153 108 87 255
-39.382336068790323 -9.043782914368052 -33.322292093835920 147 102 81 255
-39.893059530571605 -8.614161501378675 -33.211415517718727 136 94 72 255
-40.209501356214361 -8.104711116602630 -33.144945809601168 126 88 65 255
-40.428806478023603 -7.555293057717677 -33.100707018388739 118 84 59 255
-40.551007472202059 -6.965090021951909 -33.078700382481991 108 77 50 255
-40.576136940171125 -6.333284339614053 -33.078927286404515 97 73 43 255
-39.921940476451255 -5.405249924797658 -33.234453786985263 91 72 39 255
-39.656052354866375 -4.643588199142982 -33.301330985401222 87 71 37 255
-38.031870415106425 -3.280370571797846 -33.678757929571610 79 71 34 255
-35.146863258761812 -1.347329725887349 -34.344566553553342 68 75 30 255
-29.317984733301188 -17.572154134685007 -36.188774902191746 199 165 134 255
-31.095316570063687 -17.556459165250288 -35.783836087061488 204 161 138 255
-31.802239153580302 -17.153570128142675 -35.625900791003367 201 154 138 255
-32.800807609366331 -16.863516559387506 -35.400652219847224 191 142 126 255
-33.215642691332647 -16.359114426678573 -35.310145776507525 177 129 109 255
-33.727638197994537 -15.893752192422440 -35.197227640292390 165 117 97 255
-33.947833264069629 -15.319581424869924 -35.151698269398992 146 98 77 255
-34.265210690297181 -14.783901390620613 -35.083758679873192 125 77 55 255
-34.290895368690400 -14.136702635739269 -35.083207422473386 111 63 41 255
-34.219384217771164 -13.451497139367802 -35.105145646736773 104 56 36 255
-34.342277763190793 -12.842201753340461 -35.082227596210039 81 32 15 255
-34.756690576439581 -12.348946628776147 -34.992006979836241 138 89 72 255
-35.268190583611727 -11.896589545074292 -34.879383279148911 178 131 113 255
-36.265374562605274 -11.642154648158950 -34.654564665990293 173 125 107 255
-37.650935350301296 -11.550365605056541 -34.340002068784820 169 121 101 255
-38.744794402418677 -11.347295169088341 -34.092833925693718 167 119 99 255
-39.352798610502077 -10.950775729851500 -33.957955883192646 163 115 95 255
-39.475109295176367 -10.356748020729270 -33.935367573933618 159 111 91 255
-39.500301811641179 -9.722775997028037 -33.935277631385048 149 104 83 255
-39.622594187660184 -9.129395782851688 -33.912791386576210 142 97 76 255
-39.841954496340009 -8.577412838398928 -33.867910055077878 132 90 68 255
-39.867137078102843 -7.943980757187703 -33.867978499506727 121 84 61 255
-40.086448711447559 -7.393422098906086 -33.823206228473872 114 80 55 255
-40.208676002930304 -6.802078867102267 -33.800938202566584 108 79 50 255
-40.233851560042382 -6.169133303434862 -33.801175841295105 98 75 42 255
-39.870923438828214 -5.366868259662581 -33.891265571280194 90 76 39 255
-39.023003822684444 -4.349458377222106 -34.093658936643969 78 76 31 255
-30.241463413995405 -17.897287052436866 -36.646517230416940 203 166 139 255
-32.115612297921388 -17.919762443564267 -36.213973579533693 205 158 140 255
-32.919546483612407 -17.555606675998092 -36.031414201736517 199 150 136 255
-33.528822523824829 -17.123063326856069 -35.894337063392605 187 135 121 255
-33.651802797388228 -16.510643697343625 -35.870904370170386 167 116 98 255
-33.969211583071257 -15.972531664256863 -35.802067413699000 148 100 80 255
-34.383772228062298 -15.473181883110342 -35.710549430160931 130 82 62 255
-34.506645257243122 -14.863673686408845 -35.687233243764943 111 63 43 255
-34.629500928688429 -14.254676573150817 -35.663957685238465 99 51 31 255
-34.849519967080937 -13.684157679848042 -35.618004094583178 78 30 12 255
-35.458179659271167 -13.267648842385100 -35.481215376619424 166 117 100 255
-36.163874563023910 -12.892850598300797 -35.321753088110846 177 128 111 255
-36.675127927411893 -12.444221463378639 -35.207776418621371 176 128 110 255
-37.769104720587080 -12.232556792091287 -34.957532266338511 175 127 109 255
-38.571470728333196 -11.908809831497777 -34.775494863644262 170 121 103 255
-39.470787083838985 -11.628916432789410 -34.570788214782588 166 118 99 255
-39.690179133238132 -11.074774686844975 -34.525163965299306 158 110 91 255
-39.812440238147985 -10.481505913039982 -34.502308899366859 153 106 87 255
-39.740519076750701 -9.807889363972023 -34.524942757489718 141 98 76 255
-39.862772851383454 -9.214995506153770 -34.502191733764157 134 92 70 255
-39.887950334953814 -8.581605858888238 -34.502213301494031 127 86 64 255
-40.010187302939073 -7.989334291988939 -34.479571215302549 117 83 58 255
-39.938329292004312 -7.314528070925491 -34.502423048227023 111 79 54 255
-40.060561514512216 -6.722584450913445 -34.479894868336011 107 83 49 255
-39.600665211353203 -5.878902311356583 -34.593739497424927 98 80 42 255
-38.655843100601203 -4.820901166700921 -34.821241388569568 82 83 36 255
-31.942643612986672 -18.506701476640316 -36.915398140452943 207 167 142 255
-33.524498511326982 -18.426267709119017 -36.546683638100198 207 158 141 255
-34.230890631370698 -18.029762920455951 -36.384946260937518 198 149 134 255
-34.353784831932330 -17.418937356429311 -36.361201486657187 184 132 118 255
-34.087803045527011 -16.662163155158581 -36.429461051153083 155 104 86 255
-34.210703745178563 -16.051308957889631 -36.405789940253868 138 90 70 255
-34.333586660566311 -15.440973945262826 -36.382158021014199 125 76 58 255
-34.650816590898501 -14.906012669629575 -36.312584299552640 95 47 27 255
-35.356672571967380 -14.523440796266769 -36.151089654885354 86 38 18 255
-36.256704549435653 -14.220555842211297 -35.943658998752483 180 131 114 255
-37.156548222535378 -13.922494196679807 -35.736275226559336 172 123 106 255
-37.861925081399733 -13.552230827878262 -35.574919570211641 172 123 106 255
-38.081513807628966 -12.991798413950775 -35.528562063228549 170 122 105 255
-38.689536809908759 -12.588595247442882 -35.390291864210816 165 117 100 255
-39.006115331847127 -12.070612420883265 -35.321040353690279 165 116 99 255
-39.711021335786995 -11.712551548097323 -35.159879385652850 160 112 94 255
-39.833269229773549 -11.119035063188818 -35.136707502401229 152 103 86 255
-39.955502372526439 -10.525983596484636 -35.113586902967391 148 104 84 255
-39.980656857153292 -9.892989247859234 -35.113508347328796 134 94 72 255
-40.005818703376178 -9.259907936072736 -35.113483448859959 127 90 67 255
-39.933945522427337 -8.585790548842184 -35.136503050986825 125 90 66 255
-39.959133824208010 -7.952247231161152 -35.136589339047212 117 85 59 255
-39.790288079448828 -7.235630397782927 -35.182712491376016 108 80 53 255
-39.524483637814228 -6.476065240860166 -35.251884574745816 99 82 46 255
-38.288756127293482 -5.294502602072257 -35.551016168770957 93 87 43 255
-32.768014493887449 -18.796221852053421 -37.384406495897814 211 166 145 255
-34.349470494221606 -18.717880599702994 -37.011353725012590 208 157 142 255
-34.958424195741372 -18.287409968798912 -36.870979481285069 198 145 129 255
-35.275635768156860 -17.751130959660600 -36.800433813310782 181 128 112 255
-35.009617502449430 -16.996756928243499 -36.869503010883896 155 102 86 255
-34.743667008822257 -16.240744438530598 -36.938608577088083 127 76 59 255
-34.672131287304467 -15.557403626948641 -36.961227606014560 117 66 48 255
-35.086434224802531 -15.060633269131557 -36.867577335745203 95 44 25 255
-36.277871033778524 -14.867574193407123 -36.587877620180187 182 131 112 255
-37.371913862491709 -14.642995308419728 -36.331487580562602 175 126 106 255
-38.174334162933178 -14.309605577377184 -36.144929675741061 172 124 104 255
-38.588108961020197 -13.826460381893099 -36.051463974123614 171 123 103 255
-38.807585275732123 -13.267869346893761 -36.004567550824142 165 120 99 255
-39.027024325499326 -12.710303618308643 -35.957719066504993 159 114 94 255
-39.052251307348911 -12.075119933657177 -35.957440937317180 151 108 89 255
-39.465791772319761 -11.598227666142137 -35.864170458798000 149 106 88 255
-39.782186815227533 -11.083566785109682 -35.794212147381394 144 101 84 255
-40.001468943915029 -10.530321001528520 -35.747566855824026 138 97 77 255
-39.832536958186182 -9.816472073290257 -35.794016726302068 130 92 69 255
-39.663655461966073 -9.101453091197882 -35.840521316414360 125 91 66 255
-39.785894023087479 -8.508082515733406 -35.817300883701840 119 88 62 255
-39.908119233747897 -7.915152852748335 -35.794137816707227 114 85 54 255
-39.642325189054134 -7.156727661457907 -35.864075367380799 104 85 47 255
-38.600678208373324 -6.062540299792659 -36.120158269119095 87 91 41 255
-33.690286249275687 -19.121249590416909 -37.825507428913816 209 164 145 255
-34.979710842336800 -18.937856697156633 -37.518721662392174 209 157 143 255
-35.782876721434434 -18.581107797831820 -37.329650598641145 194 142 126 255
-36.002758922654294 -18.010601904322797 -37.281823874932584 174 121 105 255
-35.736725723461376 -17.258087243923484 -37.351703395278427 144 91 75 255
-35.373595944958396 -16.467047732105968 -37.445153185604873 119 68 49 255
-35.302016961371208 -15.785289477198759 -37.468042098253434 97 46 27 255
-36.104750663210069 -15.439792089434249 -37.279177787418888 186 135 116 255
-37.295846378763684 -15.249367562642547 -36.996230114962245 177 126 107 255
-38.292446252557369 -14.989458743888235 -36.760395860076279 172 123 103 255
-38.511949810790611 -14.429023606484748 -36.712866601164073 168 120 100 255
-38.925615881260683 -13.946635177758751 -36.618320227960581 168 120 100 255
-39.047933451969925 -13.350027226685711 -36.594417305978560 163 117 96 255
-39.170235333990746 -12.753902911988135 -36.570562955114958 155 111 92 255
-39.098385996797703 -12.079622726703619 -36.593821271988638 146 103 84 255
-39.414793210137958 -11.563084461894377 -36.523004833734205 143 100 81 255
-39.828189099521751 -11.087953389069057 -36.428709689731285 139 98 78 255
-39.950398969589429 -10.494522314771885 -36.405061980814416 135 94 76 255
-39.684494890078923 -9.739953327136149 -36.475593694310874 126 90 66 255
-39.418662941209135 -8.983671902509485 -36.546181261546870 121 89 61 255
-39.734924091900979 -8.471310227178392 -36.475638922654284 112 87 56 255
-39.663158295120297 -7.795629148765002 -36.499280024633720 103 85 46 255
-39.203494993340428 -6.953375704634027 -36.617106546294607 93 89 40 255
-33.420060876574382 -19.669552361138287 -38.548241415488562 194 169 137 255
-34.709400134670858 -19.481776830384320 -38.237889457999735 208 165 146 255
-35.804088165476742 -19.229417243531316 -37.975192143406794 210 161 146 255
-36.121127594982710 -18.694413241893642 -37.902977479536972 193 141 127 255
-36.340939628189346 -18.124676120414080 -37.854606475473211 168 115 99 255
-36.366401116400681 -17.482778256064918 -37.853883585298853 134 82 65 255
-36.197576622533177 -16.767094279527939 -37.900808230326447 99 48 29 255
-36.125933060995351 -16.087458292359898 -37.923968902365388 152 103 83 255
-37.025549048357618 -15.781486924455976 -37.709136584163055 176 126 107 255
-38.216314522961227 -15.593426218690340 -37.422942213517089 171 121 102 255
-38.630011846326823 -15.108101551626604 -37.327221612459873 166 118 98 255
-38.849445959143480 -14.548427437527366 -37.279153770083774 163 115 95 255
-38.874681501080261 -13.912777605172238 -37.278738669749174 162 115 95 255
-39.191131902707298 -13.393398547759460 -37.206964132673143 153 110 91 255
-39.313405765736661 -12.797493243787599 -37.182844397820539 148 105 86 255
-39.435664352712422 -12.202065206915321 -37.158775425302672 143 101 82 255
-39.557907962776369 -11.607109181851456 -37.134758455280753 139 98 78 255
-39.874190496068394 -11.092331855549091 -37.063190589457598 136 98 77 255
-39.608319363664975 -10.338338788209327 -37.134489564014849 132 96 74 255
-39.051504248649564 -9.461447028672410 -37.277250085284862 126 90 66 255
-38.688815034724826 -8.662553024879870 -37.372463694698588 120 89 58 255
-38.811138970097147 -8.066087324658184 -37.348725919467419 109 91 49 255
-38.739503786726544 -7.387642420162322 -37.372652237739850 93 92 38 255
-33.370056068359958 -19.639543188615960 -39.223534641317201 199 169 141 255
-36.019654982182630 -19.948855911311696 -38.572588531661715 208 165 148 255
-36.530980646176715 -19.485147170634463 -38.451369391334303 211 162 148 255
-36.750730101890042 -18.915920464397189 -38.402417300880060 190 139 125 255
-36.484706743289081 -18.166058923707610 -38.473881071939836 161 110 93 255
-36.413023045889958 -17.487781058662534 -38.497232006128876 111 60 42 255
-36.632740187403840 -16.919584444042528 -38.448398494660658 131 83 61 255
-37.046647478703250 -16.426745138821843 -38.351458778032473 184 136 115 255
-37.848888382484859 -16.085722582789060 -38.158267081960112 171 123 103 255
-38.553869268913473 -15.711296995746039 -37.989197255527976 167 119 99 255
-38.967457921770688 -15.226729615497746 -37.892397051630198 160 113 93 255
-38.992679549295161 -14.591351548990176 -37.891939186401899 157 110 90 255
-39.114967460213592 -13.994426549221402 -37.867455559213525 155 108 88 255
-39.237239628686751 -13.397987805394308 -37.843021195197970 149 105 87 255
-39.359496347388784 -12.802030240742909 -37.818637343151146 143 101 82 255
-39.578766562968127 -12.245862036576753 -37.770232241101247 138 97 77 255
-39.895018353662380 -11.730289087891194 -37.697807412589619 134 96 75 255
-40.017198288392791 -11.136554930558361 -37.673582839796062 132 96 74 255
-39.460389047440799 -10.262408588583000 -37.817923518684886 128 94 69 255
-38.612759369354279 -9.263744634439945 -38.034539147303306 127 93 65 255
-37.959280996879443 -8.341449968021735 -38.203067530787642 113 91 52 255
-37.499889815493617 -7.497141011673065 -38.323510522553498 93 94 38 255
-35.069145242989833 -20.244182467398673 -39.461075491382594 206 169 145 255
-37.135078536263023 -20.344826243268017 -38.948904478062104 210 164 148 255
-37.549041071688436 -19.848244034633652 -38.850679618705861 210 161 147 255
-37.282956827549384 -19.101335708107840 -38.922919717116166 188 137 123 255
-36.919813204135238 -18.316454085931809 -39.019542477610692 159 108 91 255
-37.042340450914793 -17.712436225963117 -38.994473628855808 152 101 83 255
-37.553272486230640 -17.256451765014845 -38.872064482634521 180 132 110 255
-37.967006611257148 -16.765993364756554 -38.774045708142076 175 127 106 255
-38.477743525055274 -16.315084559594254 -38.651727596342518 168 120 100 255
-38.891304478851225 -15.829152458857209 -38.553801429914067 163 115 95 255
-39.110659217240709 -15.269421947679390 -38.504612128559515 157 110 90 255
-39.427028257768484 -14.748956987461952 -38.431126556900473 154 107 87 255
-39.549255998374008 -14.153062470729651 -38.406378961093843 152 105 85 255
-39.574437612439567 -13.518882324074085 -38.406025543432172 144 101 83 255
-39.696645120575340 -12.923682554923218 -38.381379385214267 140 98 80 255
-39.721828572310443 -12.289646160178492 -38.381129730247693 134 96 75 255
-39.747018773423093 -11.655538506147622 -38.380933897032918 130 94 72 255
-39.287278377745082 -10.822092676349243 -38.502511486297102 127 93 68 255
-38.536722497102488 -9.865491511765811 -38.697176096189935 123 92 64 255
-37.786346366869111 -8.904474016785656 -38.891898561287611 116 94 55 255
-36.842239844451115 -7.857705783946756 -39.135368103538347 94 96 44 255
-35.310310629739433 -20.319916729989089 -40.058645919444984 212 170 148 255
-36.987253634948786 -20.278916051571699 -39.639259455714360 211 164 148 255
-37.401160511061931 -19.781747730036571 -39.539949687791974 208 161 145 255
-37.717866751135148 -19.250664035602028 -39.465297906011223 194 145 130 255
-37.451867742525280 -18.503168438956692 -39.538388451925513 180 131 114 255
-37.671420178098344 -17.937065115453819 -39.488435049241538 178 129 112 255
-38.182191618884019 -17.482649296988299 -39.364675961893070 177 130 109 255
-38.692860108658095 -17.030907585459772 -39.240962756628839 174 127 107 255
-38.912232342460669 -16.469583803666623 -39.191143669137503 164 116 96 255
-39.034512687624840 -15.871616190218447 -39.165986647001624 159 112 93 255
-39.156776665606827 -15.274147038247079 -39.140876969947016 152 106 87 255
-39.279024560065267 -14.677171535959189 -39.115815907609139 148 103 83 255
-39.401256658664323 -14.080684781232762 -39.090804735327261 146 101 81 255
-39.135429783129581 -13.329606707556309 -39.164303888684643 138 96 77 255
-39.354674249579375 -12.772040029477139 -39.114781182597916 132 94 73 255
-39.670871727152360 -12.254797073577777 -39.040697960647371 129 92 69 255
-39.696075697306327 -11.620364057333802 -39.040513622507980 128 94 68 255
-38.751607871167437 -10.587348557545241 -39.286529840231914 127 95 65 255
-37.613448259706104 -9.468597498675635 -39.581831908952729 120 96 58 255
-36.572500998783767 -8.383655269739592 -39.852578766706536 99 100 47 255
-35.939917327504475 -20.536657425057840 -40.555540027412100 214 169 146 255
-36.645264692260099 -20.141968199646101 -40.380438615701514 211 164 148 255
-37.156246690674692 -19.679466309206944 -40.255156419861343 204 157 141 255
-37.667124848818958 -19.219654450600743 -40.129916584684601 195 147 130 255
-37.983723842278749 -18.689860016766417 -40.054495309452115 186 137 120 255
-38.494416483891371 -18.234875277935771 -39.929342746496665 179 130 113 255
-38.616740645627686 -17.635069155620471 -39.903783668383916 176 129 109 255
-38.836103349517032 -17.072919061188017 -39.853382332621202 167 120 100 255
-38.764293110045969 -16.399570386796128 -39.877686634312020 160 113 93 255
-38.983611756507685 -15.838698973322778 -39.827378288005328 155 110 91 255
-39.105869260231032 -15.240909504741666 -39.802004705444716 149 104 85 255
-39.325123513026625 -14.681838488244424 -39.751794856980247 143 100 81 255
-39.156332721576661 -13.969809755476305 -39.801178952529405 140 99 79 255
-38.696617245814821 -13.140340790542723 -39.925270972332761 134 98 74 255
