ply
format ascii 1.0
element vertex 671
property float x
property float y
property float z
property uchar red
property uchar green
property uchar blue
property uchar alpha
end_header
-55.452109983636802 -12.119579068157307 -18.343155225034280 3 5 0 255
-55.371574110107211 -11.326221928613961 -17.949106110850011 2 4 0 255
-55.194167239809559 -10.328387231134556 -17.052845043514424 3 5 0 255
-55.521061242949564 -10.383472817558513 -18.767935984702717 3 7 0 255
-55.576577144109294 -9.874088116884280 -19.076814033888382 0 2 0 255
-56.117088551709585 -10.397067813185572 -21.896365428720145 0 2 0 255
-56.425007564927263 -10.436957597248593 -23.510576229008677 3 5 0 255
-56.015359154972927 -8.939370391031147 -21.408986553361842 4 8 0 255
-55.974347872725929 -8.229152045216750 -21.215462526926132 5 9 0 255
-56.496024313073427 -8.745122438674414 -23.933988605682288 6 9 0 255
-56.746257025700778 -8.679156554185482 -25.246507589722597 4 7 0 255
-56.220582785707663 -6.905053573527212 -22.542480539429704 1 6 0 255
-55.712729240079042 -4.527565622295839 -19.946100589068891 0 4 0 255
-55.750002553064469 -3.983147984403942 -20.153972454827908 0 5 0 255
-55.069461102003743 -1.812720291785183 -16.647048971708756 0 5 0 255
-43.159616191768748 -2.460116122267536 41.884329918547991 196 176 144 255
-43.624607229201928 -2.513222352397733 39.464333448162137 188 152 126 255
-43.815208731722535 -2.081798952776367 38.450015201835896 175 144 116 255
-43.829410057825427 -1.333468520264773 38.339289344150330 162 128 101 255
-54.223854333349685 -13.977384512038938 -15.149212445329312 3 10 0 255
-54.534421937517592 -13.956946776996560 -16.762852113429886 5 9 0 255
-54.845125928380241 -13.945041749710725 -18.376344728177997 4 9 0 255
-54.645457922198823 -12.919080848302698 -17.380799365311105 4 8 0 255
-54.622580943771261 -12.243928934914763 -17.288329463089582 3 7 0 255
-54.717621324478756 -11.807296566469006 -17.797837631052886 1 4 0 255
-54.636019902502120 -11.011883203646747 -17.404284382418894 0 4 0 255
-54.495585179068577 -10.092844976917050 -16.709730318164191 3 7 0 255
-54.767703443398332 -10.024288365587097 -18.122011526113340 2 7 0 255
-55.786376369017162 -11.519717180430789 -23.346394977179386 2 4 0 255
-56.078450696391485 -11.517567049996629 -24.858601295493628 6 8 0 255
-55.643800502471812 -9.987604487888973 -22.658992209847241 7 9 0 255
-55.523542364073791 -9.113901341123025 -22.064477913968261 5 9 0 255
-55.423025609057703 -8.278744087666084 -21.570266045918629 9 13 0 255
-55.735212610581179 -8.329444029213519 -23.182464669907205 6 11 0 255
-55.733159291108414 -7.707055592637218 -23.189670951049038 3 9 0 255
-55.377525163553400 -6.312731519823572 -21.391436490827857 0 7 0 255
-55.336382224931953 -5.598614811919617 -21.198010567026103 0 4 0 255
-55.570468874337678 -5.490970074334342 -22.408655790884325 0 4 0 255
-55.470609611012435 -4.646859433982158 -21.914241271946537 0 4 0 255
-55.193991451333837 -3.404044800775708 -20.517221065352828 0 4 0 255
-54.603029568924242 -1.445464882679943 -17.515685975350294 0 6 0 255
-55.152070352115643 -2.051808086391588 -20.330591891068110 0 7 0 255
-42.612876395140574 -2.781365171628195 40.658364378032587 189 177 142 255
-43.123501520561298 -2.907463180494162 38.040464220933671 186 150 124 255
-43.157677633803338 -2.194859854977892 37.829511509227558 176 142 115 255
-43.072775449488027 -1.268435193456213 38.220268892422126 161 127 100 255
-54.719084171267262 -17.315372742017104 -20.807340727356575 20 26 8 255
-53.920317186673500 -15.159763167512082 -16.805509829232250 4 8 0 255
-53.678109846263261 -14.060639281849447 -15.610682692401468 6 10 0 255
-53.694393919180172 -13.459038581295673 -15.718996871286322 8 10 0 255
-54.108402065494190 -13.638936289686868 -17.831961281007153 7 9 0 255
-54.144782028379687 -13.082858972270799 -18.040349303455145 2 5 0 255
-53.664261152256557 -11.498117726895160 -15.642757929336341 1 5 0 255
-54.297376299412598 -12.132930042869972 -18.857866407959989 1 5 0 255
-54.473265963595864 -11.861670104126773 -19.767631312665742 1 5 0 255
-53.575295475091870 -9.412701517246106 -15.265526795834916 5 9 0 255
-55.439252229489931 -11.977207021413406 -24.700971150004449 7 11 0 255
-55.754891949060401 -12.019349703281847 -26.311716847932786 9 13 0 255
-54.877073880405980 -9.579749037517814 -21.910026411932989 4 8 0 255
-54.655775045067536 -8.494574152182494 -20.815229946742647 4 8 0 255
-54.892151585806630 -8.370298941645189 -22.025022299045986 4 8 0 255
-54.989385164408901 -7.956072760855946 -22.533326143661839 5 8 0 255
-55.027045344149521 -7.416541186537629 -22.740976136247440 4 7 0 255
-55.383189725575043 -7.563725212369846 -24.551588570436508 0 6 0 255
-55.003215036190021 -6.124271346246232 -22.655168805219716 0 3 0 255
-55.280015570186372 -6.106820057937057 -24.064845843026291 0 4 0 255
-55.338047682816338 -5.616181204886942 -24.372412547897000 0 4 0 255
-55.654916497359828 -5.698379364722911 -25.982205384250932 0 3 0 255
-55.154636892085719 -3.351206417306287 -23.491635995456107 0 4 0 255
-54.297621913770733 -0.801053977023045 -19.191281623198364 0 6 0 255
-41.909776960434108 -2.822646910165815 40.235805944284692 190 180 145 255
-42.527330889735438 -3.125325949562040 37.119896213726832 187 150 124 255
-42.461430850362937 -2.236801216231299 37.410015045343386 177 141 115 255
-42.335272827790000 -1.239153856293797 38.000646069649207 161 127 100 255
-54.147106481121519 -17.321220538869156 -21.062301893429009 19 18 3 255
-53.781121696914056 -16.007049077398463 -19.267872203296520 10 9 0 255
-53.274274349690700 -14.413394448410472 -16.772614898244626 11 9 0 255
-52.948587832128013 -13.155047143568396 -15.178641430094103 12 13 0 255
-53.387870898955278 -13.371866546323062 -17.389457517826457 10 10 0 255
-53.183107562669115 -12.342084944631424 -16.396222561441192 4 6 0 255
-53.622651086033777 -12.573784776713964 -18.606772118782374 3 7 0 255
-54.183152310161390 -13.056476965876627 -21.417818119616783 3 7 0 255
-55.730458485127279 -15.521080990438520 -29.134057407016286 5 9 0 255
-54.579736053498827 -12.612154754835259 -23.435366762650631 8 12 0 255
-54.455999553146505 -11.746919604964745 -22.842317728572255 9 13 0 255
-54.735129433054304 -11.697345721121039 -24.251280890429314 5 9 0 255
-54.672003114639963 -10.954300046611749 -23.958454945519037 3 7 0 255
-54.347128497333074 -9.669893547564413 -22.364382879369231 3 7 0 255
-54.284174800076237 -8.919601019618582 -22.071553217710033 5 9 0 255
-54.261605952815586 -8.251533674787410 -21.978874325730345 7 11 0 255
-54.480877822455142 -8.090504354765756 -23.087170543039917 4 8 0 255
-54.619695544267223 -7.764862522958381 -23.795026168727247 1 4 0 255
-55.262300836089736 -8.514390912747160 -27.004743906371687 0 4 0 255
-55.240204448238579 -7.857601288977961 -26.911740375422227 0 3 0 255
-56.123198877470521 -8.551015304841798 -31.328772484950292 0 4 0 255
-55.151549909941785 -4.605790169933684 -26.546159860831125 0 3 0 255
-54.082253608752694 -1.615826750145942 -21.249959348336120 0 5 0 255
-40.942610022830230 -2.409102611569736 41.114334249167797 194 183 148 255
-41.730607901805939 -2.990578818962959 37.201285173920070 191 151 126 255
-41.887821385983699 -2.491833787831453 36.390387921558073 179 140 115 255
-41.780501469059843 -1.531982686054889 36.880306208368580 161 128 101 255
-41.795399702179033 -0.785711254019120 36.769911882931382 138 108 80 255
-53.575151940119127 -17.327016255724772 -21.317253264692027 16 10 0 255
-52.654579695456007 -14.980611721159889 -16.824189233007843 21 16 4 255
-52.834181871392374 -14.689032249797862 -17.732504268036166 17 13 2 255
-53.197282953007644 -14.751200537177155 -19.540874305557821 14 14 0 255
-53.621657703323130 -14.940141929457923 -21.649125282953520 11 11 0 255
-54.188836831917989 -15.415586077997801 -24.457267152759215 3 7 0 255
-54.103997442513460 -14.639082835613408 -24.064966440521061 2 6 0 255
-54.977200404390246 -15.733912545372604 -28.372812968300622 2 6 0 255
-54.321838236428349 -13.841646063769758 -25.180333204491006 6 10 0 255
-54.013024255722428 -12.618752716017681 -23.687972511314570 8 12 0 255
-54.845895266915385 -13.665660553525257 -27.795297962999001 7 11 0 255
-54.272223871486233 -11.908899120814382 -25.003001636822660 3 7 0 255
-54.085965344367324 -10.919978784149691 -24.110597040939211 3 7 0 255
-53.879393327637310 -9.884447455077861 -23.118226612838498 2 6 0 255
-53.713680543429007 -8.926788647635775 -22.325839442182200 2 6 0 255
-53.731581597815868 -8.342925912009278 -22.433253391946437 3 7 0 255
-54.014700154864123 -8.309470306488109 -23.840275258491630 4 8 0 255
-54.542682452035194 -8.794461376701577 -26.446809085181911 1 4 0 255
-54.377386937364250 -7.836117497599545 -25.654242796335240 0 4 0 255
-55.170797496339091 -8.900437186382817 -29.559998247272915 0 3 0 255
-55.413668771223044 -8.813803627733677 -30.766514413532093 0 4 0 255
-54.738773961162323 -6.767856898456799 -27.474802874185826 0 4 0 255
-54.327535022506154 -4.655428335880188 -25.489630724163362 0 2 0 255
-54.387266704815964 -4.169067633277507 -25.796396422521696 0 3 0 255
-54.324719110939064 -3.415395768453919 -25.503419853481034 0 4 0 255
-53.731865888525306 -1.488521233425786 -22.611901433544261 0 4 0 255
-39.557512563866887 -1.295954341493555 43.989331346497437 192 191 153 255
-40.870103276300682 -2.750048217666560 37.581649031271894 195 155 133 255
-41.152863371078062 -2.462609916124393 36.171900210438054 177 142 118 255
-41.270915678896067 -1.896312365171468 35.561847615263076 162 130 105 255
-41.430285779929420 -1.405288205230477 34.751989944425844 143 111 88 255
-41.363070192560073 -0.518801596865444 35.041542830081283 110 81 57 255
-52.099933074807097 -16.299943895168710 -17.167641035212711 57 39 26 255
-52.302153203993285 -16.042054493537265 -18.175025039440783 55 42 31 255
-51.968333476501122 -14.795392069439742 -16.584559715102870 43 32 22 255
-52.026376001977937 -14.271495307483448 -16.892457931812686 25 18 6 255
-52.558872442904388 -14.640932649597346 -19.498147055669449 19 16 3 255
-53.277167486789402 -15.375765469518655 -23.002748116447748 11 11 0 255
-53.314945660334303 -14.831915134030709 -23.210389152566592 9 13 0 255
-53.022751025569924 -13.655533932585456 -21.819642350610394 12 16 2 255
-53.349515533862103 -13.667255954497193 -23.425735460280151 12 16 2 255
-53.717677496425935 -13.767768217659409 -25.231461506539318 8 12 1 255
-53.652681401963321 -13.029351774154122 -24.939422424444530 4 8 0 255
-53.794113504606514 -12.695899081452694 -25.646191358381287 2 6 0 255
-53.791205710868532 -12.079406696086195 -25.653719018512049 1 5 0 255
-53.540747562656563 -10.968041119925559 -24.462694295269728 1 5 0 255
-53.455462495396752 -10.181890802551564 -24.070689799493920 1 5 0 255
-53.370266338065008 -9.393343608083654 -23.678669889049047 1 5 0 255
-53.367723424448492 -8.770549130169940 -23.686098563245309 1 5 0 255
-53.427207292732085 -8.274456700792825 -23.993073114705595 2 5 0 255
-53.342302898036863 -7.481664269897465 -23.600966028587209 2 5 0 255
-53.092347545507721 -6.343579336664433 -22.409987196391114 0 5 0 255
-53.544390664748704 -6.665121215730778 -24.614055642132485 0 5 0 255
-54.388844851685867 -7.823070892332950 -28.715094297568697 0 5 0 255
-55.109600650815977 -8.741082051432514 -32.216746737351741 0 5 0 255
-54.054879263057416 -5.898263610948419 -27.131548358968985 0 2 0 255
-53.309909734628008 -3.690627471228950 -23.544232806324686 0 2 0 255
-53.205107115050971 -2.842397571745380 -23.052063952943257 0 2 0 255
-53.513397917627024 -2.886525239912359 -24.556572288748015 0 3 0 255
-53.512082491825318 -2.262885647010506 -24.563462220879870 0 4 0 255
-40.047829539125345 -2.580001352977561 37.760783083269331 192 152 130 255
-40.521669688383788 -2.610944608024056 35.454001904347393 178 144 119 255
-40.682882095959016 -2.117386949882516 34.644940031482889 166 132 107 255
-40.948479374088151 -1.808369348243815 33.336814800502879 145 113 90 255
-40.963924765139417 -1.070292904447768 33.226747260159271 125 95 71 255
-51.350221756389708 -16.004158009767750 -16.628943831207579 70 41 30 255
-51.554865663566368 -15.744159862003784 -17.635268491147627 50 32 22 255
-51.676143909282317 -15.336532396346954 -18.242279020562449 47 30 22 255
-51.192264986250741 -13.815460472526425 -15.955035182422279 26 14 5 255
-51.459802838232577 -13.677608521517158 -17.260565137245806 23 17 5 255
-51.289108971300749 -12.726716666975591 -16.470330420316060 20 16 5 255
-52.517141106680526 -14.405536100306151 -22.365973030910254 12 14 1 255
-52.137898494526212 -13.067946706982113 -20.577691133399867 8 12 0 255
-52.092746229419184 -12.358167593603710 -20.386008953728890 6 10 0 255
-52.778476646372020 -13.051735275885036 -23.686558539554369 4 8 0 255
-52.712658227006251 -12.308533590010938 -23.394934463657677 3 7 0 255
-52.960163136939649 -12.173645002403362 -24.599872429113105 1 5 0 255
-53.019835039528530 -11.676562098961000 -24.906773155378488 0 4 0 255
-52.954295919813703 -10.933592758196966 -24.615022203340288 0 4 0 255
-53.076823211405461 -10.562208019682359 -25.221109513328514 0 4 0 255
-53.053247328935385 -9.901525776815390 -25.128804970118949 1 5 0 255
-53.071545088607074 -9.324148396657350 -25.235976495281392 0 4 0 255
-53.006385169224188 -8.577848894554151 -24.944090133732658 0 3 0 255
-52.795083545412467 -7.531603831600620 -23.953936723305162 0 2 0 255
-52.688325485500080 -6.693928835994669 -23.462533032995481 0 3 0 255
-52.874165325811695 -6.457048578350381 -24.367514088951765 0 3 0 255
-53.582476637450739 -7.309816585702592 -27.765880571266507 0 5 0 255
-53.476060630466620 -6.477629103080005 -27.274268909190141 0 5 0 255
-53.202581352938175 -5.290862709414256 -25.984776567221758 0 3 0 255
-52.887400975502196 -4.008265079980248 -24.495857838091808 0 3 0 255
-53.197718937271802 -3.432051464420326 -26.005732453341921 0 2 0 255
-52.715669525179479 -1.775904366259439 -23.719038187890646 0 3 0 255
-52.568096092502536 -0.831862484875231 -23.027919691883227 0 4 0 255
-39.645016791783611 -3.114874230002442 35.944184442118768 189 151 128 255
-40.103450774002866 -3.114397121233338 33.739710599023141 180 144 120 255
-40.266634745220209 -2.624700129600029 32.931566783369561 168 134 109 255
-40.429927352921325 -2.139236160079307 32.123514189347844 149 117 94 255
-40.487806042684419 -1.476346696990191 31.814138055914071 115 83 62 255
-40.630203531716035 -0.961375046388241 31.105964842510986 111 81 59 255
-49.633881694126011 -15.282748894395255 -11.488809037577738 167 137 118 255
-50.178478256911255 -15.601624757841591 -14.089614287468123 119 85 72 255
-50.512102791758068 -15.557621611975620 -15.693212048500953 65 32 22 255
-51.268170077281745 -16.281312853104126 -19.290578568615445 54 30 22 255
-51.243097150153694 -15.609956181669446 -19.199049385127012 43 26 18 255
-51.323692998613367 -15.130419893422442 -19.605937535733915 31 18 10 255
-50.580678886255974 -13.140842981236531 -16.125039977513921 27 18 9 255
-51.168329792061023 -13.591792700100058 -18.924301939155640 20 16 4 255
-51.692780221061675 -13.939848277022236 -21.424300685119960 14 12 0 255
-51.309005588639117 -12.599141918228497 -19.638070925438825 13 11 0 255
-51.347796799517262 -12.045633607119555 -19.845357909780233 10 9 0 255
-52.379705038102053 -13.379097567381223 -24.736995768671875 7 8 0 255
-51.975028669463335 -11.991765528748374 -22.851062599109525 5 7 0 255
-51.887353048411256 -11.204006190629826 -22.460140211726724 5 7 0 255
-51.863154601825961 -10.536711006663765 -22.368180083438062 3 7 0 255
-52.494187218322580 -11.146386853663017 -25.365483409674766 1 5 0 255
-52.956310807470913 -11.440272021121444 -27.565336947418160 2 6 0 255
-52.932453830202064 -10.785417601551728 -27.473098827546977 0 4 0 255
-52.316848757567520 -8.952863847968672 -24.590771132150479 0 4 0 255
-52.863883798111061 -9.431102875163120 -27.188878405623996 0 3 0 255
-52.840311662549240 -8.773659824138676 -27.096539451681366 1 3 0 255
-52.880259879264464 -8.243981504219875 -27.303069715084803 1 4 0 255
-52.687759323050592 -7.240781067710898 -26.413592507919333 1 4 0 255
-53.023905449281166 -7.317326906913578 -28.014847550245833 0 4 0 255
-53.571619522163722 -7.839037088488510 -30.612212687469565 0 4 0 255
-53.268704255341760 -4.783137133167273 -29.245242999829230 0 3 0 255
-52.421378527802560 -2.369793495337873 -25.267667406822142 0 2 0 255
-51.954778036786117 -0.749816302078585 -23.083213408999200 0 4 0 255
-39.377706638282099 -3.861113147088787 33.533173777070573 191 152 129 255
-39.734865872041873 -3.688779848453578 31.829278164127714 181 145 121 255
-39.921376518491492 -3.239269582106857 30.922447032929171 168 133 108 255
-40.022595243140181 -2.650306551623203 30.414153840104262 152 120 97 255
-40.209321371914669 -2.209260891649109 29.507504339265751 120 88 67 255
-49.125681956138720 -16.089555838880983 -12.145214117508885 182 152 131 255
-49.719292520516710 -16.476883362460924 -14.942461985150544 156 123 106 255
-49.885875117399287 -16.131031782249863 -15.747636581454486 127 91 78 255
-50.394348324151146 -16.392336270120012 -18.146141856152042 59 26 16 255
-50.432980707611655 -15.831532288878748 -18.353573395836008 47 24 16 255
-50.770809046217941 -15.806847316706424 -19.955101602883644 40 22 14 255
-50.638694352404720 -14.943772284111105 -19.365766211841247 32 19 11 255
-50.528006165527977 -14.116070072085762 -18.876013996297672 25 16 7 255
-50.438751539135438 -13.324547289166958 -18.485833658579395 17 13 1 255
-50.841117063876489 -13.434860743932020 -20.385704605835258 14 12 0 255
-51.115384117241064 -13.317834972385839 -21.688023798220200 14 12 0 255
-50.641654443462222 -11.812797203975720 -19.505586645822376 14 13 1 255
-51.386395637906723 -12.582826926191743 -22.998040751658749 10 10 0 255
-51.639636318572130 -12.442546367166926 -24.200475882803289 10 12 0 255
-51.208865688229153 -11.007171265321645 -22.217168753548464 5 7 0 255
-51.269881548208929 -10.502387918097227 -22.523548099240429 3 6 0 255
-52.635287637779783 -12.513075358409822 -28.902056535186830 1 5 0 255
-52.889029306028320 -12.401120366126221 -30.103981996689726 0 4 0 255
-52.757974970411503 -11.543844267058617 -29.514115224744273 0 4 0 255
-52.263445973965112 -9.968569534866958 -27.232167651834999 0 4 0 255
-52.089759368852050 -9.015082406112597 -26.443293500001744 1 3 0 255
-52.365296160551317 -8.951081842518903 -27.744510618073434 2 4 0 255
-52.512627585958242 -8.636839718243593 -28.448455126582530 1 4 0 255
-52.681464240873701 -8.369287312255352 -29.251833325978453 0 3 0 255
-53.042936324070148 -8.496384443428781 -30.950779530129608 0 4 0 255
-53.404543751396332 -8.632498272272983 -32.649574253832697 0 3 0 255
-52.543296797478895 -5.046701006001314 -28.690056118331455 0 2 0 255
-52.497340649005565 -3.729061365505871 -28.504876309016623 0 2 0 255
-51.704266610892056 -1.437909390723135 -24.830358761636347 0 4 0 255
-38.688949085066056 -3.902369446309223 33.117009514844341 194 154 132 255
-39.158263931305754 -3.907919595719562 30.917447901979216 182 144 121 255
-39.454966174201381 -3.639019117660965 29.514102657005225 170 133 109 255
-39.557410204032671 -3.053108500367941 29.006386627388252 152 120 97 255
-39.832754048132578 -2.760412966650790 27.702771946722947 144 112 91 255
-49.047168164991334 -16.979872937348006 -14.799073922156850 171 137 117 255
-49.388456428105094 -16.928050572452420 -16.399333788880568 153 116 100 255
-49.448968908724282 -16.398462038328546 -16.706188288348159 125 88 76 255
-49.704051734915012 -16.209514929641813 -17.908293983357936 64 30 21 255
-49.851191729202881 -15.837193273945104 -18.612910881930105 40 18 10 255
-50.020043206343161 -15.506765340718943 -19.416917987437898 40 23 15 255
-50.188997165900147 -15.180545089737251 -20.220836871270791 33 20 12 255
-50.098654499165789 -14.393335991518711 -19.831098043395485 25 16 7 255
-50.116468222844965 -13.798998381958313 -19.938656805009970 18 12 0 255
-49.939785890887670 -12.851273702519990 -19.151060075057444 14 12 0 255
-49.784781316140624 -11.938627571604286 -18.462937473259814 15 13 1 255
-49.954183144794889 -11.619791914442430 -19.266582031689410 16 15 3 255
-50.815676621154672 -12.589081465108578 -23.252436618205877 11 11 0 255
-51.201602623084021 -12.691235220586790 -25.050225851285859 6 8 0 255
-50.938846291262394 -11.582980612082864 -23.864652915509964 4 6 0 255
-51.498035203858819 -12.023689846778353 -26.457720632282445 5 7 0 255
-52.014123190720539 -12.395922779887172 -28.851709593942104 4 6 0 255
-52.443838337087229 -12.615080769348765 -30.847780238671362 1 3 0 255
-52.376144960718335 -11.884550888712951 -30.556864045196107 0 2 0 255
-51.897493584187458 -10.353655621563775 -28.376882623354732 1 3 0 255
-51.721773839195201 -9.402751693291535 -27.588888851512735 1 3 0 255
-51.719220997682470 -8.787834852866979 -27.596242328871114 0 2 0 255
-51.998049902821855 -8.729659344938838 -28.895932758251121 0 2 0 255
-52.147176234059913 -8.419621780703366 -29.599034497770191 0 2 0 255
-52.318056694700196 -8.156539201012336 -30.401456273229314 0 4 0 255
-52.337573299690476 -7.591920501944045 -30.507955409208392 0 5 0 255
-52.054219882240176 -6.412474816450853 -29.222791527820021 0 2 0 255
-51.727665515178977 -5.137232134153905 -27.738869631730012 0 2 0 255
-51.639265015347206 -4.342810829344629 -27.348337772506738 0 2 0 255
-51.377820282440446 -3.187857751555441 -26.162652056148488 0 2 0 255
-52.523346808222151 -4.952940789138083 -31.437245271872285 0 2 0 255
-51.785950753635504 -2.805351123507037 -28.064933842958510 0 4 0 255
-51.135208907976178 -0.821129307474280 -25.090311245284113 0 5 0 255
-37.891478680770021 -3.767382481119341 33.198062810068762 196 156 134 255
-38.409892051419028 -3.842905550932628 30.802111640689901 185 144 122 255
-38.906628965319669 -3.895554685934414 28.505758537479920 175 138 114 255
-39.206911299294923 -3.636088838398607 27.104104861847787 157 125 102 255
-47.979908007314329 -16.826049913394115 -12.867609097258111 189 157 136 255
-48.543514409559272 -17.132730433044216 -15.460061941132551 161 125 107 255
-48.888744456607931 -17.082031557315219 -17.058552980115763 152 113 98 255
-48.884406533696719 -16.441374667324496 -17.066962516239556 104 66 56 255
-49.055000890133172 -16.102034658701001 -17.870282625611651 64 32 23 255
-49.028959197582246 -15.425364960966064 -17.779239074434741 48 27 18 255
-49.374629023952842 -15.397784793234166 -19.377300362260428 38 22 14 255
-49.436208937036120 -14.878353832695709 -19.683576271736939 33 21 13 255
-49.607197931017893 -14.554231175412866 -20.486566619731605 30 20 11 255
-49.581493202449856 -13.882993782727766 -20.395317923744642 24 18 6 255
-49.512127641382179 -13.132452219485458 -20.105349553750187 23 21 9 255
-49.420962991345625 -12.340548474640386 -19.716024664070829 18 16 4 255
-49.526707324039265 -11.904952330618698 -20.220749926175870 15 15 3 255
-50.441835892597744 -12.956371316608639 -24.400848536541446 12 12 0 255
-50.657203000191210 -12.737875888340284 -25.401972693274445 5 7 0 255
-50.872683690372483 -12.524635137971742 -26.402993096729489 7 9 0 255
-51.416431850830882 -12.930685379801645 -28.893801632144402 8 10 0 255
-51.845155748245368 -11.932885908830343 -30.902614635782754 2 4 0 255
-51.317226117400374 -10.318382763231313 -28.526461606675241 2 4 0 255
-51.248880078849886 -9.578819380713952 -28.235927713385450 1 3 0 255
-50.918008343641610 -8.326564557978728 -26.753698396318867 1 3 0 255
-51.090567516552831 -8.051252528223884 -27.555495315342398 0 3 0 255
-51.394562314728560 -8.038740529277703 -28.952997675465838 1 4 0 255
-51.304708058332977 -7.252647453809033 -28.563029806203190 0 5 0 255
-51.127392525804360 -6.289472273102191 -27.775871559193774 0 5 0 255
-51.584962639981825 -6.595707775077258 -29.868136599533756 0 5 0 255
-51.145166254877431 -5.100698064786670 -27.889456423569612 0 5 0 255
-50.683550753063095 -3.549996041471317 -25.811573499304387 0 3 0 255
-50.703636550341280 -2.972068362482986 -25.917953377482803 0 2 0 255
-51.796584241389262 -4.600643784820647 -30.888887392117653 0 2 0 255
-51.247699417024762 -2.858808152175996 -28.413870531899391 0 4 0 255
-50.808365598745276 -1.330831327988435 -26.435317332533742 0 5 0 255
-37.357078082277781 -4.055243019219461 32.086755178362495 196 156 136 255
-37.837246102112481 -4.061940714935929 29.892044128045058 188 146 128 255
-38.339665683630507 -4.116244802714135 27.598241409570477 179 138 118 255
-38.798059653128689 -4.110810549297838 25.503193487308607 171 134 115 255
-47.516014003544612 -17.050940606404609 -13.729129605945587 171 138 118 255
-47.909246067166436 -17.064354443758717 -15.524558319241606 163 127 109 255
-48.103693796189809 -16.753211551663469 -16.426452097471980 156 116 103 255
-48.121411206470796 -16.147597431902440 -16.534167778474995 100 64 53 255
-48.316047388443948 -15.843824778172589 -17.435903038912357 57 28 18 255
-48.333926090902047 -15.241234226372654 -17.543516245936445 40 20 11 255
-48.683519703094539 -15.212340989340291 -19.139841358133623 43 29 20 255
-48.989019971462469 -15.115016287096495 -20.537529738613586 29 17 9 255
-49.117740404100410 -14.715063201401989 -21.141144547855816 30 20 11 255
-49.268670749219240 -14.357257126224042 -21.843924775570969 30 22 11 255
-49.264888706134506 -13.727977682072392 -21.851971471177166 25 22 10 255
-49.327537744252943 -13.217270208963257 -22.157682531050853 25 23 11 255
-49.545110206378823 -12.986957571329341 -23.157942857470090 20 19 7 255
-49.829156604744099 -12.882263971776027 -24.455777212672501 15 15 3 255
-50.024835485789616 -12.622901190034085 -25.356598705398397 14 16 3 255
-49.822398394030316 -11.636344032713637 -24.471383550407268 11 13 1 255
-50.252498929315131 -9.977196897423639 -26.486267345190726 3 3 0 255
-50.647975318000888 -10.114970952750099 -28.279438438862059 3 3 0 255
-50.578824934783654 -9.374159152936784 -27.989275786678462 1 3 0 255
-50.531893571539918 -8.674051672928300 -27.798289074331791 1 3 0 255
-50.352249350444566 -7.715588260488303 -27.012121465263391 0 3 0 255
-50.438304390359754 -7.269851574406275 -27.416233967348148 0 3 0 255
-50.613010883611544 -6.999578027373772 -28.217022562018371 0 4 0 255
-50.566463281067200 -6.296844046652438 -28.025891294636097 0 4 0 255
-50.829945763429933 -6.207761242789516 -29.223242564954404 0 3 0 255
-50.562219244979907 -5.064097060813637 -28.040243524254976 0 3 0 255
-50.471694892340786 -4.269397429423933 -27.650661412918481 0 3 0 255
-50.846224050454410 -4.411942865930556 -29.343629884636385 0 2 0 255
-50.335232203807983 -2.762590403970364 -27.069771130203918 0 2 0 255
-50.200732899395057 -1.870372725239491 -26.481793493996264 0 4 0 255
-36.848969749453140 -4.378276047478423 30.878031779040867 195 154 134 255
-37.267566819220932 -4.280918599932491 28.983298745521694 190 147 130 255
-37.686309913784484 -4.193764156209909 27.088733945095754 182 140 121 255
-38.239253178583780 -4.333100631514782 24.599329300844801 182 145 126 255
-46.988056253821220 -17.166001756677588 -14.291841893170471 171 137 126 255
-47.184595043023371 -16.848509622097808 -15.192867532525412 168 128 120 255
-47.448283543366991 -16.647191058881447 -16.391261371776295 165 124 117 255
-47.645027959246420 -16.340061439892381 -17.292090591854048 135 97 90 255
-47.841873427328764 -16.037699625403533 -18.192826566489288 57 24 17 255
-47.904687553343273 -15.512430340450152 -18.498611204350112 46 17 9 255
-48.168798521808974 -15.332611687431324 -19.696599372770436 41 19 11 255
-48.455382348400612 -15.197660228060670 -20.993608229235377 39 23 15 255
-48.697362328945083 -14.992109685488074 -22.092229874196249 25 15 5 255
-48.760554105239912 -14.480149753266247 -22.397711609676634 28 22 10 255
-48.958015647243975 -14.205479473836618 -23.297893011095738 28 24 13 255
-49.021388974289351 -13.698108058681029 -23.603247422439011 27 24 13 255
-49.062482613518561 -13.152364078711429 -23.809429374904198 19 18 6 255
-49.081293160063730 -12.567426774246741 -23.916448682408117 15 15 3 255
-49.122558072827680 -12.023248974582032 -24.122538441189022 9 10 0 255
-48.940193425427736 -11.073392837147665 -23.337496755231228 6 8 0 255
-48.646023615080935 -9.914351418779475 -22.056949202395998 6 6 0 255
-48.553275047653273 -9.118870490665529 -21.668366669814105 4 4 0 255
-49.803163700615293 -10.809468599522262 -27.225663749973847 4 4 0 255
-50.247706692440239 -11.027457600968532 -29.215135111155490 3 3 0 255
-50.110546377767029 -10.163641351217564 -28.628056837487577 3 3 0 255
-50.174879817249824 -9.676956705184608 -28.932774084331442 1 3 0 255
-50.082644883412875 -8.893739999471151 -28.543838583914521 1 3 0 255
-49.923347287738402 -7.979604956674478 -27.857645104850690 0 3 0 255
-49.696979069358378 -6.932089676332282 -26.874222080220051 0 2 0 255
-49.604992856890860 -6.139154262930063 -26.485273917519123 0 3 0 255
-50.162275702196062 -6.609720211918358 -28.969395825748848 0 3 0 255
-50.182434305970787 -6.039434974897162 -29.075665996618824 0 4 0 255
-50.090759367352639 -5.248426337547301 -28.686559575386127 0 4 0 255
-50.133510121289056 -4.721783232897550 -28.891809629421260 0 3 0 255
-50.042034464231712 -3.927468881333269 -28.502647769627117 0 2 0 255
-49.726759547514504 -2.680479438657116 -27.122905146725856 0 2 0 255
-49.814604633082858 -2.240782851144445 -27.526158494050236 0 4 0 255
-49.611478010832492 -1.210597287779621 -26.641691745405808 0 4 0 255
-36.390479691185249 -4.771712309118556 29.473154906851988 194 154 133 255
-36.768610949669750 -4.606357147234903 27.778680350064889 194 151 133 255
-37.033938045612466 -4.271243942988207 26.579664760175916 183 143 122 255
-37.480103944744101 -4.230913201836557 24.588306015535892 138 101 84 255
-45.765905251928700 -16.803448922104224 -11.774582786351942 155 122 107 255
-46.484178455629340 -17.317607802709233 -14.952942452218821 167 131 122 255
-46.637737329763070 -16.927532282175434 -15.654876895380568 176 136 129 255
-46.881779080977076 -16.689671267795248 -16.752905863654263 175 135 129 255
-47.035528424157178 -16.308064481175450 -17.454669787082906 176 140 133 255
-47.257175535896295 -16.043158019559456 -18.453463059585943 159 126 121 255
-47.275495697987346 -15.442073045356608 -18.560864221097262 63 31 24 255
-47.452125807514292 -15.108906982828245 -19.361430844346927 49 21 15 255
-47.809711211994824 -15.087831878888778 -20.954113737971198 34 16 6 255
-48.144815214037031 -15.036546104895990 -22.447631612207232 32 21 9 255
-48.412211812714965 -14.876177772901812 -23.643958265091015 29 23 11 255
-48.476213364336644 -14.368490141532021 -23.949035774249069 21 17 6 255
-48.608141244472705 -13.980991484255512 -24.551094637286695 23 19 8 255
-48.423550054094186 -13.038815785085220 -23.766968041094827 18 16 4 255
-48.397330268253150 -12.372924293840256 -23.675894953287099 15 13 1 255
-48.439042565425318 -11.827473601765760 -23.881798108351944 10 9 0 255
-48.480842218996401 -11.282933121223991 -24.087653114984874 7 7 0 255
-48.138166867319846 -10.043524647164134 -22.610556678736970 6 6 0 255
-48.723068635725440 -10.484952752174905 -25.192152872065350 4 6 0 255
-49.489122385753355 -11.272091187160541 -28.565437833670956 2 4 0 255
-50.051724797282112 -11.701829007847110 -31.047600646427099 0 2 0 255
-50.252450281603103 -11.472713999844217 -31.945866346093936 0 2 0 255
-49.186111969121320 -8.880176833395183 -27.301293196615433 0 2 0 255
-49.635913449413138 -9.113338933846521 -29.288266661586391 0 2 0 255
-49.248525376817078 -7.772368971663184 -27.613144509123458 0 2 0 255
-48.906455109551665 -6.508105324485740 -26.136029515524825 0 2 0 255
-49.175532448156474 -6.406602515674848 -27.331011815131831 0 3 0 255
-49.331564007677990 -6.093135388600928 -28.031069474417905 0 3 0 255
-49.465074039336351 -5.739298812003994 -28.632082684432504 0 3 0 255
-49.576060351137855 -5.344268012424635 -29.134060758893298 0 3 0 255
-49.732431265279118 -5.040623858042508 -29.833867828791909 0 3 0 255
-49.594628579038627 -4.158868797021015 -29.247257277625863 0 3 0 255
-49.479558979792110 -3.318551677702203 -28.759586050815926 0 3 0 255
-49.590980632078470 -2.928080345836818 -29.261323940819608 0 2 0 255
-49.589318261999303 -2.312216038359779 -29.268289971759543 0 3 0 255
-49.044389594396648 -0.595959611753528 -26.900744554445652 0 3 0 255
-35.823269671370852 -4.988914268805090 28.565492512450220 196 156 135 255
-36.251271581074036 -4.896227385056747 26.674999900655251 194 150 133 255
-36.451056606951795 -4.456007719551891 25.774181149604402 184 142 122 255
-36.765136072198025 -4.200797372296691 24.378722034398805 173 136 117 255
-45.890912590849815 -17.322824169976045 -15.217401482731447 52 15 7 255
-46.160401699385545 -17.117087053246465 -16.413253740607956 125 86 79 255
-46.452845916802225 -16.954882234958205 -17.707925164100999 180 141 134 255
-46.631164682167970 -16.612626942560780 -18.507830757714174 177 140 133 255
-46.718180166592035 -16.123922478843198 -18.911949335891791 173 138 134 255
-46.713871211623790 -15.485512237833206 -18.920323248438876 137 101 95 255
-46.823896778923313 -15.038041172847826 -19.423259717831485 77 47 42 255
-47.025429861497585 -14.747086644390549 -20.321790387402956 61 38 30 255
-47.387062720181547 -14.732157547277922 -21.912606574332614 35 20 9 255
-47.520237567402290 -14.335522092279788 -22.514201818561020 22 14 3 255
-47.722086244363240 -14.059887989599389 -23.412436926877461 18 14 3 255
-47.832591776907272 -13.630719939775162 -23.914974402575893 18 14 3 255
-48.171823411394989 -13.602499057128924 -25.406418814375002 14 12 0 255
-48.122474338668944 -12.900387486768963 -25.216530311144595 12 10 0 255
-48.141796769058182 -12.318168527470746 -25.323293915952092 8 8 0 255
-47.978257313183839 -11.411092530294951 -24.638920350729137 7 7 0 255
-47.906256445116860 -10.663732430608945 -24.350094794221150 5 5 0 255
-47.971555681435603 -10.161733922416630 -24.654536218696734 2 4 0 255
-48.860353598077111 -11.154040272840263 -28.518490421063177 1 3 0 255
-49.108879055876429 -10.998618995145875 -29.613687037197138 0 2 0 255
-48.831393041341656 -9.882686014491057 -28.434759043156106 0 2 0 255
-48.736974165163566 -9.098285808505040 -28.046809231014493 0 2 0 255
-48.436735968681397 -7.928473085923031 -26.769076181794162 0 2 0 255
-48.433981923493583 -7.308128990419348 -26.776574223232785 0 2 0 255
-48.614360814780987 -7.032357792117566 -27.574889306913832 0 2 0 255
-48.657565660595239 -6.500453663471177 -27.779990076720395 0 3 0 255
-48.677988542492272 -5.925737523208241 -27.886187202708982 0 3 0 255
-48.744277421954308 -5.439142175986305 -28.190031700308083 0 3 0 255
-49.039513697704777 -5.395836565568089 -29.482256490635649 0 3 0 255
-49.197564127449219 -5.092555734406616 -30.181311064408504 0 3 0 255
-49.287070556213358 -4.658595337389357 -30.583765711620032 0 3 0 255
-49.216478060123372 -3.911442391862096 -30.294310128757132 0 3 0 255
-49.260423956467456 -3.388771543426785 -30.498987170551459 0 3 0 255
-49.350256225178043 -2.957999137341318 -30.901264317098793 0 4 0 255
-49.302866444362444 -2.254098860620218 -30.710520329159777 0 4 0 255
-48.843564372143724 -0.718858007249196 -28.740943537350432 0 5 0 255
-35.466738080316077 -5.523141483864890 26.769522124038275 195 154 134 255
-35.737885458520907 -5.186038869437752 25.573081439924323 193 151 132 255
-35.893727040795071 -4.676495357316796 24.870957234908218 180 139 119 255
-36.095835265511596 -4.242742406237369 23.971239660734142 171 134 115 255
-45.390001926617416 -17.474349333025998 -15.877179941777626 188 151 142 255
-45.662450366776831 -17.269737653296716 -17.071701385493014 150 113 105 255
-45.981194749628393 -17.145782527777939 -18.463753951593844 132 95 87 255
-45.976715179173681 -16.505764731729656 -18.472220182625136 174 137 131 255
-45.949202322516541 -15.827975397190784 -18.381843877038165 176 138 135 255
-45.991049877804954 -15.263347962773693 -18.587880555340178 164 127 121 255
-46.171579461558544 -14.928942232279653 -19.386721100552592 148 114 110 255
-46.352206222271711 -14.598750328187208 -20.185475727463341 64 36 29 255
-46.463616538295902 -14.156513556809315 -20.687741891257019 41 23 13 255
-46.644434742045057 -13.833920609336900 -21.486334355452868 30 20 10 255
-46.987109908470181 -13.790581062416805 -22.976396256312881 25 18 8 255
-47.376128291510867 -13.834362327488222 -24.663902864629591 20 16 5 255
-47.303046758850613 -13.090492340836505 -24.375523853689970 16 14 2 255
-47.877197841179942 -13.467848323740327 -26.853067060098283 11 9 0 255
-47.873637828045972 -12.849135436766261 -26.860907960561264 7 6 0 255
-47.523412885781376 -11.620491878747885 -25.387068755889032 7 7 0 255
-47.150104774585344 -10.342598992293446 -23.814525266982884 4 4 0 255
-47.377928824637962 -10.126869063338603 -24.810067456081612 1 3 0 255
-47.860190839813050 -10.372504158653783 -26.891935957752594 0 2 0 255
-48.065132329339292 -10.128504624327235 -27.788472367294787 0 2 0 255
-47.923334106903567 -9.259048209278873 -27.203518945394336 0 2 0 255
-47.943478891692507 -8.682085143817687 -27.309862773740548 0 2 0 255
-48.125595601589410 -8.403321585858308 -28.107433284072243 0 2 0 255
-47.799025678361922 -7.186507665469563 -26.732421619956909 0 2 0 255
-48.120105574713662 -7.168590296578088 -28.122361103797232 0 2 0 255
-48.071239863606230 -6.464118442192770 -27.932280946974942 0 3 0 255
-47.953072302226815 -5.627371541604589 -27.445954882349241 0 3 0 255
-48.181964179024995 -5.446381163600492 -28.440669843204887 0 3 0 255
-48.225913148906379 -4.917062393033589 -28.645412708547155 0 3 0 255
-48.547568329619317 -4.922102975943261 -30.034863650199924 0 3 0 255
-48.614870074024296 -4.442414827749275 -30.338186740297772 0 3 0 255
-48.705414043497662 -4.009080283122088 -30.740172466886605 0 3 0 255
-48.657250003010780 -3.305938839064666 -30.549766018158181 0 5 0 255
-48.979380493248449 -3.330277396060950 -31.938809985349820 0 5 0 255
-48.908294999817990 -2.582864756268648 -31.649576833676775 0 5 0 255
-48.559650043399209 -1.280248704364311 -30.175780858562604 0 5 0 255
-34.814366000657714 -5.599315440231123 26.260439646138337 194 159 134 255
-35.181791495202219 -5.404795742346636 24.670390933722189 188 146 125 255
-35.479350862175366 -5.111550995210024 23.376675648871441 176 134 115 255
-43.705665535092720 -16.419604037405676 -11.492602339803994 184 148 134 255
-44.681027540319164 -17.296597558376234 -15.647608455399535 168 131 122 255
-45.049778750149912 -17.238082954378186 -17.235691416174518 186 149 141 255
-45.325285844609311 -17.039648354416826 -18.428786702511076 179 142 134 255
-45.437495068478562 -16.585857976907121 -18.930813445759327 183 146 139 255
-45.363021858315363 -15.833354412070733 -18.643142187948911 173 135 132 255
-45.381991783174470 -15.230859739588098 -18.750267896696329 166 129 123 255
-45.611174610962095 -14.972652527418319 -19.745633604544906 158 124 119 255
-45.723705674013644 -14.527355549341905 -20.247431006454974 133 104 98 255
-45.906381465269213 -14.200888531724374 -21.045234409390247 65 46 37 255
-45.855609627394912 -13.488426925381106 -20.856084869039933 34 23 14 255
-46.155245794767659 -13.364107826139289 -22.147166781009673 22 18 7 255
-46.268134862773266 -12.930196130432208 -22.648689487096760 22 18 7 255
-46.451192804627361 -12.618346438197392 -23.446174760812966 20 18 6 255
-46.797879791317953 -12.591415435267336 -24.934282113974461 19 17 5 255
-47.027876646260260 -12.370580542035640 -25.928907141195708 13 12 1 255
-46.930881528146230 -11.585933253624233 -25.542108462012521 11 11 0 255
-46.670392096753467 -10.512498827130486 -24.464666732737498 5 5 0 255
-46.643623022638323 -9.844815551982393 -24.373856659431624 1 3 0 255
-47.177782228853353 -10.171508784146852 -26.650754868550933 1 3 0 255
-47.595238835208669 -10.301832175636505 -28.434201235330818 0 2 0 255
-47.498656006395287 -9.517589159086612 -28.047214647885767 0 2 0 255
-46.864572690614324 -7.758544076058897 -25.391370348099201 0 2 0 255
-46.417499170858903 -6.324991843489499 -23.524807417147628 0 2 0 255
-48.305293154208336 -8.554518701003232 -31.529589326652541 0 2 0 255
-46.362319749904771 -4.346066603014407 -23.350423816182825 0 3 0 255
-47.785808342469501 -6.376362096801273 -29.374355976045251 0 3 0 255
-47.526168580186464 -5.277905125515730 -28.296788331322830 0 3 0 255
-47.710840481592079 -5.012713562061663 -29.093082412561699 0 3 0 255
-47.919007947492361 -4.796070115992919 -29.987903996068695 0 3 0 255
-47.916844598847113 -4.181468676833020 -29.995080627375103 0 3 0 255
-47.821245588233360 -3.386554053760648 -29.607763260988122 0 3 0 255
-47.959588850954745 -3.041935541479219 -30.206528369336809 0 4 0 255
-48.121430975113249 -2.745838856079217 -30.903819775720137 0 4 0 255
-48.236615978381337 -2.361601778669041 -31.403816736483748 0 4 0 255
-48.071269060893499 -1.426584128760652 -30.720531461117275 0 4 0 255
-34.068665228333572 -5.534555108314521 26.146296881331097 194 161 133 255
-34.534345532005403 -5.481518454699938 24.163510346018683 184 142 121 255
-35.000170925879914 -5.439231333114989 22.180897151141295 180 136 117 255
-43.526249335647286 -17.078331671553642 -13.536827793039862 170 132 119 255
-44.111081369689600 -17.338321368790957 -16.010795102384265 175 138 129 255
-44.342254293873580 -17.059007675824219 -17.005486845629122 184 147 139 255
-44.620705566341918 -16.859260367271517 -18.197282717718906 188 151 143 255
-44.639756028550345 -16.254606548613737 -18.304394341903844 188 151 145 255
-44.682466119756597 -15.688055458522371 -18.510065895864813 184 147 142 255
-44.843224307603712 -15.312147728494793 -19.208647273401283 175 138 132 255
-45.051267693290960 -15.016328172861023 -20.104324451865324 167 132 127 255
-45.188612800675024 -14.609840533940584 -20.704159937291649 118 87 81 255
-45.349647510901725 -14.245226270842963 -21.402503876608620 59 40 30 255
-45.321954966146592 -13.572135686410249 -21.312160193582798 29 16 7 255
-45.412350296831711 -13.094808398045430 -21.714656848696592 20 13 3 255
-45.408406687692761 -12.461266996771585 -21.722818657416326 16 12 1 255
-45.451751048327324 -11.907237010177113 -21.928080860779289 13 11 0 255
-45.778487038048276 -11.835364309255638 -23.316043889430347 11 9 0 255
-46.270619077963204 -12.053543727565966 -25.393789279601947 9 9 0 255
-46.432319646277620 -11.713919819066774 -26.091583751277511 7 7 0 255
-46.334365763945591 -10.927835486791579 -25.705227068786655 5 5 0 255
-46.260093939291963 -10.180583835086196 -25.417412938093435 1 3 0 255
-46.729081650623961 -10.385098044038955 -27.396121645830590 1 3 0 255
-47.056498227507163 -10.349893968638014 -28.783410601597268 0 2 0 255
-47.100599974413441 -9.818051269670434 -28.988110860848252 0 2 0 255
-45.822013030716924 -6.919631140361560 -23.674804912683328 0 2 0 255
-46.905603401711325 -8.246415265166121 -28.214985850662856 0 2 0 255
-47.800410458733609 -9.255447687889585 -31.966597911551389 0 2 0 255
-47.703156011146902 -8.475052791435559 -31.579871875163150 0 2 0 255
-46.422034351939878 -4.899678332986710 -26.274538366977652 0 3 0 255
-47.600899479662395 -6.470606423727389 -31.207748159380259 0 3 0 255
-47.527609933616617 -5.726849463519216 -30.919460750255013 0 3 0 255
-47.478039344930615 -5.025638762537369 -30.729661905930357 0 3 0 255
-47.144984488435114 -3.786310909851210 -29.357769154568217 0 3 0 255
-47.001060009669985 -2.899059808408850 -28.773943598875917 0 3 0 255
-46.880858268555762 -2.053503737330985 -28.288613526314805 0 4 0 255
-47.658845532700369 -2.935742581546791 -31.546122753777752 0 4 0 255
-47.704308316368220 -2.415233176057555 -31.750101633903540 0 3 0 255
-47.726242607039573 -1.849397350152827 -31.855535129847084 0 3 0 255
-34.054653169036740 -5.806678012206063 22.967477900454725 187 145 125 255
-42.312091934765505 -16.800858556178312 -11.234132469651826 155 114 98 255
-43.093598654334919 -17.337588794121075 -14.493564753141044 106 67 56 255
-43.374786115439043 -17.123977987479719 -15.684280801675101 89 51 40 255
-43.679914750743066 -16.953627836823614 -16.973379117301164 88 49 42 255
-43.818289574104810 -16.530395789677200 -17.572924740812169 183 144 138 255
-43.980587309769220 -16.147707814687195 -18.270888231494894 196 157 152 255
-44.119131597980328 -15.731050413460906 -18.870291844645493 186 148 141 255
-44.281604383316186 -15.355468297959291 -19.568105465691900 176 140 134 255
-44.372631287300372 -14.868960476276882 -19.970413321698203 161 124 117 255
-44.487584868594425 -14.422975379339150 -20.471137581990405 114 81 72 255
-44.674169185595048 -14.095808366413806 -21.267205416461280 69 42 31 255
-44.932401059789953 -13.889893312221346 -22.358584724731401 33 13 2 255
-44.761398405229947 -12.982654750814575 -21.677540322208614 20 8 0 255
-44.709711903803651 -12.269264414647395 -21.488807978172048 9 8 0 255
-44.610378950092283 -11.474982486024672 -21.103149021592998 20 12 1 255
-44.916680295048316 -11.360072409110145 -22.391164115557842 8 6 0 255
-45.437828365769079 -11.615396090108248 -24.565090933815952 15 6 0 255
-45.863679422828064 -11.719922671679214 -26.345055317142652 11 6 0 255
-46.003317934767566 -11.343077574881875 -26.943568659888825 3 4 0 255
-46.071461155043060 -10.845752984955524 -27.246694832479079 0 6 0 255
-45.901041513101006 -9.935295064980735 -26.565423029366258 0 4 0 255
-46.136411360935192 -9.730235815806566 -27.557493017547102 0 3 0 255
-46.348022960475426 -9.488409397965214 -28.451033546879898 0 3 0 255
-46.416526456457191 -8.997629425200103 -28.753932938264057 1 3 0 255
-46.127063365787187 -7.870087326968488 -27.580462347000235 3 5 0 255
-46.792528466213952 -8.448482363223903 -30.343742148952032 1 3 0 255
-47.338785404106730 -8.826441965060411 -32.614728324299392 0 2 0 255
-46.999198639628347 -7.001166562574966 -31.251670337794764 0 3 0 255
-47.521937428987329 -7.355732202694938 -33.423884834372728 0 3 0 255
-47.519506113615243 -6.750081688799440 -33.431090469005710 0 3 0 255
-47.182864205421104 -5.521828558922849 -32.060685092035357 0 3 0 255
-46.750768673113313 -4.106754942513945 -30.296751212568779 0 3 0 255
-46.127688204537165 -2.321576113569620 -27.745759228151854 0 3 0 255
-46.579333705464443 -2.559117804003336 -29.622372391685161 0 3 0 255
-47.198291628921304 -3.125550395456500 -32.187520925485444 0 4 0 255
-47.339726817051080 -2.789516621576567 -32.784820706876218 0 3 0 255
-47.051358332221412 -1.626785395242791 -31.611217752193880 0 3 0 255
-41.566735235598095 -17.252619086059923 -10.904925629235038 184 138 121 255
-41.971031180799137 -17.202316732541647 -12.586571579743861 160 116 99 255
-42.255052933120297 -16.979619320697083 -13.776115782528279 130 90 78 255
-42.828159105911674 -17.202242476642184 -16.146194966865977 181 143 132 255
-43.112413772109072 -16.995623832768544 -17.335472807134494 188 149 144 255
-43.180002948147255 -16.461364926631092 -17.639219318026733 193 153 151 255
-43.344013042966345 -16.078186710430813 -18.336424296462354 196 156 156 255
-43.484020810738009 -15.661042382519327 -18.935180328580145 192 152 151 255
-43.720478109900000 -15.398758962105703 -19.927343862540539 176 139 134 255
-43.764289824781038 -14.836184040220303 -20.132484060704456 158 121 115 255
-43.832267814504455 -14.313047222044162 -20.435944799723245 105 71 62 255
-43.876225062883186 -13.752672038045517 -20.640997876892840 63 34 26 255
-44.233537614970892 -13.700417236015767 -22.124623707476843 39 18 7 255
-44.205365083319720 -13.027619191513025 -22.034491073132898 38 18 9 255
-44.129053920753869 -12.275028078387422 -21.747640164212129 25 13 1 255
-43.980491796176473 -11.401183641899095 -21.165746827563282 26 3 0 255
-44.338194601662813 -11.365974414816762 -22.649026372693271 25 0 0 255
-44.406735472619367 -10.854318439785970 -22.952120104479263 56 20 16 255
-44.668228964293604 -10.669243895261431 -24.041834552119923 26 1 0 255
-44.953942561550249 -10.530878566020277 -25.229772047005213 14 2 0 255
-45.215657845102882 -10.357666069825441 -26.319267711465642 11 11 0 255
-45.429257415096565 -10.107332204511650 -27.212007879269095 3 4 0 255
-45.377701329789176 -9.402702825803345 -27.023128836868210 1 3 0 255
-45.205639420970762 -8.486793091703305 -26.342644354221676 0 4 0 255
-45.009522254873488 -7.524597377256839 -25.563859047706671 1 3 0 255
-45.754098672934226 -8.216981999287242 -28.619195957885154 2 4 0 255
