ply
format ascii 1.0
element vertex 671
property float x
property float y
property float z
property uchar red
property uchar green
property uchar blue
property uchar alpha
end_header
32.330158094459989 -15.770911205113521 0.110175934934517 133 93 68 255
32.292132756843472 -15.136605455544256 0.099215264036502 126 90 63 255
32.086220145070172 -14.425534434688288 -0.030716402230070 118 84 56 255
32.300082481190714 -13.905682547714363 0.136599703431244 111 80 54 255
31.842198225233972 -13.076854765628241 -0.171860241687625 101 73 47 255
31.552159212251098 -12.323129822917323 -0.361476176571870 94 68 42 255
31.766120545312276 -11.803459412090604 -0.194307179793498 82 60 34 255
31.644067800491285 -11.126679580404954 -0.265099418727374 73 53 28 255
31.269852949257313 -10.329392386656693 -0.514423869518396 63 45 19 255
30.307077400172233 -9.248537884626003 -1.180297205674293 55 40 14 255
28.250924433797763 -7.635849104173587 -2.619810703216359 37 23 1 255
24.596188322569162 -5.236508615974472 -5.190175100837024 28 16 0 255
23.126974537378203 -3.878483120230570 -6.213828804640457 33 21 0 255
22.666756094444537 -3.005665784725792 -6.523565333017729 36 24 0 255
22.038097939831232 -2.046678829335548 -6.952454686944975 40 25 2 255
21.914185771063899 -1.334164181979077 -7.024346611789639 38 23 0 255
16.067293257496573 -26.660158125138977 -11.059129118446577 212 176 156 255
17.949100047365704 -26.681054831115318 -9.710583461700679 212 177 158 255
19.580736187709846 -26.621437897277346 -8.539186540345355 205 163 146 255
20.794729531774891 -26.416449171855490 -7.663194334397303 201 158 139 255
21.507155500798262 -26.030557449822808 -7.141784108795605 199 154 133 255
22.303583616937090 -25.681178311185107 -6.561211607171657 199 154 133 255
23.184062888748429 -25.369114892643552 -5.921464421491038 198 153 132 255
23.897459259293584 -24.998293013083298 -5.399908021858693 197 151 128 255
25.113626716283534 -24.827586783673496 -4.523526231615818 195 149 128 255
25.743974398247929 -24.435030390388746 -4.060991910449928 194 148 125 255
26.542149429582082 -24.112869122022246 -3.480145611915418 192 147 123 255
27.592042880955944 -23.896087808450659 -2.721818226692790 192 146 122 255
28.139516676842703 -23.484336381980697 -2.318300578012099 191 144 120 255
28.351928079776854 -22.940573351276441 -2.151367798601854 187 139 116 255
28.396765197539196 -22.329915243327349 -2.102760248485680 185 133 112 255
28.944797564211115 -21.926347493865961 -1.699217089678200 174 122 101 255
29.241446028538007 -21.422229571089829 -1.473148256460092 169 117 96 255
29.118781404295788 -20.745138969582257 -1.542934349091496 173 121 100 255
29.331725515729545 -20.208375146917930 -1.376073499806466 169 117 95 255
29.712626616794239 -19.744109165264064 -1.090870454164332 162 110 90 255
30.261582438858056 -19.353956566159198 -0.687298801402477 151 98 80 255
30.642865387611124 -18.895238606966203 -0.402083869106690 149 100 78 255
30.856377536287511 -18.366324892333452 -0.235253509814783 145 97 75 255
30.986009911016367 -17.802199101077662 -0.127638675807447 143 98 74 255
30.611687625630992 -17.017610625828368 -0.375262529704116 138 94 69 255
30.573332178318395 -16.379244579497922 -0.386145528951630 135 91 68 255
31.039214326880057 -15.965199809600762 -0.041811180705707 129 89 64 255
31.421248788402352 -15.516453606290113 0.243313951314946 123 86 60 255
31.551246041108925 -14.956244036921561 0.350774616180928 118 83 56 255
31.260886497242922 -14.205637263408036 0.162077802152197 107 76 48 255
31.390954111491681 -13.645686485287698 0.269449421417733 99 71 44 255
31.016383103697990 -12.853819811254951 0.021379951225214 88 62 35 255
30.894098514636426 -12.176648358049718 -0.049063779382578 82 58 31 255
30.266882647156706 -11.262649129023956 -0.475036546183588 73 53 26 255
29.723617517824408 -10.384120793855331 -0.841883857753345 61 44 18 255
28.506695712806703 -9.183010139269967 -1.682876325563001 49 33 7 255
26.784128131418441 -7.733059214824962 -2.879614996548469 43 27 3 255
22.281778188943605 -4.938066798141961 -6.032304522488914 39 24 2 255
21.820887668573079 -4.066946028357108 -6.340692400334262 32 20 0 255
21.191347188581318 -3.110782492583994 -6.767739969788011 33 21 0 255
21.488505902177621 -2.603994821156604 -6.542860152190144 36 24 2 255
20.858709432984227 -1.642377206648291 -6.970122976872148 39 24 1 255
21.408861109494609 -1.261465552072579 -6.567486073856770 40 25 4 255
14.504424680451649 -26.901755648984320 -11.335899178096668 207 177 154 255
15.718763785359727 -26.669214865012052 -10.463788807193708 213 178 158 255
17.771272270328382 -26.751404903300724 -9.002919665972939 215 177 158 255
19.489480528414816 -26.723229053037770 -7.777348393921585 207 168 150 255
20.956990941239894 -26.612659886535496 -6.728251574832484 201 161 140 255
21.419314547512101 -26.133946617955402 -6.385577233967950 197 156 136 255
22.384838910497791 -25.848873936225104 -5.689583838521685 195 153 133 255
23.099222640274519 -25.474115490776441 -5.170181324678168 190 147 128 255
24.400966335706357 -25.330127828553813 -4.238491476692076 191 146 127 255
25.367720612359932 -25.064424608559690 -3.542280609403321 189 142 122 255
26.083186494564387 -24.706592633842746 -3.022700606349900 192 146 123 255
26.715044387111448 -24.320394727286740 -2.561981461542274 188 144 119 255
27.515035754612967 -24.005119334776595 -1.983409277278213 186 142 117 255
27.811686059032667 -23.493277673772795 -1.758266519606423 183 137 113 255
27.772626868891848 -22.847820510657186 -1.768796950188261 178 131 108 255
28.153475129017721 -22.373100715912429 -1.484752973290938 172 123 103 255
28.786484601481845 -22.004266315319427 -1.023922493238359 162 109 90 255
28.915695229768318 -21.431280196163030 -0.916647316406483 150 93 75 255
28.708869524644598 -20.719248703832733 -1.045136888624114 158 102 83 255
28.838167663275669 -20.146988902956608 -0.937924130317612 160 105 86 255
29.303785310227653 -19.717736909005026 -0.594955962751584 157 103 85 255
29.769609567853223 -19.291533255261285 -0.251975818006883 144 91 73 255
29.983360056780896 -18.760161553284519 -0.085845553349969 140 91 69 255
30.028999681430008 -18.157519877904207 -0.037648399553149 136 89 67 255
29.990556581042341 -17.518587516865850 -0.048449617493617 132 88 64 255
30.036266362168845 -16.916307946955826 -0.000328814253493 130 88 63 255
30.250336338058673 -16.388638339689848 0.165699088091259 126 84 61 255
30.632864059500633 -15.937196431354508 0.449661070457324 119 78 56 255
30.678800379390452 -15.337429786955795 0.497695893919598 112 76 52 255
30.640572043518262 -14.699975411980034 0.486705103061439 107 73 48 255
30.602353778833219 -14.062248238046635 0.475664542627470 98 68 42 255
30.479905575883691 -13.385729633031133 0.405577792148762 88 61 34 255
30.273178551841568 -12.669595328925439 0.276429704159113 78 54 27 255
29.476489435882741 -11.678703877148138 -0.265825071897524 69 49 22 255
28.763806128627749 -10.721932084767417 -0.749209754458832 60 42 16 255
27.292128429413765 -9.404116426950779 -1.763857553860163 50 34 8 255
24.470769953013104 -7.438814018690422 -3.723036578264072 41 27 1 255
21.817024028176689 -5.535475950908406 -5.564544811268036 43 28 5 255
20.596292173227141 -4.301914343914447 -6.402918660849338 39 24 1 255
20.556292689324664 -3.629948603830996 -6.415013457297704 39 24 3 255
20.263144188716296 -2.834716234107688 -6.604287455231940 38 23 2 255
20.391918627904118 -2.243604073023718 -6.498434504721416 36 21 0 255
19.929837338653954 -1.362636974842871 -6.805968643497550 37 22 0 255
20.649688188478677 -1.063407047014792 -6.286862627429315 42 25 5 255
21.032035589428148 -0.600455810594738 -6.003968482957589 40 23 5 255
13.650583429965707 -26.730085160950424 -11.088735471515861 209 178 157 255
14.783009364343854 -26.465506462849348 -10.278814478828650 217 183 163 255
16.587135477897306 -26.453748130800093 -8.999748531616120 217 180 161 255
18.811594517086832 -26.608458956415504 -7.427343655469599 210 168 152 255
20.533330709878186 -26.590400066999649 -6.206578754197238 202 164 143 255
21.248331907145655 -26.205857809098006 -5.689398153609915 201 160 140 255
21.963639076286626 -25.826076226425897 -5.172170377804520 198 157 137 255
22.763237668267323 -25.483065203692192 -4.596242727243862 192 149 130 255
23.731178569540447 -25.209913098809309 -3.902945202014564 186 141 122 255
25.119614641800553 -25.105896913565843 -2.916266722042536 186 139 119 255
25.836340600763833 -24.748337612526072 -2.398802622527057 187 141 118 255
26.301218826786823 -24.296228006068304 -2.057305050572097 182 138 113 255
26.934438752369118 -23.913954803402930 -1.598439254615073 181 137 112 255
26.979345261794037 -23.300424696870891 -1.550293206092448 177 131 108 255
27.444795246817705 -22.856810783836664 -1.208755326500636 169 123 100 255
27.826335591909469 -22.382111958945615 -0.925888879161363 163 115 95 255
28.628713125625154 -22.082175883676925 -0.349552261432308 158 103 86 255
28.926533802175072 -21.579192050413482 -0.125346585081246 139 80 64 255
28.719503758217570 -20.868291135305796 -0.253352653732321 126 67 51 255
28.849145287046639 -20.297147737336360 -0.146591987704056 126 69 52 255
28.894664489282150 -19.691372636297388 -0.098563933037980 139 83 67 255
28.940226567437094 -19.085942374364237 -0.050567777598530 130 77 59 255
28.901600922912934 -18.444783000179598 -0.061323863807814 126 77 57 255
29.284219377324888 -17.985094340567670 0.221497979976846 127 81 58 255
29.582747644740039 -17.491284627924344 0.445593432438187 127 83 58 255
30.134254208908885 -17.110046906521077 0.845881229437225 121 81 55 255
30.011633241443263 -16.435172228912975 0.776285489040134 117 77 53 255
30.057613226651227 -15.834350380369600 0.824119770959186 109 72 49 255
29.766322474096398 -15.083051676759482 0.636928027433271 103 70 45 255
29.643632471643315 -14.405787211739963 0.567164430172824 97 67 43 255
29.436558507164818 -13.689473529379711 0.438586456322724 87 61 36 255
29.145051682403420 -12.933286553806610 0.251179007683675 75 50 26 255
29.022242885757350 -12.252731874878904 0.181224799895716 66 46 22 255
28.392953454658596 -11.337040491440305 -0.241414651485314 58 41 17 255
27.425742282028381 -10.259949756705694 -0.899275307793090 48 34 8 255
25.107110279410534 -8.543074025952421 -2.497780011321737 37 25 1 255
21.689652519100974 -6.292930012711651 -4.860806570544327 31 19 0 255
20.129342838198369 -4.903665898288551 -5.930897191246061 41 26 3 255
19.920308685072655 -4.150777796216275 -6.060503370156169 42 27 4 255
19.880231844823783 -3.477784750714576 -6.072589027161598 39 24 1 255
19.586593610226402 -2.681538365000577 -6.261149175621625 39 24 1 255
19.546484208525840 -2.006936086494079 -6.273371607134976 37 22 0 255
19.337271318337002 -1.248920001953692 -6.403285793117703 35 20 0 255
20.142863315961989 -0.990671755102653 -5.827448544689759 40 23 3 255
12.627065879153548 -26.498233601615297 -10.955510684432682 206 175 154 255
15.105688464912788 -26.717800084859974 -9.214636168397504 215 183 162 255
17.081059916656528 -26.769476970912720 -7.823917730232694 215 178 158 255
18.720999559800191 -26.710278366755276 -6.666628658801415 207 167 148 255
20.361605105812345 -26.661779759293367 -5.509196398803255 198 160 139 255
21.330156337649839 -26.372194030534018 -4.818903228669711 196 158 137 255
22.299111106493967 -26.088986771810468 -4.128535919866152 196 155 135 255
23.100223804713522 -25.748128831973617 -3.554932607219172 190 147 128 255
23.817535196010454 -25.380278763583760 -3.039696377527008 178 135 116 255
24.703462345788807 -25.082275556489606 -2.407557956749827 186 139 119 255
25.421416101756535 -24.724448221234240 -1.892219333560917 183 138 116 255
25.971298230791177 -24.305172834867150 -1.493707064735617 174 131 107 255
26.353010546760999 -23.822824846653063 -1.212047862186864 171 128 104 255
26.229571763910059 -23.141257864701942 -1.281048879611546 162 117 95 255
26.358821879106472 -22.560708742990940 -1.174744760904673 163 116 96 255
27.246428430587372 -22.288620846997361 -0.542373077363663 158 109 92 255
28.302943665590021 -22.091196629303241 0.206976926494235 147 94 78 255
28.517032318062974 -21.553527066770314 0.371778052725347 127 69 55 255
28.141111944691886 -20.772443145137103 0.127297781272347 102 43 30 255
28.270983075641908 -20.200522722605243 0.233574116035328 108 49 36 255
28.653934143869122 -19.736059614894472 0.515258322128716 123 67 52 255
28.699652589628101 -19.130938946260557 0.563024858372785 123 70 54 255
28.407942699327009 -18.381907636591265 0.376818702455012 125 76 58 255
28.706831723047202 -17.885370145288590 0.599973097158426 119 73 53 255
29.005860355082859 -17.390778004124002 0.823121910638292 118 76 52 255
29.473861383678781 -16.971872173471098 1.163262609013429 114 74 48 255
29.351037562500039 -16.295964783898995 1.093889340544166 108 70 47 255
29.481537179974225 -15.731518765416013 1.199987222367412 103 67 43 255
29.189784156202734 -14.979467376061294 1.013493730399972 96 66 42 255
28.728979010719343 -14.149609207040371 0.709890905710722 88 60 36 255
28.268019723112388 -13.316765522838111 0.406194149851473 78 54 28 255
27.553363896630884 -12.365421703671885 -0.073178691986357 64 46 22 255
27.176577640220842 -11.564531502223502 -0.318549320535425 53 39 14 255
26.376936388873730 -10.565942629799864 -0.856690369161299 44 32 8 255
25.407884848416359 -9.483515077954991 -1.512050833390276 37 27 3 255
23.085217761941692 -7.761368025798063 -3.104305431101409 30 21 0 255
20.507895016155118 -5.904610157798018 -4.872525897205804 28 18 0 255
19.368002689498468 -4.713421243059244 -5.645644820367210 41 26 3 255
19.581741256835613 -4.161264705095846 -5.481977885960049 42 27 4 255
19.287720115548069 -3.366300063390767 -5.669732001320540 43 29 3 255
19.332250028095331 -2.733111513375249 -5.623292898819955 42 28 2 255
18.953436624777879 -1.893952629908597 -5.869780019331159 41 27 1 255
19.336735173777271 -1.425663376354962 -5.589145483593569 40 25 2 255
19.635493527836019 -0.917912988539683 -5.367108161929252 41 26 5 255
13.157898165314379 -27.498168526776411 -9.760851066126406 206 171 149 255
13.536681397516048 -26.959275782531833 -9.480954389320317 208 177 156 255
15.767195881569137 -27.091629136759281 -7.921545890269016 215 181 158 255
17.830249221098171 -27.177142038056587 -6.478259128908036 212 177 156 255
19.304770749180079 -27.059542556492900 -5.441956648275152 205 167 148 255
20.190416426459223 -26.733168124367225 -4.812728487330531 197 160 138 255
21.750249622965924 -26.664392507486795 -3.718025401506338 192 154 133 255
22.299792630188847 -26.224904854537030 -3.321350153714377 193 152 132 255
22.765314903511211 -25.757087370016620 -2.982827703314996 191 148 129 255
23.146767271562794 -25.260125347065880 -2.702471563300236 185 142 123 255
23.949855947897049 -24.928488628659380 -2.131135502371279 179 134 115 255
24.584663643458725 -24.536496101545325 -1.676138322203371 171 128 109 255
25.051092156952734 -24.082523759365841 -1.337506643805654 157 115 93 255
25.349043331256780 -23.564946959778723 -1.115267239499786 154 112 90 255
25.478419053026784 -22.982140365920188 -1.009447039242190 146 103 83 255
25.776618185988070 -22.468063650566407 -0.787212177321550 143 97 79 255
26.665691352462943 -22.195161563869149 -0.157438427551739 135 87 72 255
27.470726125125992 -21.893606466092606 0.414174017833943 131 80 65 255
27.685134217352498 -21.354343360035230 0.578240066805819 121 68 54 255
27.224133402952532 -20.536716257188829 0.276432401659179 95 39 28 255
27.523080908003607 -20.033430428143589 0.498680699231812 76 19 8 255
27.653223670333063 -19.461085324364319 0.604443143802854 84 28 17 255
27.698952158069119 -18.853839060490486 0.651938562780771 108 56 43 255
27.491207946808800 -18.138756041041063 0.524650445661820 114 66 50 255
27.959575254034917 -17.713009547560432 0.863349206698928 113 68 49 255
28.428146623685251 -17.290291120761594 1.202061867233255 112 71 50 255
28.727814729620860 -16.796853429586633 1.424258299080094 105 67 44 255
28.435632436387294 -16.045358812147455 1.238563261176154 98 64 41 255
28.227946770571350 -15.329405849981597 1.111071368818727 91 60 37 255
28.020204044953573 -14.612114740839388 0.983516865792609 83 55 33 255
27.897022811406885 -13.931430110773931 0.914182150967122 72 48 24 255
27.096737259005295 -12.944124993939340 0.378488001769085 63 41 17 255
26.296166550944321 -11.951652170688504 -0.157337452873406 52 37 13 255
25.664645549499028 -11.031536129356482 -0.576700697378783 43 31 7 255
24.948220539253469 -10.068272881297020 -1.054481299777024 36 26 3 255
24.231542626463181 -9.100346546985165 -1.532387901665885 30 22 0 255
21.989719466227086 -7.415230483278449 -3.060033371633523 28 20 0 255
19.747058188486562 -5.715629536769072 -4.587980666703743 29 20 0 255
18.605292330427602 -4.523191195635789 -5.358054434965823 45 33 9 255
18.649820400750116 -3.888916715855444 -5.311741953163249 43 31 7 255
18.524824956463590 -3.173462765816140 -5.382138073747143 46 31 8 255
18.569398166007375 -2.538966530640991 -5.335929054677337 46 30 5 255
18.529196153625691 -1.863396888126246 -5.348109174814482 43 27 2 255
19.082809402520212 -1.477858613716094 -4.951927257000051 42 27 4 255
19.127578472782716 -0.845131704913769 -4.905840765709144 43 28 7 255
-1.468580791292396 -24.609423496070761 -19.029797872958227 197 169 144 255
4.046059583613015 -25.808537928559659 -15.219459532172095 200 171 149 255
8.636126807782745 -26.717777091940675 -12.045614257784479 204 169 148 255
11.205620156384356 -26.940211852476537 -10.261309040642232 206 171 151 255
13.270444442849964 -26.998580530364052 -8.824285385601911 209 177 156 255
15.926189674200913 -27.283072528560965 -6.981601365284320 213 177 155 255
18.498677505502570 -27.554082459918277 -5.196597445730333 208 175 152 255
20.060210950652731 -27.470605491557478 -4.106550077642254 202 166 147 255
20.525852645636860 -26.991742289813871 -3.769551140121109 195 159 137 255
21.497886261143663 -26.704823891567997 -3.084876858185197 190 152 131 255
22.217180092762646 -26.329080168072764 -2.573964018588583 186 147 127 255
22.683586811251018 -25.862079930410985 -2.236851930263299 180 139 119 255
23.487852664643270 -25.527310287952588 -1.667897372728987 170 127 108 255
24.039165732095370 -25.100194264346101 -1.272761823680440 167 126 107 255
24.590716916172767 -24.676739569843932 -0.877594768172401 163 124 103 255
24.804656582797122 -24.124607512041777 -0.714267791674587 147 109 88 255
25.103182139795422 -23.607319455065820 -0.492973232214695 136 98 76 255
25.232857371064767 -23.024809811603092 -0.387628225130754 123 83 63 255
25.700652339914768 -22.578808588598278 -0.050373914675674 128 86 67 255
26.422235101662494 -22.238385503053365 0.460856792258369 126 84 66 255
26.805944424342584 -21.764935838999264 0.740174304216794 112 68 52 255
26.851584374565903 -21.155212726469500 0.787524715724459 98 50 36 255
26.474382492519055 -20.370994691534875 0.544854966145095 90 41 30 255
26.689209058064137 -19.831137978244016 0.708136567364505 78 26 16 255
26.734923398397115 -19.221689347867283 0.755392939351253 67 16 5 255
27.034555146554510 -18.719938146411536 0.976657950654300 66 18 5 255
26.995758173212749 -18.075930609263551 0.965853650070216 93 47 32 255
27.295601607771772 -17.577011546788100 1.187096149526241 96 56 38 255
27.680257615934408 -17.116633822386575 1.466361535593194 95 59 37 255
27.811012195611056 -16.548137143981364 1.571540667274036 93 57 35 255
27.518304723915691 -15.794802346851000 1.386521191867644 86 55 32 255
27.140783783980140 -15.002189220418842 1.143392289431887 79 51 27 255
26.932618942073930 -14.282512117850587 1.016272402056188 71 47 23 255
26.554884601912988 -13.485586369899053 0.772992025266802 60 40 15 255
26.007483003572503 -12.609774318583476 0.413522154215713 52 35 9 255
25.290316415187419 -11.653436717662558 -0.062166453574804 44 29 4 255
24.742505434719021 -10.769990862323297 -0.421850501617570 41 29 5 255
23.940043327894529 -9.765872917726412 -0.955842556842498 34 25 1 255
23.052457820949570 -8.717240575704366 -1.548041268788154 30 21 0 255
21.316019870128656 -7.267045113499734 -2.721159570216429 29 20 0 255
19.239459376385241 -5.646222187788993 -4.126849314678282 30 19 0 255
18.265640784997998 -4.533597531349656 -4.777690111233454 48 35 16 255
18.480099835468025 -3.980168193345648 -4.615403723868639 49 37 15 255
18.185151744877174 -3.183982561963063 -4.801723250456291 49 34 12 255
17.975046018044935 -2.426715007596314 -4.930025666025898 48 32 7 255
17.679929492436884 -1.626742259232245 -5.116510540141121 44 28 3 255
18.149423962863693 -1.198108173340927 -4.780078691083901 42 27 4 255
-5.678122418572173 -24.031141759681816 -21.030669219556785 201 168 146 255
5.367792141080599 -26.404212768187094 -13.441360121286010 204 172 151 255
7.940465731179899 -26.608834936054635 -11.664605848567476 204 169 149 255
10.007744818420434 -26.651033074413959 -10.233700014578261 205 170 150 255
12.497950789921106 -26.857218751257619 -8.514174603135700 209 174 154 255
15.664636974867364 -27.322580034391478 -6.332894994744606 213 176 156 255
18.072504819480855 -27.532466459823922 -4.670563846962068 208 172 151 255
20.227924748302001 -27.665138994014342 -3.181104296181388 198 161 142 255
20.610017007405531 -27.156705690736246 -2.903209944372065 193 155 134 255
21.330287924532740 -26.776733367465354 -2.394468369625486 185 147 126 255
21.712791001944396 -26.274599057818577 -2.116521791015856 180 139 119 255
22.349069118055752 -25.871068906242684 -1.665410416102958 175 134 114 255
23.408370243674824 -25.633103773344303 -0.925654862559242 159 118 98 255
23.876137152107873 -25.174261290807749 -0.589887157553022 154 115 95 255
24.597858410889160 -24.816970662067547 -0.080908159408267 139 101 81 255
24.558486754014240 -24.166699929210466 -0.091481011746453 129 93 71 255
24.772971209917785 -23.616350112691762 0.071130041672092 124 88 66 255
25.072194286927072 -23.101104310202814 0.291479335375101 120 83 62 255
25.540853300697506 -22.655654212921320 0.627326267271769 112 74 55 255
25.925051633145642 -22.179136243255854 0.905443352846106 104 66 48 255
25.970696870050830 -21.567447495600831 0.952549869302402 98 59 42 255
26.185777634726435 -21.025533879911123 1.115152262926415 89 48 34 255
25.892681879461691 -20.275256333163256 0.931160150272461 81 37 26 255
26.192606312895720 -19.769854132724674 1.151489848898564 78 30 20 255
25.899444617733366 -19.017860973945446 0.967405161831550 74 26 15 255
26.284293687169367 -18.550290793178064 1.245481916662897 68 22 9 255
26.075860779431935 -17.832869734692338 1.119088676395279 77 34 19 255
26.376141239961186 -17.332081474726792 1.339362670003851 84 46 28 255
26.846182156135825 -16.906422177625601 1.675218273551224 87 52 32 255
27.146769959545452 -16.410059501058939 1.895497063386216 84 52 30 255
26.768742438516909 -15.618562533862033 1.653365278011051 77 48 22 255
26.305731042637518 -14.787249815149394 1.353350397804633 71 43 19 255
26.266946456387132 -14.141348824438850 1.342298720900743 64 40 14 255
26.143275362627264 -13.457238355478893 1.273389873109551 53 33 6 255
25.425213872798565 -12.504789939873248 0.799691844830278 47 31 5 255
24.452121861318403 -11.432250504259898 0.152402129161942 41 27 1 255
23.478677860439916 -10.353445392400758 -0.495036137969066 37 23 0 255
22.504881753084646 -9.268360740887445 -1.142624413528864 31 20 0 255
21.955604446402958 -8.373501720511683 -1.501172112239431 32 22 0 255
20.641223167246011 -7.118871535949609 -2.380413744354513 34 22 0 255
18.816318980691619 -5.616655773483217 -3.606935928822878 32 20 0 255
17.925989767084673 -4.543978211646689 -4.197329752600439 45 33 13 255
17.885732518299960 -3.869413527492469 -4.209295606040484 53 40 21 255
18.015590736550394 -3.275802286003326 -4.105589170905773 52 37 16 255
17.294800934891640 -2.273519830703009 -4.580590161550845 53 37 15 255
17.254458984651308 -1.596156412832897 -4.592746026346134 51 35 10 255
17.214120794292768 -0.918382120573938 -4.604957398808892 47 32 9 255
-4.279382176410593 -26.100881333028127 -19.207729841655066 205 176 151 255
-5.084686181593270 -25.102173075515594 -19.736229911555483 204 168 146 255
-5.383424861397714 -24.271185110905947 -19.920244976504733 199 165 145 255
-0.105819479344774 -25.354806267708994 -16.313632090135144 206 171 152 255
5.765413686870119 -26.677441785622094 -12.304433720332781 207 169 151 255
7.919886406526985 -26.736536495358735 -10.822151223186353 206 169 150 255
9.821598312036087 -26.720062135828258 -9.512010271702025 207 170 151 255
12.315970569320569 -26.926702835107605 -7.799534188550552 210 173 154 255
15.657066173815934 -27.453251459310948 -5.512265594324617 211 174 155 255
17.307687682941491 -27.388285924816259 -4.373878686352526 207 170 151 255
19.297396132113164 -27.457704102226643 -3.005485487076697 197 160 141 255
20.103186128019672 -27.103336854886109 -2.441471450044077 188 145 128 255
20.824673169055501 -26.722819756111093 -1.934868517324134 182 139 120 255
21.715773017437556 -26.410521819248615 -1.313257905542969 173 130 111 255
22.776583550085093 -26.168054479988129 -0.576613942732365 160 117 98 255
23.753139618346779 -25.900229421852600 0.102630892210470 154 111 92 255
24.221872056254369 -25.443550954128071 0.437010913122549 138 100 77 255
24.436647704908268 -24.891578114074193 0.598931528989425 126 90 67 255
24.227846196315085 -24.175726111964238 0.473354261763717 116 81 59 255
24.357999297030517 -23.592050996671446 0.577745213863722 105 70 50 255
24.742533471115706 -23.110167621144214 0.854648542435484 97 64 45 255
25.466381042930010 -22.766382856095021 1.361615948994483 90 57 39 255
25.596916533740313 -22.188223918408966 1.466014057661539 89 54 40 255
25.642706602535611 -21.576565331736830 1.512877233419118 81 48 33 255
25.688536727052167 -20.965284751621823 1.559717281813533 78 45 30 255
25.564705107370656 -20.284444213730907 1.491472873965819 71 38 23 255
25.865183748469775 -19.779062681740228 1.710860093883127 66 30 16 255
25.826266098073006 -19.133634944126541 1.700091847971208 60 22 10 255
26.042054533770795 -18.595341836261994 1.861920259258369 58 21 9 255
25.748451377181340 -17.842190703839847 1.678449912789887 66 32 17 255
25.709554012937986 -17.196157595619013 1.667574740116095 73 40 23 255
26.095406068182342 -16.732844127838050 1.944450010416745 72 41 21 255
26.226532627961376 -16.161435531056199 2.048646943733957 72 41 21 255
26.102786959867046 -15.479487175075860 1.980123607358166 69 41 19 255
25.639024937510186 -14.647152421047380 1.681266451541035 63 36 15 255
25.600174473152720 -14.000209867033305 1.670202639449400 54 30 9 255
25.306239649460764 -13.239177624166345 1.486356056889775 47 27 5 255
24.586981324566210 -12.285178113777746 1.014513339002917 39 21 0 255
23.527217809969756 -11.172615228069915 0.312193190290856 35 19 0 255
22.637226496804288 -10.130756914662371 -0.275094062390082 42 26 1 255
21.832009781738293 -9.122190624511603 -0.804920938637451 44 28 3 255
21.452061571735669 -8.304916799452883 -1.046858037069370 41 26 3 255
20.305839485265011 -7.128997093971620 -1.807359866786271 37 23 1 255
18.903767345668541 -5.826136951136633 -2.740874508927476 32 20 0 255
17.756659245108892 -4.634565804412361 -3.501735894354084 41 29 7 255
17.716424859627949 -3.960598017662477 -3.513669405250056 48 37 19 255
17.676194016381061 -3.286255187522400 -3.525653771135723 54 39 23 255
17.039504416964718 -2.324993807880617 -3.941120937614983 57 38 23 255
16.743490757917243 -1.524340145532875 -4.126157524671044 55 38 18 255
16.788347803153243 -0.887554679062632 -4.080706006679264 49 32 12 255
-5.035449986746812 -26.713171507996179 -18.835569178433332 209 181 153 255
-4.996116498263774 -25.997838630986408 -18.790085674304549 209 171 152 255
-3.772398170203644 -25.681917225156099 -17.943930751167471 206 167 149 255
-0.855933738229140 -25.949276579044735 -15.953751855689347 201 165 147 255
4.177402038260567 -26.961217786782399 -12.533293673906826 209 171 154 255
6.842651445499882 -27.185040094070544 -10.714064337957325 210 167 151 255
9.000989205987082 -27.248641298461891 -9.237833407768051 209 171 152 255
10.652120459367609 -27.147169805982259 -8.104677868403883 209 171 152 255
13.150855745466544 -27.357495665477515 -6.399200587933876 210 173 154 255
14.888187184214189 -27.310531319413158 -5.208480287468291 209 172 153 255
16.880394366784373 -27.366755868592222 -3.845924094136024 204 167 148 255
18.534422228330698 -27.312179226384103 -2.712103759702330 193 156 137 255
20.443390664913295 -27.361859716118744 -1.406430424911946 188 145 126 255
21.420585062242338 -27.077854545395169 -0.730207390741185 181 138 121 255
22.143803216570518 -26.705058843235975 -0.225633424067155 169 126 109 255
22.612897930596603 -26.241041742848580 0.107251979704188 150 107 90 255
23.675970222685493 -26.006001935108571 0.840927086403241 142 99 82 255
23.891063383742562 -25.452540265858531 1.002128423931282 131 93 74 255
24.275977085529149 -24.966189549540900 1.277850821961835 115 78 59 255
23.982071245490232 -24.217841948913929 1.095470555912271 108 73 54 255
24.027635361311695 -23.601117531418154 1.142113656533212 97 62 43 255
24.412865130672770 -23.119246085399013 1.417832390049426 86 53 36 255
24.798265242132373 -22.639933372824359 1.693566435333906 81 48 31 255
25.268774574602361 -22.197324077569377 2.026597950383206 71 39 26 255
25.059843750690675 -21.482430701101123 1.901355721197234 64 33 20 255
25.105769472807367 -20.870369466340691 1.947939488159562 60 31 17 255
24.641806767363732 -20.048910972139396 1.650724150434030 52 23 9 255
25.027730106272514 -19.576888917791919 1.926437257664617 57 25 12 255
25.158761166135861 -19.000878527988831 2.030247137237296 54 20 10 255
25.715047811439348 -18.604617008686262 2.420589436249799 50 17 5 255
25.335984207480351 -17.815471665611440 2.180505222148383 51 19 6 255
25.212004438413516 -17.132892348250934 2.112305642319001 54 24 8 255
25.343254928906788 -16.559304964166202 2.216030916944760 57 28 11 255
25.304372153181077 -15.912864861726121 2.205082236958674 56 29 9 255
25.180376496183925 -15.229064290167472 2.136763814559203 53 25 3 255
25.056353476255680 -14.544477789961363 2.068398133634531 45 19 1 255
25.102604537385872 -13.934430309900776 2.114667814274156 44 17 0 255
24.978558776436984 -13.248786093339518 2.046214517343003 50 28 5 255
24.087834824166862 -12.218442397410612 1.461552370895788 63 41 18 255
22.941190966158757 -11.066948009993055 0.704688351993667 66 46 21 255
22.220207820030822 -10.101864976989162 0.234462119018559 59 39 14 255
21.584200563620328 -9.171157018719256 -0.178517530754618 51 34 8 255
21.459459959321208 -8.472104490415106 -0.247388298060542 46 30 5 255
20.567308112597829 -7.416075497893047 -0.832685052913831 40 25 2 255
19.163148570447618 -6.115233857761055 -1.762399383470836 34 19 0 255
17.758471734242562 -4.805336184709461 -2.692313843837269 36 24 2 255
16.950471757641139 -3.769052381156726 -3.220707205087905 45 34 16 255
16.824819602166173 -3.052742012588155 -3.290085940819552 51 36 20 255
16.101715261186285 -2.048997563709051 -3.761315239096689 57 38 23 255
16.061250861404204 -1.370105372566698 -3.773445000818981 55 38 18 255
16.106166713568513 -0.732277647891650 -3.728218294523771 49 34 13 255
-4.691885806476620 -27.688034189996486 -17.720658392971785 206 179 152 255
-6.092193781422282 -26.499459906344910 -18.643524572590223 211 176 154 255
-5.459813983138702 -25.979524498833044 -18.199676089688097 208 171 152 255
-4.064564708735020 -25.720277262079989 -17.243163552875302 202 163 146 255
-1.312757626540815 -25.930285182603257 -15.375142984521744 204 167 149 255
4.661241615652528 -27.261058184964398 -11.342166308897788 208 168 151 255
7.585412760109989 -27.575367094209952 -9.359517520977249 211 169 153 255
9.577953170857256 -27.583265293800622 -8.003304190974376 210 172 153 255
11.401657241705863 -27.544374773048318 -6.760861648310794 210 172 153 255
12.632270136871995 -27.306554991578793 -5.917129612939959 210 173 154 255
13.608838842582998 -26.985638764189332 -5.244250385988977 208 171 152 255
14.670671976179904 -26.701767348796707 -4.514297529310795 202 167 147 255
18.873509907403360 -27.568575297491151 -1.675412580870130 190 153 134 255
20.785779792350041 -27.620350720087856 -0.375118029536310 187 144 125 255
21.594939896952809 -27.275579904945943 0.184296537110242 180 137 120 255
22.149646240672126 -26.840952502448019 0.572748838291091 165 122 105 255
22.534697342156420 -26.346027299149014 0.847212366561706 151 108 91 255
23.514652879171535 -26.079514916484598 1.520817814135597 132 89 72 255
23.815180999648447 -25.559137112473451 1.738328709412315 115 76 59 255
23.945857538843967 -24.975208658560604 1.841796903498164 97 60 44 255
23.821573522631212 -24.293036917397600 1.774164781232088 91 54 39 255
23.952345480085199 -23.710214989791695 1.877602505917594 85 49 35 255
24.253276537594900 -23.195555828203396 2.095109717599229 78 45 30 255
24.554344670001996 -22.682916425300661 2.312624558999573 69 35 23 255
25.110778224727738 -22.274732320762112 2.701291697083917 63 32 21 255
25.156891502225477 -21.663669956778435 2.747675032639023 54 26 14 255
25.117934771398268 -21.018299608840820 2.736980278285898 51 24 11 255
24.483108566195227 -20.128058368010699 2.326822402276719 49 23 10 255
24.784615107636995 -19.621363032257875 2.544300015593791 48 22 9 255
24.830784738046560 -19.010151171118309 2.590569402985182 52 23 11 255
25.217688286117294 -18.542360491565063 2.865116833114996 49 21 9 255
25.178808910772148 -17.896879845741211 2.854277004357527 49 21 9 255
25.225141244630379 -17.287499737662614 2.900487858170834 48 21 6 255
25.441956762447290 -16.751603245116186 3.060851429692747 46 20 5 255
24.891723007259770 -15.885451061137928 2.707364804051792 54 28 12 255
24.852830712193793 -15.238542878131597 2.696376422278092 65 37 16 255
24.387584626176874 -14.404430470279451 2.399837241867175 76 50 27 255
24.433907527003129 -13.793334393047076 2.445859131901102 77 52 28 255
24.053746024746090 -12.992847134261638 2.206291595168892 76 52 28 255
23.673458142670142 -12.189918765358655 1.966647844294187 74 49 27 255
23.122370196667873 -11.307584891219392 1.612684041451985 71 49 23 255
22.741796389442698 -10.499198729212665 1.372875633613518 65 45 18 255
22.104987730875905 -9.571278673110740 0.961595546547073 56 38 13 255
21.638725309949137 -8.717825563617751 0.664478169762589 50 34 9 255
20.489088382333904 -7.544823844245499 -0.089852524549713 45 30 6 255
19.168194797285651 -6.284745829688418 -0.958641369928188 40 26 2 255
17.248775030705815 -4.735405440332258 -2.227668037047607 36 24 2 255
16.354048802145371 -3.658283145764145 -2.811095874416225 44 33 14 255
15.800866399056616 -2.737947960987668 -3.166029453205851 50 36 19 255
15.418456436205986 -1.895805598790446 -3.406740788369177 57 38 23 255
15.121416802626669 -1.092280869315772 -3.590371118150102 56 39 19 255
15.337374254238313 -0.535531020705392 -3.431036350791345 52 37 16 255
-8.038712379512191 -26.729214670753336 -19.059676036758788 210 175 154 255
-7.405662230403834 -26.202010091208948 -18.617839151820959 209 174 154 255
-7.026903365666072 -25.594456416916088 -18.346105476424185 209 170 151 255
-6.732842357539340 -24.961094799515891 -18.131068724601022 195 158 140 255
5.402522052743649 -27.647934395444921 -9.985506878224356 209 172 153 255
7.482534687091231 -27.672711115152012 -8.578394052305185 211 171 152 255
9.478437213725300 -27.681350464400197 -7.227824715127468 209 172 153 255
11.050371660115388 -27.553715520262131 -6.160788112060771 210 173 154 255
12.537966604565668 -27.406163549474229 -5.150355515611466 210 173 154 255
13.091324352549321 -26.934185224123624 -4.764066999557542 206 169 150 255
16.534958638273139 -27.507640994800866 -2.447999650847805 199 162 143 255
19.554852340877858 -27.948574699715408 -0.415404561273021 188 150 131 255
21.215387752837103 -27.909988009317985 0.709230811931832 186 143 124 255
21.515780721721171 -27.378945962974399 0.925697836781154 180 137 120 255
22.071510831848798 -26.945125164053124 1.312500955233588 158 115 98 255
22.627476389207686 -26.514986680071729 1.699342639255235 131 88 72 255
23.524073788024566 -26.217546905317107 2.313355142471181 114 70 55 255
23.569882271593741 -25.600682829655170 2.359564897056515 97 57 45 255
23.785993458533540 -25.049837644770534 2.519343109068075 96 58 47 255
23.831912761263311 -24.434364830702691 2.565530159112029 79 42 30 255
24.048199739123305 -23.885975970402157 2.725302155196914 69 33 23 255
24.264590696398074 -23.339074839728880 2.885074636130952 62 28 19 255
24.310691472534160 -22.725907196830633 2.931227719477533 57 23 14 255
25.038537110305413 -22.386282890960800 3.431875396323079 48 18 8 255
24.999615420280577 -21.741642939797984 3.421208173677485 43 15 4 255
24.960699251332983 -21.096843189194999 3.410512442324944 41 17 5 255
24.239690914146308 -20.172246630650719 2.945167040100728 39 17 4 255
24.456490416596012 -19.630614103338630 3.104872498474975 39 17 4 255
24.417508381515688 -18.983936826306049 3.094064719185553 42 20 8 255
24.634464389725395 -18.444360768210444 3.253749063480200 44 21 10 255
24.339558705628320 -17.689998327907247 3.072354840064691 49 26 15 255
24.385934324541523 -17.079025749634525 3.118301600788953 54 32 19 255
24.773786456495515 -16.614680675442671 3.391643381808137 61 39 25 255
24.393419733080691 -15.821198167759633 3.153262779851957 67 45 31 255
24.098319125993072 -15.062432974975707 2.971674807501671 74 48 28 255
23.973942025008995 -14.376575793821587 2.903761011983391 77 53 29 255
23.934960853446654 -13.727583405816105 2.892675119167222 79 54 30 255
23.810541610357291 -13.040399154960710 2.824674601315905 76 52 28 255
23.258804942155109 -12.161394467379651 2.472214715213738 73 47 25 255
22.963297311943563 -11.394271733694040 2.290322061664000 68 46 21 255
22.753184697935126 -10.663973808466849 2.165254089975690 64 43 18 255
22.286490111375457 -9.815241570964545 1.869437689104728 58 40 14 255
21.477544215634850 -8.806331707875131 1.345928175214993 53 37 12 255
19.983995822373458 -7.475733244507310 0.367043406823058 43 30 6 255
18.404340611542040 -6.095723730108816 -0.668956367548162 37 25 1 255
16.567386600474379 -4.585262590432961 -1.875918341623446 36 24 2 255
15.500039883503604 -3.426388065873198 -2.570842745940894 43 32 13 255
15.202739389250524 -2.626434721154681 -2.753601538792253 51 35 19 255
14.990961906996318 -1.865380634550846 -2.879506004568924 58 39 24 255
14.607846329759781 -1.020451479961338 -3.119347240303682 57 40 20 255
-8.506572056580467 -26.711598456478669 -18.462086334491801 210 175 155 255
-7.617491224702434 -26.267941802278585 -17.852729750705890 208 171 152 255
-7.577955058593119 -25.548078072759154 -17.808133229208096 208 171 152 255
-6.178255089158341 -25.284438558029294 -16.859734172860925 193 156 137 255
-1.887174316675896 -26.007447295123526 -13.990463643203157 205 169 150 255
5.211914134268596 -27.715538448234781 -9.256380510960696 207 170 151 255
7.295410974898886 -27.740781813570592 -7.855152648868369 210 173 153 255
8.954367452392233 -27.631659172291563 -6.736253725110885 210 173 154 255
10.613985120163591 -27.533263739248682 -5.617200326004507 209 174 154 255
12.614686609669377 -27.565977070180722 -4.271936742416358 211 174 155 255
13.424470686983739 -27.186438448711613 -3.717740610739639 206 169 150 255
15.681941102441471 -27.333025396573731 -2.202592336134359 197 159 140 255
19.217620943620375 -27.957659588937688 0.160675398782701 186 148 129 255
20.540232025039757 -27.794325001240807 1.054473599512534 183 140 121 255
21.437435310807871 -27.482316821563472 1.665712206114591 177 134 117 255
21.994189455612769 -27.049301392982187 2.050865537064084 154 111 94 255
22.636398427491940 -26.651951151982743 2.492603002311029 133 90 74 255
22.852693156163411 -26.097557820570685 2.651644286413983 116 72 59 255
22.898586642620643 -25.479636399459125 2.697582761207855 95 55 45 255
23.200325517527261 -24.960517714682624 2.913179723723857 73 35 26 255
23.587485931301359 -24.476500500511392 3.185350217764039 63 25 17 255
23.804212017085746 -23.928396349658811 3.344407536501109 64 27 19 255
23.935723624391244 -23.348180416885711 3.446895525620846 60 25 19 255
24.237974099574615 -22.836646190964018 3.662526482249518 54 19 13 255
24.796411493231858 -22.429545640967916 4.047906464720342 47 15 6 255
24.842881699003300 -21.819613932464222 4.093816328075093 42 14 3 255
24.633240302849657 -21.106023925501546 3.969941400284881 39 15 3 255
24.081941191842787 -20.251387622463810 3.619647328493954 36 17 3 255
24.042944770581329 -19.604654446233212 3.608857398674132 32 13 0 255
24.174816495293726 -19.028718379991403 3.711242788881549 25 6 0 255
24.050413003756404 -18.346390740415913 3.643795748422463 28 9 0 255
23.925980917718022 -17.663322886428830 3.576309011882785 32 13 3 255
23.716039296455762 -16.943204854518427 3.452165923219184 35 16 5 255
24.190012315252744 -16.514363312833638 3.780936860554618 43 23 12 255
23.980077611015673 -15.793803895266919 3.656729235250737 50 30 18 255
23.770080921430292 -15.071927992794059 3.532469986032709 57 34 18 255
23.388930309141557 -14.273957779833424 3.294889696567054 62 40 17 255
23.093214299140158 -13.511223261203142 3.113876703810178 64 40 15 255
22.711824669329729 -12.708674781597395 2.876156875687883 67 43 19 255
22.587091097350907 -12.018278062681276 2.808308432710987 67 40 19 255
22.633548842161446 -11.403995283688914 2.853719617013468 61 38 14 255
22.594413592691723 -10.751224670372238 2.842444959664419 60 40 15 255
22.298349263198389 -9.981118893734291 2.661145048030761 55 38 13 255
21.573889593764704 -9.012656320724943 2.196442606523618 49 34 11 255
19.992410024369661 -7.643972855728890 1.164906835409028 40 29 5 255
17.296345208522837 -5.747415360225233 -0.603635590369237 32 22 0 255
14.856397672047791 -3.953941395146771 -2.202471586461542 34 22 1 255
14.130036102658920 -2.952291068218756 -2.667896932566208 44 33 14 255
14.346566282425755 -2.392989723535379 -2.509843579638726 49 35 18 255
14.734708245655156 -1.916769224571269 -2.238415012218240 58 39 24 255
14.351048931439607 -1.072176430509501 -2.477288959509252 57 40 20 255
-9.144912693737638 -26.638695812861570 -17.976478692507698 211 174 155 255
-7.403224131624455 -26.473600730669759 -16.807303358610426 210 172 153 255
-6.767512398499463 -25.953093731197214 -16.369204272884190 207 170 151 255
5.703263815464197 -28.015295474357103 -8.078068165872793 210 173 154 255
7.449600123414655 -27.926016911188995 -6.907757846307987 211 173 154 255
9.026209200379213 -27.788900614934562 -5.849824655993501 212 171 151 255
11.114805721587686 -27.840915702938574 -4.454092921345222 208 170 149 255
12.607525084436702 -27.695695060456487 -3.452119104717781 211 173 152 255
13.504024152108229 -27.347578985770710 -2.843994441470727 209 167 148 255
15.594747334174599 -27.434169983221253 -1.447757153606148 198 155 136 255
18.965671807828812 -27.997675512633393 0.793068023591360 188 147 127 255
20.717051736119799 -27.990423300346279 1.964580381198346 182 141 123 255
21.359904002685852 -27.585693035012866 2.404339134234448 175 132 116 255
22.003023293350168 -27.185190848272413 2.844147828213522 157 111 97 255
22.475695087667418 -26.724953883999916 3.171385855145246 112 65 55 255
22.607074396793081 -26.138863215509090 3.273397424539496 81 37 25 255
22.567744941096976 -25.488713479031858 3.262767075640141 44 5 0 255
23.040857436609144 -25.035178202474413 3.590054497143825 53 15 6 255
23.428748447650605 -24.551705957948215 3.861044411134145 55 18 10 255
23.560491513368504 -23.970828387557276 3.963058691943786 63 26 19 255
23.521394755959733 -23.323707672673265 3.952393531240659 63 26 19 255
23.653245346610817 -22.744182409511211 4.054386069510059 51 17 10 255
24.212603593123873 -22.336272232969606 4.438099212060877 43 14 3 255
24.173667318331610 -21.691148272380204 4.427399021005328 38 12 1 255
23.878174837225345 -20.941837935057308 4.247609006823495 33 12 0 255
23.240442933528328 -20.050956975770234 3.842329032289200 24 5 0 255
23.458014176511540 -19.508280295825827 4.000593869423625 21 3 0 255
23.418979788485700 -18.860582924592748 3.989753459373503 19 1 0 255
23.379948889083352 -18.212694549292522 3.978884277282873 16 0 0 255
22.998514961500149 -17.420499106591862 3.742477101563480 16 0 0 255
22.873807426044493 -16.734824577928592 3.675148537183901 18 1 0 255
23.005972590230016 -16.158096338350859 3.776938940448247 17 1 0 255
22.966904658284392 -15.508548218057143 3.765934571392847 16 1 0 255
22.756505726309427 -14.784547569520441 3.642107269368665 31 10 0 255
22.460360864639625 -14.021840627722241 3.461828782836875 43 21 3 255
21.992721760242972 -13.181953743918328 3.168679790540409 47 25 2 255
21.953499153263152 -12.528705838018638 3.157497048130693 49 26 4 255
21.742814351281169 -11.798799855582743 3.033451516814495 50 27 4 255
21.960805918727885 -11.259851214352850 3.191445159404424 48 29 5 255
21.664309933676066 -10.489823980586166 3.010890624872758 48 31 6 255
21.453497497050478 -9.756875131662326 2.886699112846344 43 27 3 255
20.642042041361435 -8.747574566516235 2.367421822670963 39 26 2 255
18.972162053974358 -7.337550663839963 1.283646122732932 34 23 1 255
15.928392426731335 -5.279693778306836 -0.703424998583870 28 21 0 255
13.741940110476776 -3.603397369369006 -2.126399691378424 35 24 3 255
13.357774766332739 -2.760841987301248 -2.364167377461996 45 32 15 255
14.004017012156851 -2.403407895337324 -1.924537093196250 52 36 20 255
14.135150840795291 -1.804474068238804 -1.823641645390637 55 40 21 255
14.180436994755382 -1.165048918703548 -1.779237202170265 53 39 16 255
14.225753380561144 -0.525761121878091 -1.734867892792778 45 33 11 255
-11.016643037146622 -26.907513050402798 -18.317453092799127 210 177 152 255
-8.590826529540209 -26.953192241677897 -16.705346936298469 215 174 156 255
-7.101799112819378 -26.707190336189626 -15.709120915689539 213 172 154 255
-5.356378130703348 -26.555485845047542 -14.544709430797070 207 170 148 255
-1.392926039250426 -27.155396966617261 -11.923633410827819 190 154 132 255
3.083860162636284 -27.953051729721395 -8.966025861100320 209 171 150 255
6.709236034031903 -28.489093249686562 -6.568253462110277 212 174 153 255
8.288074405997264 -28.345499096326222 -5.514895381031749 211 172 152 255
9.867539993778649 -28.212099743562376 -4.461388516013699 211 170 150 255
10.593994059566768 -27.790689757142630 -3.968141021786749 208 170 149 255
11.918409620663198 -27.584704075887871 -3.082516075562438 210 172 151 255
12.901767813828485 -27.265847703274346 -2.420967083826611 207 164 145 255
16.191669551094208 -27.780347512284166 -0.245877060300614 196 153 134 255
19.311991601923580 -28.253995071629603 1.817418985329255 185 144 124 255
20.297390833503385 -27.968340537925869 2.479455327534197 183 142 124 255
21.112263669050179 -27.626203261410765 3.029444127810308 177 134 118 255
21.927468144935688 -27.289372113474244 3.579501515684115 159 113 98 255
22.657509709822619 -26.925866771762941 4.073551406678177 129 83 70 255
22.874785997097320 -26.373651694034834 4.231179377772776 114 70 59 255
22.750057303551017 -25.692897234504642 4.164474806164606 99 57 49 255
23.053017122705654 -25.175412798674486 4.378185287470927 79 39 31 255
23.099433383991197 -24.560811253792124 4.423629112491454 74 36 27 255
23.145886771200452 -23.946627212511487 4.469059525231131 69 32 23 255
23.021192846487452 -23.265668686618355 4.402271286586057 64 30 21 255
23.581337909940942 -22.854932505964214 4.784305181922377 57 23 14 255
23.713591473880570 -22.277169915707105 4.885821261319478 46 20 7 255
23.931555000191139 -21.734738207334942 5.043446510678507 39 17 4 255
23.721333437544445 -21.020407958829622 4.920472338084977 35 16 2 255
23.425376585234517 -20.269889571482210 4.741329742866355 33 17 2 255
23.472084660082004 -19.658425361896406 4.786650904744249 29 13 1 255
23.518828309781156 -19.047319473189475 4.831954227024539 26 8 0 255
23.651329729928534 -18.472316701610453 4.933377481642339 25 6 0 255
23.526682756726871 -17.790127993583965 4.866362189581736 24 4 0 255
23.058985675805985 -16.962017985451411 4.574719312332803 23 3 0 255
22.676899177197441 -16.167551593525289 4.339153434789807 18 0 0 255
22.294684335804845 -15.370696047730661 4.103520898491126 18 1 0 255
