ply
format ascii 1.0
element vertex 647
property float x
property float y
property float z
property uchar red
property uchar green
property uchar blue
property uchar alpha
end_header
-50.522691630582131 -18.207864584441666 -14.964258629468560 208 155 151 255
-50.849902702745766 -17.472859116920063 -15.136722143195115 194 141 135 255
-51.397408603587621 -17.075056928165338 -15.442383684910340 174 121 111 255
-52.163628151616621 -17.017149855818502 -15.880391507468630 147 94 84 255
-52.818553871449950 -16.792622063019991 -16.251136859372806 125 77 65 255
-52.926136370275771 -15.719378034526159 -16.290605853946786 81 44 30 255
-52.653761890968269 -14.046621725127636 -16.099883027224791 28 8 0 255
-53.199720027794456 -13.651557682787484 -16.404548786968775 24 15 1 255
-55.154372907598599 -15.487734931894494 -17.562670250238426 17 16 3 255
-55.370939648296172 -14.585150814370110 -17.667989117288343 4 7 0 255
-55.102844838649617 -12.905202107233720 -17.479424995935986 0 3 0 255
-54.223031041342580 -6.392015892915879 -16.839392156307866 1 8 0 255
21.471265696253027 -25.774727308568913 25.076941008537517 206 170 151 255
17.792417312881327 -28.246066820496139 22.931954418121393 202 170 151 255
16.151622377694082 -28.661306150894234 21.988194241526372 208 173 154 255
14.059405259634218 -29.555757892266513 20.777887254604934 210 178 157 255
11.583616318733675 -30.866683619188819 19.340918933343971 215 183 162 255
10.025048899190722 -31.243611080538244 18.444711281882888 219 184 164 255
9.248533898613118 -30.812923664705067 18.009782074149655 218 182 160 255
8.602741706976133 -30.248270044770720 17.651919013342876 213 178 156 255
6.796466683239942 -30.916445447641252 16.608865816442432 213 176 155 255
5.317803390508175 -31.251097866813467 15.758946908047704 215 174 154 255
3.329450448052711 -32.144019273256646 14.607764124862939 213 175 154 255
2.501748261638767 -31.804370866795125 14.141820063377921 214 176 155 255
0.971858231757665 -32.230025193342499 13.260912462326800 218 177 157 255
0.532109924500219 -31.481322491910589 13.023926791133277 220 175 154 255
-0.417330887230491 -31.290885910210136 12.485678835754200 218 173 150 255
-0.983026168427813 -30.684243263986247 12.174142133403478 217 173 148 255
-2.055755074970392 -30.640394624153942 11.562777550355435 213 168 145 255
-2.999095798412071 -30.460312069151769 11.027767065935194 208 163 140 255
-3.813846501000057 -30.142637051784419 10.568681138580644 205 160 139 255
-4.374690182157138 -29.544214546506169 10.259696134689591 207 165 143 255
-5.249543055660951 -29.302451336395279 9.764871339443545 211 169 149 255
-6.059662481440796 -28.992634774525470 9.308239463261629 212 171 151 255
-7.056083671260353 -28.900393183573044 8.741233693238144 213 175 155 255
-7.487297505927501 -28.166124898156397 8.508696417314198 217 179 160 255
-8.729546239489707 -28.368363438956351 7.795907361666309 220 184 162 255
-10.030524864994106 -28.648862429587666 7.048138194540513 221 185 163 255
-11.451964849126682 -29.080778706459881 6.228801865986895 218 182 160 255
-12.249126377415678 -28.792983713989344 5.779090084150582 220 180 160 255
-13.106481252063674 -28.580958582709343 5.293611160506444 220 179 159 255
-13.714981709185338 -28.079586872559275 4.955515472958908 216 173 154 255
-14.876988802731574 -28.240153646856271 4.289242011645598 212 169 150 255
-15.421088518068842 -27.670161860166360 3.989159521068984 209 167 148 255
-16.884570955602413 -28.208732290621640 3.143808124761676 206 165 145 255
-17.670274509831160 -27.940421401142373 2.700233640174048 208 167 147 255
-19.431395235538020 -28.863531578817259 1.677877218004340 211 173 152 255
-20.211655932311828 -28.604483841590252 1.237230147362752 212 174 155 255
-21.111862452128292 -28.497736042608580 0.725301462513841 212 173 156 255
-21.585190672720756 -27.869965459467835 0.466656998954434 208 169 152 255
-22.542488175607190 -27.844273515583552 -0.079360645799795 208 169 152 255
-22.772472715904286 -26.917775292014340 -0.193589541231276 209 170 155 255
-23.545642914156815 -26.670796010394611 -0.630421142568139 210 171 157 255
-23.896176998500067 -25.895571534928848 -0.816254354823357 211 171 159 255
-25.027020677565588 -26.109184405400867 -1.465752048280990 211 172 157 255
-25.316364478705736 -25.259883576726736 -1.615286898875127 210 171 156 255
-25.964639861974689 -24.869033231410754 -1.978165316807150 207 168 153 255
-26.313741936421195 -24.096252403898745 -2.163218088264671 212 173 156 255
-27.436280736953364 -24.324014873142914 -2.808224553891449 218 176 160 255
-28.140162436354444 -24.016758856745298 -3.204374990341279 218 180 162 255
-28.665024550988022 -23.479521819620288 -3.494087956011128 214 177 158 255
-28.775728780952051 -22.399605413863469 -3.537370591476986 213 176 157 255
-29.300357098789704 -21.862774650844244 -3.826944657200286 212 176 154 255
-29.530317770693983 -20.936343463231282 -3.941119240972938 210 172 151 255
-30.171826854613954 -20.557044412178698 -4.300302247176646 204 166 143 255
-30.578018793633987 -19.865356897537026 -4.519387552366950 200 159 137 255
-31.276276708155194 -19.567711163052650 -4.912451698001163 191 149 127 255
-31.565145484034161 -18.719268388963485 -5.061653159662981 176 134 110 255
-31.796346509428787 -17.790756410014012 -5.176447513342936 169 124 101 255
-31.564100011484953 -16.225225881970459 -5.014928358817059 161 115 92 255
-31.624191481141082 -15.053276073418147 -5.027531444764890 142 95 73 255
-31.743596620819886 -13.958608922644572 -5.075403918665160 123 75 53 255
-32.382955260325019 -13.583032054478394 -5.433332405851829 109 61 39 255
-33.136223998636865 -13.370044958984749 -5.859268451540842 71 25 2 255
-34.518899495099191 -14.046317703241471 -6.660879260240293 101 55 31 255
-36.183228580424753 -15.134366039173727 -7.630848152403814 195 148 122 255
-37.613323821006958 -15.908186066404568 -8.461296002565263 194 147 121 255
-38.696834186865715 -16.202543773906598 -9.085039458411188 195 148 125 255
-39.833998261547237 -16.583824365501869 -9.740996207436780 199 152 132 255
-41.194537986389179 -17.297844301036662 -10.530584407541369 203 156 139 255
-42.776872101841263 -18.347296021020156 -11.452951531604555 204 154 144 255
-43.676362538057305 -18.420231859543890 -11.967491000418363 211 162 155 255
-44.179309479089653 -17.920505727435170 -12.245081525769706 198 148 147 255
-44.681727138669743 -17.421695172479701 -12.522364145606488 96 46 45 255
-45.127573327014090 -16.840956674268853 -12.765818279526414 156 107 107 255
-46.467768767254569 -17.589697185345216 -13.544312398710716 169 121 122 255
-47.245673081192763 -17.513195513315395 -13.986576835597020 175 131 128 255
-48.411282951426131 -18.024431414559729 -14.660982776800807 203 155 153 255
-49.073556785178340 -17.788311378602799 -15.034246045911971 201 151 147 255
-49.789911995783655 -17.638390453140119 -15.439946235446811 201 150 146 255
-50.449449643585638 -17.406963148715448 -15.811681272806183 187 137 131 255
-50.997447993353319 -17.008938277783386 -16.116641400717398 173 120 111 255
-51.764635831009656 -16.950783801648754 -16.552971020214244 152 100 89 255
-52.255720210769340 -16.471436906333906 -16.823882301676647 125 77 67 255
-52.746309158379319 -15.992953161222971 -17.094495748658318 97 59 48 255
-53.181813367666535 -15.430016126274552 -17.332072630200599 30 7 0 255
-54.760765907443272 -16.663737150096665 -18.255539527643521 20 8 0 255
-55.084393603422939 -15.934799921573472 -18.426123280630975 11 8 0 255
-53.945029982357397 -12.883744565434910 -17.718618332110168 5 7 0 255
-54.654922995488846 -11.497604226905992 -18.096672693643413 1 5 0 255
-52.239458769338086 -6.341084840335924 -16.621641810808200 0 2 0 255
-50.428150557134927 -2.116827663567165 -15.508660196633969 0 4 0 255
-54.677260919683505 -7.717476490079832 -18.036897068288354 0 4 0 255
-53.866681836830736 -2.503582067337106 -17.474709021979152 0 5 0 255
-53.514834889034745 -0.607607445219855 -17.237671510719323 0 5 0 255
19.718342317104231 -26.731437907161194 22.957012091233878 203 172 152 255
17.090704044275441 -28.146938322780215 21.441920399746436 208 173 154 255
14.406640632619911 -29.644807655408670 19.893380283748115 209 177 156 255
11.340686222725452 -31.563196758515033 18.120943776220543 212 180 159 255
10.496818326359346 -31.197332187285184 17.648340135965555 218 183 163 255
9.784445346385326 -30.698420884160214 17.252598390909355 218 182 160 255
9.656180353624421 -29.587879607319621 17.198711467794055 214 179 157 255
7.781388071192026 -30.322040827447154 16.122294996964555 214 177 155 255
6.106058910242695 -30.860420894872021 15.162380663784333 214 173 153 255
4.242750932616673 -31.614106789766254 14.092108994268045 212 174 153 255
3.092030555711517 -31.617999068828084 13.438955526272849 215 177 156 255
1.559675511195252 -32.042852300692545 12.562051282163537 218 177 157 255
0.671673704756330 -31.780195182436927 12.062484697190385 219 175 153 255
-0.214382339518096 -31.520839586919408 11.563949003082328 217 173 149 255
-0.843658438151550 -30.984837089635874 11.215820875544125 215 171 147 255
-1.599204732379803 -30.590751292104130 10.793606495259112 208 164 141 255
-2.543666707389463 -30.410379743345686 10.260535385023744 202 158 135 255
-3.549228943605129 -30.304426643451080 9.691510908961050 196 153 132 255
-4.425962492689905 -30.060893342016641 9.197920846294508 209 167 145 255
-5.363797779792662 -29.891776865429790 8.668378019907678 215 173 153 255
-6.236514381056679 -29.655065789382661 8.176926182814498 214 174 154 255
-6.918954449141552 -29.206939480134167 7.797036299622533 214 176 156 255
-7.537605311671030 -28.688955765680817 7.454522077041389 217 180 161 255
-8.655483107393934 -28.748640593758125 6.818872743149825 220 184 162 255
-10.207022809936376 -29.319168357195394 5.928434060074068 220 184 162 255
-11.193477314439207 -29.245687323792453 5.369612445310992 221 185 163 255
-11.929005293272922 -28.885598302943094 4.958051419289745 222 182 161 255
-12.663128875744121 -28.527895127177487 4.547239012916776 221 180 160 255
-13.519548336931791 -28.318881202593616 4.064491573875671 215 172 154 255
-14.744337305631433 -28.553422381650421 3.365156675540604 209 168 148 255
-15.472927855411854 -28.205126776785221 2.957305974076718 209 168 149 255
-17.121897251852118 -28.966654787904304 2.008292989137558 216 175 155 255
-18.336256047905778 -29.218945104142051 1.314564949635681 214 176 155 255
-19.669471121403802 -29.625783901989820 0.550760332797779 214 176 155 255
-20.449150904658268 -29.368950989317113 0.112350949458317 214 176 157 255
-21.166249359514978 -29.040209618640546 -0.289325165425851 212 174 156 255
-21.517217693502175 -28.264093479436951 -0.475631566202168 208 169 152 255
-22.414297023293159 -28.164287660327147 -0.983334951210765 208 169 152 255
-22.643419973282249 -27.238707986106903 -1.097960534109902 209 170 155 255
-23.597979672679600 -27.219493520018489 -1.639651122990529 212 173 159 255
-24.068013295859942 -26.597570672060385 -1.896145692828611 213 173 161 255
-25.018740538080493 -26.584882898249475 -2.435768314802630 213 174 159 255
-25.187085882836783 -25.584326616664242 -2.514628253862881 209 170 155 255
-25.655744822674080 -24.964747540419040 -2.770376846893910 211 172 157 255
-26.124080739444025 -24.345720381602689 -3.025948300709629 217 178 161 255
-27.128481345513450 -24.420114359696328 -3.597492822897564 223 184 167 255
-27.832850537161079 -24.113054779456462 -3.992294356184516 221 183 165 255
-28.713845773740189 -24.040649548603596 -4.491304270537626 216 179 160 255
-29.000655725083305 -23.195326911137016 -4.640000953801660 218 183 163 255
-29.642361841661852 -22.816511090280272 -4.998004693254956 217 181 159 255
-30.047212301662427 -22.127137751302769 -5.216319621885361 214 178 156 255
-30.746042416170866 -21.829530783761584 -5.608101629866155 207 169 148 255
-30.915448072508042 -20.827203540993196 -5.687479136900635 205 164 144 255
-31.320031841546779 -20.138300903555603 -5.905624213692107 196 154 132 255
-31.607756822166010 -19.291451984215570 -6.054764369255196 184 142 120 255
-32.129078286781066 -18.760721734334254 -6.341817806071916 178 133 111 255
-32.068387559921689 -17.436349973871074 -6.285115959044560 168 122 100 255
-32.299838271979013 -16.506877507814806 -6.400885482549029 152 105 83 255
-32.416287566899285 -15.416298227263667 -6.448648259492160 134 86 65 255
-33.169260070723908 -15.205024921957431 -6.872525703440402 126 78 57 255
-33.574921122161271 -14.514343649569525 -7.091164175511494 101 55 33 255
-34.325462522230168 -14.307228921849742 -7.513700927918961 65 19 1 255
-35.074396002674519 -14.102862201948540 -7.935354807162057 165 118 91 255
-36.565588236494705 -14.954694442053096 -8.796120335820603 192 145 117 255
-37.766303749152229 -15.408811812931560 -9.485282229360706 195 149 124 255
-39.305044692301891 -16.358168069834676 -10.374646074849821 198 152 129 255
-40.554370766145013 -16.908002278161973 -11.092977432810159 203 156 138 255
-42.083187514849811 -17.874278737431382 -11.976956022627547 210 160 149 255
-42.871433244239739 -17.781506842078443 -12.422694675187557 211 160 156 255
-43.432113179552999 -17.362368909713808 -12.733738168793693 189 139 138 255
-43.991999137739242 -16.944596607268835 -13.044332067603506 93 43 42 255
-44.607258205794437 -16.611018395181247 -13.387754025096456 192 144 142 255
-45.781787297608247 -17.109821971333275 -14.062643641852219 187 139 138 255
-47.064427372859427 -17.781485741965753 -14.801792238164438 125 78 76 255
-48.175548226434103 -18.209818445645794 -15.439456301863601 196 147 143 255
-48.671251357143177 -17.722939698668029 -15.712335559755857 190 140 136 255
-49.166442229040427 -17.236949665519830 -15.984912758853241 187 136 132 255
-49.937984670951778 -17.172748985927626 -16.421441478471934 183 133 126 255
-50.652460707071185 -17.027268623461197 -16.824180219756386 166 115 106 255
-51.200053456140864 -16.630568395904930 -17.127926180004124 146 95 86 255
-51.581954571857381 -15.980620662118071 -17.333319618481312 128 80 70 255
-52.018731701701910 -15.415717661345525 -17.571266470252766 105 69 57 255
-52.947686968506531 -15.618966780984124 -18.101518104863430 57 32 20 255
-53.819459681230825 -15.741135835739669 -18.597914235548657 22 7 0 255
-54.416658639895729 -15.438527838456821 -18.931255447078343 9 6 0 255
-55.393055394843117 -15.739515868513365 -19.489996834807556 4 5 0 255
-57.823740835503543 -17.133998718265843 -20.892036098959963 0 2 0 255
-50.556626275451606 -2.917902336445195 -16.525536629614322 0 4 0 255
-55.564285558828601 -9.739592831891002 -19.482500959875267 0 4 0 255
-55.946343597551873 -9.089619204220810 -19.687600128140332 0 4 0 255
-51.790314164985375 -0.997483083038446 -17.190937180218867 0 4 0 255
-54.899918394104219 -4.804888341339563 -19.019508871218605 0 4 0 255
-56.402344597390226 -5.995021775230214 -19.891538541798965 0 4 0 255
18.425118076638967 -27.230509662554311 21.119837375335322 204 169 150 255
15.735084714503699 -28.724969101738566 19.578685194309799 204 172 151 255
13.184782761714644 -30.100005855940424 18.118206911678186 208 176 155 255
12.011436635703006 -30.067671646820628 17.456464308535061 215 180 160 255
10.841105424239601 -30.040455584591200 16.796322991576972 217 181 159 255
9.868467343559445 -29.813852143836954 16.250799343303257 214 178 156 255
8.185687821991564 -30.343352912327674 15.292844986262338 213 177 155 255
7.089691293883305 -30.264001499225259 14.675397564992338 214 173 153 255
5.351507142604959 -30.877797393812443 13.684841062130786 211 173 152 255
3.554370727356144 -31.569862642743118 12.659793046258287 214 176 155 255
1.955589168199850 -32.063669431463921 11.749722897017719 217 176 156 255
1.002623640077474 -31.870482264464954 11.214679115332444 216 175 153 255
0.115831291175965 -31.611295597720812 10.717980184260398 216 176 151 255
-0.577530791515500 -31.145468301724065 10.333608801890577 209 169 144 255
-1.206050358137674 -30.611376955585342 9.986866726769293 200 160 135 255
-2.024376054541023 -30.290076144988689 9.529718095446967 184 143 121 255
-2.904453032161058 -30.042282882946665 9.036575367352640 159 118 96 255
-3.909179790443943 -29.939561275285683 8.470841548220889 207 165 143 255
-4.974596123560332 -29.912155642026335 7.869687047553100 215 174 154 255
-5.911211692410319 -29.746728566643043 7.343333753826570 216 178 157 255
-6.971416728312960 -29.728179678428518 6.744962784606216 219 181 161 255
-7.715058213704111 -29.355331080007090 6.330684586525209 220 183 164 255
-8.833086747180971 -29.416972345031752 5.698428830582472 222 186 164 255
-9.760615460867882 -29.266988047142945 5.176928215102819 223 187 165 255
-10.436472852318587 -28.830874482056146 4.801850191214299 223 187 165 255
-11.235658814706881 -28.542085441976553 4.354898457756605 224 184 164 255
-12.219480002834445 -28.474895401105272 3.800334104414034 220 179 159 255
-13.324774583191925 -28.558189483132651 3.174897428268864 213 171 152 255
-14.427075107462855 -28.646576987971798 2.551067737415394 210 168 152 255
-16.081718574100364 -29.402434383664428 1.605261560318837 217 175 159 255
-17.484699290260522 -29.872150583389072 0.805877540179623 219 180 163 255
-18.699048757427931 -30.127063220183402 0.116246963338781 218 179 162 255
-19.664655231620912 -30.090864050583320 -0.428534189272625 216 177 160 255
-20.505458072431423 -29.909843790491038 -0.900659207809923 214 177 158 255
-20.917046823892775 -29.209017821552408 -1.122574411107280 212 175 157 255
-21.328566756428444 -28.508307425947493 -1.344455032616736 211 174 156 255
-22.165454298034689 -28.333949064941407 -1.814476605481289 210 173 155 255
-22.818489195625915 -27.936653035978367 -2.177317142472901 211 174 158 255
-23.712446353643941 -27.843782213164019 -2.680795482084577 213 175 160 255
-24.121186854776028 -27.147802210610905 -2.901181038963230 214 176 163 255
-24.831099507161241 -26.832321742907538 -3.297372802863634 214 177 161 255
-24.998595443463131 -25.832466383633943 -3.376945131056061 212 175 159 255
-25.646948616181760 -25.443144580325168 -3.737257516407112 214 177 161 255
-25.935084301599346 -24.595200983324105 -3.887239870607800 221 184 166 255
-26.820869879705924 -24.516251021826605 -4.386301624583936 224 187 169 255
-27.406555902095107 -24.054978302917561 -4.710130578339260 222 185 167 255
-28.645381042832554 -24.446879650397676 -5.415640607201397 221 184 165 255
-28.931313941991988 -23.602698230416934 -5.564417361785885 220 183 164 255
-29.750425318623485 -23.458626728641974 -6.024825109435056 221 181 161 255
-30.095183402614225 -22.692953012753378 -6.207990367840154 219 179 159 255
-31.029404483730929 -22.710215390842109 -6.735817218918001 208 167 147 255
-31.079315383158502 -21.553283167604263 -6.746569590478074 206 165 145 255
-31.482730386283407 -20.866411187174322 -6.964020822428580 202 158 137 255
-31.769047700792981 -20.021605714603425 -7.112956945585324 193 148 127 255
-32.231042193972570 -19.413664286130029 -7.364657152843137 183 137 116 255
-32.168359591998581 -18.091149189133716 -7.309291446708642 175 127 107 255
-32.224018822279476 -16.924463163884695 -7.323089630409441 159 110 91 255
-32.513228885932534 -16.074762071437704 -7.473538386672686 147 96 77 255
-33.323745608542225 -15.945388742414195 -7.929212055313215 144 93 74 255
-34.074649082896912 -15.738866744893585 -8.350045357410409 136 88 68 255
-34.420716301412767 -14.971042811897689 -8.533792590894564 112 64 42 255
-34.594608929911004 -13.960408199265203 -8.616636996232756 69 21 2 255
-34.998894464347899 -13.272137386302006 -8.834426562694617 181 133 110 255
-36.261273644155295 -13.802712379009023 -9.555137564388119 187 139 116 255
-37.919204148713050 -14.910417115272764 -10.507900171059902 192 146 123 255
-39.628255616069708 -16.109748697256265 -11.490895996756109 198 151 131 255
-41.160789086296774 -17.073665704453362 -12.370646480423630 205 155 143 255
-42.121239421223294 -17.225073848594434 -12.915073830336382 213 163 157 255
-42.739759515905462 -16.886735681216408 -13.259009381499368 190 141 136 255
-43.526467231212621 -16.798018720000385 -13.701663919798378 103 54 49 255
-44.142476800880814 -16.463981517501168 -14.044204725309768 167 119 114 255
-45.206644758406668 -16.796161086681110 -14.649846346811245 195 147 144 255
-46.547747561728357 -17.550117738671332 -15.418213847284051 83 35 30 255
-47.660821399515555 -17.977711422228538 -16.052869935589285 190 141 136 255
-48.157165752502266 -17.490163638894245 -16.325431079229659 176 126 120 255
-48.597373784209708 -16.919555074511607 -16.565013677555214 172 122 114 255
-49.314792612379648 -16.770255326625460 -16.967468419731190 163 115 106 255
-50.086007753445443 -16.708032242997376 -17.401590635438481 153 105 95 255
-50.744944492770315 -16.479682464858826 -17.769776111098309 128 83 73 255
-50.961827219103412 -15.574759045950486 -17.878093555633839 92 52 41 255
-51.454349220594594 -15.093820817682001 -18.148435058401716 57 26 13 255
-52.001208739485264 -14.699039933970880 -18.450732368654641 57 36 22 255
-52.492615049309364 -14.220038921953488 -18.720413461914802 31 15 4 255
-53.310935777036775 -14.256373999366303 -19.182456031627694 16 12 0 255
-53.419536670686739 -13.178602773570958 -19.226859696708502 5 6 0 255
-56.624754848296334 -17.011786720193641 -21.094091401847948 0 2 0 255
-56.024352097378880 -14.818712254973121 -20.721206911859511 0 2 0 255
-51.375895032667245 -6.118915113918717 -17.963988808422613 0 2 0 255
-54.460651188336527 -9.799943531353676 -19.760813902306523 0 4 0 255
-53.875630967477036 -7.580765514529332 -19.396083745513749 0 4 0 255
-56.031160997442868 -9.806827944017243 -20.646129919558120 0 3 0 255
-56.037662018843236 -8.545751882029492 -20.629844260314343 0 3 0 255
18.712086216250867 -27.386754976068971 20.186258214318030 201 165 146 255
15.952669400555124 -28.948689460573206 18.615929788412046 203 168 147 255
13.333490489310861 -30.391668211027365 17.125927400510534 207 172 150 255
12.094048705123896 -30.427863210986004 16.429646452950777 212 177 156 255
10.662450996758537 -30.673436417684314 15.622616420537838 215 178 156 255
9.234933410161545 -30.925941617500655 14.817762128253989 213 176 154 255
8.071012855045410 -30.911822880332608 14.164502748843205 212 174 153 255
7.233837109134726 -30.559744319912625 13.699261565716128 211 170 150 255
5.816825005740242 -30.830095222572425 12.900005014274740 212 173 152 255
3.888049980543997 -31.659924208374207 11.805808086060281 214 176 155 255
2.351562394926788 -32.084534935420805 10.937343321894588 216 177 157 255
1.012324130357570 -32.308413503565561 10.182331992154175 219 178 156 255
0.317703226437317 -31.841284156158594 9.798602976088162 214 173 152 255
-0.311822305492711 -31.306123753349766 9.452329418150413 197 158 133 255
-0.876651617334545 -30.702253166573826 9.143296926343766 171 131 106 255
-1.695593768368695 -30.381129078960015 8.687741495443902 121 80 58 255
-2.830603023525754 -30.416120290593369 8.049884412128947 168 128 106 255
-3.645524613154151 -30.101823382884220 7.596467273403789 215 177 155 255
-4.838469094035162 -30.217008474544571 6.924969720624645 218 177 157 255
-5.522939171136585 -29.767097670282624 6.546610682558935 219 181 160 255
-6.458335590185669 -29.605360116031250 6.023448323064031 223 185 164 255
-7.202871297793905 -29.232018751273074 5.610304992976836 221 184 165 255
-8.134254778698732 -29.077099490080315 5.089283242812016 223 187 165 255
-9.063434002009558 -28.925926728791467 4.569439336886091 224 188 166 255
-9.802950031333665 -28.561112592791659 4.158971135887725 225 189 167 255
-10.790475877384409 -28.489439150858573 3.605274273372459 222 184 163 255
-11.651092666458482 -28.276131937681839 3.124744350335220 219 181 160 255
-12.882306672317526 -28.504952762782835 2.430140982054695 214 172 155 255
-14.729555984797059 -29.473426878927967 1.379630879951875 215 175 159 255
-16.632453440134299 -30.526002412564225 0.296734224685636 222 183 166 255
-17.726931623740370 -30.629913824980122 -0.319416501037765 223 185 168 255
-18.572187193615974 -30.442740778638608 -0.791698536513209 220 183 165 255
-19.476940964305726 -30.333115331608212 -1.298440117115618 218 179 162 255
-20.440796768600478 -30.301712413312657 -1.839427073683510 215 178 159 255
-21.035232996136386 -29.826169670047591 -2.166985860712771 212 175 157 255
-21.262635453043572 -28.902425360923246 -2.282401804412629 213 176 158 255
-21.856140104791706 -28.428466041943551 -2.609462714219489 215 178 160 255
-22.509546884679054 -28.031368601240843 -2.971197719785962 215 178 160 255
-23.222459918742942 -27.711807472702333 -3.367392804117870 215 178 162 255
-23.631491135953496 -27.015375751964427 -3.587867128836137 215 177 164 255
-24.281924730181828 -26.623340729654956 -3.947999285389756 215 178 162 255
-24.810769721407326 -26.080619402957893 -4.237822468381296 213 176 160 255
-25.459228470466769 -25.691948972763441 -4.596886780188129 215 178 162 255
-25.746753202099512 -24.844694574810376 -4.747090987454257 222 187 168 255
-26.453609640957666 -24.535452085736495 -5.140011334264770 226 189 171 255
-26.979972702837330 -23.996964188423590 -5.428484777994356 223 186 168 255
-28.161051696030796 -24.311131892616231 -6.096087898833673 224 187 168 255
-28.447033387708586 -23.466515669907466 -6.245443208715017 226 187 168 255
-29.385883579011846 -23.477701309195538 -6.772931215573792 218 175 156 255
-29.967248735627379 -23.024433184126678 -7.093414140212843 201 158 139 255
-31.020124459113134 -23.199191713013647 -7.687119714194793 192 151 131 255
-31.127459576770605 -22.122200879288641 -7.732999660290290 205 162 143 255
-31.412411294365540 -21.279361525200784 -7.881763376274904 199 154 135 255
-31.756497243559494 -20.514698177943217 -8.064776792046615 191 146 125 255
-32.042292298893500 -19.670435364680486 -8.213975549771789 183 136 116 255
-32.211811535122621 -18.666446771109179 -8.295719168906899 174 126 106 255
-32.149347258287833 -17.342033027109096 -8.242868597954356 160 111 92 255
-32.495795999090603 -16.573375372907861 -8.427110580930432 151 100 81 255
-33.190399222140115 -16.285069471365375 -8.813310362129101 149 98 79 255
-33.999362380518306 -16.159766504670159 -9.265908881591031 153 102 83 255
-34.460112718210581 -15.554228437695656 -9.516490957894973 149 98 79 255
-34.402257154065353 -14.222012070316168 -9.466054934130341 118 67 46 255
-34.461409724933389 -13.048291761123863 -9.483441857320997 76 27 5 255
-35.095394537516398 -12.684390359089832 -9.834507959289013 178 130 107 255
-36.986589884450865 -14.114710173571126 -10.915691502561998 186 138 116 255
-38.756780279754707 -15.393358883811857 -11.926866622314805 194 148 126 255
-40.292899448896037 -16.355140397246799 -12.802317003712147 198 149 134 255
-41.085346515842190 -16.258038078680130 -13.245887888307692 197 148 137 255
-41.875939331233639 -16.164104629752273 -13.688440849466488 199 150 143 255
-42.890819275175829 -16.403717823394288 -14.261412297393065 179 131 122 255
-43.620781405000542 -16.234187338893776 -14.668860188815685 117 70 60 255
-44.630514945132830 -16.482587583088105 -15.239019029915596 187 140 132 255
-45.805765399436325 -16.985745091373815 -15.905532792666634 79 32 24 255
-47.089340944644476 -17.662183117544032 -16.635188596384907 173 124 117 255
-47.698208457856367 -17.341178914276270 -16.972509519681040 163 113 105 255
-48.306034195800208 -17.021963307498226 -17.309245622576967 159 111 101 255
-48.801600224897555 -16.536194639808201 -17.580674537423945 149 102 89 255
-49.574051169841198 -16.473271620706441 -18.013258115771634 129 89 77 255
-50.123291761101797 -16.074999414910764 -18.315955226289390 89 50 39 255
-50.395695444775981 -15.253833779984461 -18.457470228883096 47 14 3 255
-50.448328810540630 -14.091465790755194 -18.470946772215854 34 10 1 255
-51.161983781003357 -13.949865841301857 -18.869345208505564 33 17 3 255
-52.203000036911362 -14.324018861604998 -19.458496799852199 21 10 0 255
-52.803398731293527 -14.017583221380647 -19.791018572770611 15 10 0 255
-54.439309075652289 -15.346251677264746 -20.727047152077432 6 7 0 255
-55.198441120373019 -15.306140560926110 -21.152240215282063 4 6 0 255
-55.250009674804375 -14.145701130464090 -21.164961346573932 0 2 0 255
-53.191079865262736 -9.603493017088681 -19.946877685839141 0 3 0 255
-51.576308693367594 -5.735891540428042 -18.987258518236658 0 4 0 255
-53.151073423218378 -6.989915193485558 -19.887785935271140 0 4 0 255
-54.524114342323401 -5.369316114462379 -20.634629556420634 0 3 0 255
22.430745470358403 -25.328934417567609 21.196301562202478 193 163 139 255
18.274851573739852 -28.280260509617534 18.840672574296377 197 161 141 255
15.447277722915032 -29.912153105834108 17.242449038076444 200 162 141 255
13.284703955057097 -30.885752403694880 16.023370250001449 205 169 145 255
12.371719216539361 -30.584930905668955 15.517202823144416 209 173 151 255
10.742762955383029 -31.034633733014232 14.602286936853062 212 174 153 255
9.770009179183887 -30.811071357102946 14.061785076975198 212 171 152 255
8.214478315533967 -31.206709279590086 13.188474167628641 212 171 151 255
7.441950622260151 -30.786875462749975 12.762076212858048 211 170 150 255
6.347174286937502 -30.713618309484673 12.151593242482335 211 170 150 255
4.609147136882342 -31.335647929182784 11.173629631617743 216 178 157 255
3.005460886807640 -31.828293919483428 10.272205155028303 218 182 160 255
1.470982308285642 -32.259710946327630 9.410139237172032 219 181 160 255
0.518915679885680 -32.071284217045417 8.880651385871062 218 180 159 255
-0.110601533380049 -31.536771848607827 8.535377568694770 208 170 149 255
-0.994975849901806 -31.284528395027877 8.044419456608352 206 168 147 255
-1.749802222176783 -30.894744769098992 7.627423470378773 212 174 153 255
-2.885228455401688 -30.931239592095324 6.992817218840685 210 173 153 255
-3.636433067704758 -30.547604591521377 6.577745286047914 215 178 159 255
-4.766643978875919 -30.592961577122765 5.945922481837002 218 181 162 255
-5.261149119665049 -29.930169449120967 5.677488504112873 218 180 161 255
-5.944718634765792 -29.482617087485835 5.300910413642725 220 182 163 255
-6.564139841311658 -28.965227321760068 4.960972940566378 221 184 165 255
-7.434170073037507 -28.737341127114320 4.477643656241696 224 187 168 255
-8.176783343966548 -28.368290143271537 4.067133633435873 224 186 167 255
-9.356232752838849 -28.508820610786017 3.406628457461835 224 186 167 255
-10.032629911527977 -28.073448360429268 3.033866437291465 221 183 164 255
-10.894909507594718 -27.858735127025710 2.554677878931273 216 179 160 255
-11.755254011651232 -27.647311750890509 2.076524668903943 209 174 154 255
-14.351779665207118 -29.493238257484705 0.604434561168773 215 179 163 255
-16.257574345862423 -30.545657914141685 -0.472523180012445 225 190 174 255
-17.662447494909912 -31.018549481279848 -1.262882380190433 225 192 177 255
-18.384549555653990 -30.684383415550315 -1.662396559292063 221 185 169 255
-18.920618177262753 -30.129807816927439 -1.955414767716519 218 181 163 255
-19.578910905904053 -29.725229328920818 -2.318467689810788 215 178 160 255
-20.174793060236453 -29.247860034415169 -2.645808294668598 215 178 160 255
-20.586367672080911 -28.547143984216348 -2.867581090429439 214 177 159 255
-21.302950733134082 -28.222364734704826 -3.264136200911494 213 176 158 255
-22.079025246077975 -27.975343561233046 -3.694834786027414 213 176 157 255
-22.792694383125280 -27.655524278520005 -4.089821424959069 215 178 160 255
-23.141266109303530 -26.883025594171158 -4.275563139020960 215 178 162 255
-23.731982246762186 -26.414448384315733 -4.600125093808543 214 178 162 255
-24.140781820036779 -25.718456042385242 -4.820403945095023 213 177 161 255
-24.850626170337591 -25.405151110426971 -5.213325623568267 215 179 163 255
-25.318732769531749 -24.787234415528417 -5.467642950536515 219 186 169 255
-26.086299538996826 -24.554703750133285 -5.893748019798124 224 189 169 255
-26.672749864127326 -24.093397313971622 -6.215998632846834 222 187 166 255
-27.676196065162543 -24.175459157077029 -6.777540664627949 224 188 166 255
-27.962226934708582 -23.330407973254268 -6.927473956024599 218 177 157 255
-28.783583514317769 -23.185355291184521 -7.384630256394388 165 120 99 255
-29.247267278375404 -22.574986692847546 -7.636535949662530 155 109 88 255
-30.302270853730647 -22.748330349074678 -8.227921495050353 142 100 78 255
-30.823041326081722 -22.219823858586039 -8.512659353644949 151 109 87 255
-31.225441328773002 -21.534762413908368 -8.729434171219339 179 134 113 255
-31.745332675329763 -21.007763561799038 -9.013681199953211 187 142 121 255
-31.795578282655612 -19.847999121506092 -9.028166129052934 183 138 117 255
-31.964376083164979 -18.844492140635424 -9.110693343860106 173 124 104 255
-31.842342403274017 -17.440918316659918 -9.026066995295380 159 108 89 255
-32.305035501224921 -16.832283843975517 -9.277364309971588 151 100 79 255
-32.767432425555938 -16.224161450523070 -9.528489730601819 155 104 83 255
-33.519406370966834 -16.018256687434445 -9.946069148900563 166 114 92 255
-34.096241790826809 -15.573405242011518 -10.263004819241957 163 111 89 255
-34.268289366307300 -14.564414579608410 -10.347205983949380 154 99 78 255
-34.326214646918430 -13.391641498997274 -10.365725092211775 129 77 55 255
-34.558042213087447 -12.459938459364196 -10.484192562891309 96 44 22 255
-35.707667708305479 -12.830378126723133 -11.130574034740135 167 116 95 255
-37.196937081507372 -13.696839802940474 -11.972473541647673 178 127 106 255
-38.452977635680611 -14.244212818705563 -12.680338305729862 181 133 113 255
-39.648130176249140 -14.716215417703779 -13.353291405229555 184 135 120 255
-40.896365367013175 -15.276897952440208 -14.056917838071158 187 135 122 255
-42.083982303502381 -15.761751468019526 -14.725776912042619 189 137 124 255
-42.815726990569573 -15.590399822748282 -15.132279674134651 167 117 104 255
-43.545889316832245 -15.421754724293010 -15.537910110877334 172 122 109 255
-44.555761258262493 -15.672128054174152 -16.104675563587293 106 59 46 255
-45.899491260309475 -16.428373433561205 -16.863842141353842 158 108 98 255
-47.014768161849844 -16.857403836278280 -17.491540314983936 154 104 95 255
-47.847317436584177 -16.872580927235106 -17.956435048377458 131 85 76 255
-48.566311640126827 -16.723015716940495 -18.355944215104358 104 63 53 255
-48.838960077423536 -15.901034611144865 -18.498217222538287 63 30 19 255
-49.278556792136527 -15.331965790741151 -18.736686986438116 38 7 2 255
-49.330581068539402 -14.169464632330914 -18.751672625256987 34 3 0 255
-49.936234969349840 -13.854842149392567 -19.085832381418129 25 2 0 255
-50.816212700932937 -13.968406741310531 -19.578226312257272 19 2 0 255
-51.748786970881611 -14.171482803230049 -20.101025490247068 11 0 0 255
-52.678759443173305 -14.379004337472196 -20.622397834440122 9 1 0 255
-53.223421684420885 -13.989246266311312 -20.921498431213806 7 5 0 255
-54.694534512903630 -15.065917800629194 -21.755302563586312 2 6 0 255
-54.147286806603603 -12.954358859843239 -21.424185921117967 0 5 0 255
-51.596352633923715 -7.629604868078843 -19.936026598848301 0 5 0 255
-50.684086750128273 -4.886265915793786 -19.393498074877186 0 2 0 255
-54.801365896333607 -10.230887308101643 -21.755477658097703 0 2 0 255
20.212067749598816 -28.023034586205483 18.833453598452991 191 160 134 255
17.109459682862905 -29.910815960942131 17.091190425201120 197 160 140 255
14.741235897170867 -31.077211397562650 15.764127584801386 200 162 141 255
12.577781549541470 -32.054485254193992 14.552697772586939 204 168 144 255
12.190339758812627 -31.215891570974208 14.346140472100572 206 170 148 255
11.671944249485790 -30.512819372462246 14.065451850648117 212 172 152 255
10.175118241267256 -30.832572910233097 13.230905210773713 211 171 153 255
8.617519645459964 -31.228088289424733 12.361815134108653 211 170 152 255
7.389461339260919 -31.288427948051094 11.679148143265039 210 169 151 255
6.034977425704426 -31.491997306255627 10.924788176193800 210 169 151 255
4.619585440298664 -31.771099233340976 10.135813954879865 212 174 155 255
3.272856566417175 -31.987847451628795 9.385594576034563 220 183 164 255
1.865484116136230 -32.280579294904271 8.600904634947057 220 184 162 255
0.783787829397795 -32.231560567439971 8.000561790948666 222 186 164 255
-0.038415739975534 -31.907355677358936 7.547130083917693 223 187 165 255
-1.115157141297772 -31.866752918240962 6.949425966079190 219 183 161 255
-1.741707062796337 -31.337908233520437 6.606717920295154 216 180 158 255
-2.622529839613833 -31.093117448052141 6.119881246918922 214 178 156 255
-3.183131847941240 -30.497291976581067 5.814458101599143 218 182 160 255
-4.505390472066296 -30.755623214597790 5.077301497897849 220 184 162 255
-5.189949740164451 -30.307225850705549 4.701509115704496 217 179 158 255
-5.936621440746961 -29.932315321916036 4.290460933194652 216 178 157 255
-6.429387453755027 -29.272711209293163 4.023320653275093 220 182 161 255
-7.173771992334508 -28.901681473365670 3.613484225766513 223 185 166 255
-7.979606848462282 -28.605266768403766 3.168750229952579 221 183 164 255
-9.034671890902843 -28.601492876200979 2.582607378218569 220 182 163 255
-9.335886584589247 -27.730261086478208 2.423974662911434 218 181 162 255
-9.949855165412231 -27.222762106234740 2.087929218235288 210 173 154 255
-11.560192882860548 -27.886783006167576 1.186573058431009 211 175 156 255
-14.409314201056446 -30.026573373384537 -0.417822494808362 223 187 171 255
-16.255015910748455 -31.006838406041084 -1.453122481194455 229 194 178 255
-17.289455424239236 -31.038151676611335 -2.028195934609528 226 193 178 255
-17.950386299651740 -30.629919526192481 -2.391354867852058 222 186 170 255
-18.548519578354245 -30.149357543388192 -2.718903733371164 216 179 161 255
-19.268850633819341 -29.819231787800106 -3.115854041891481 215 178 160 255
-19.803586896689751 -29.267358996598290 -3.407472207162598 215 178 160 255
-20.215189182300634 -28.566640171892004 -3.629190294054609 215 178 160 255
-20.871262164586341 -28.166669150264397 -3.989746604334954 213 176 157 255
-21.526208208762910 -27.768615948950639 -4.349696962891144 212 175 156 255
-22.240898627341465 -27.448087570905557 -4.743617209975753 213 176 157 255
-22.711249785499120 -26.826586600229660 -4.998771652086234 213 176 158 255
-23.181272432230600 -26.205645312016259 -5.253748476917721 212 177 158 255
-23.469549312284670 -25.356406936065071 -5.405462440002538 213 178 159 255
-23.878975376624140 -24.659393284006455 -5.626007732642194 217 182 163 255
-24.649590870193094 -24.422896098812799 -6.051833727409985 220 187 168 255
-25.478636342768993 -24.266163644246490 -6.510918039111232 221 189 168 255
-26.245829467952660 -24.035496996842312 -6.934893848784938 223 189 168 255
-26.891757503997297 -23.652806816933349 -7.289969813309682 223 187 165 255
-27.357536593571041 -23.039103403595334 -7.542639451616992 194 152 132 255
-28.001640188219682 -22.659525725948470 -7.896722371608249 146 101 80 255
-28.704050701587022 -22.359924165420864 -8.283994357462859 126 79 59 255
-29.523656037112517 -22.219282273169512 -8.737962910393634 107 65 43 255
-30.163913285227324 -21.846265310881222 -9.089954087548762 142 100 78 255
-30.507977574961473 -21.081322560060357 -9.273452430744058 176 131 110 255
-31.205579940841261 -20.789925630960397 -9.658104327564388 185 140 119 255
-31.020511118712051 -19.312685181414395 -9.540473847654283 180 135 114 255
-31.541507894639977 -18.784252009361012 -9.824613578549716 169 119 102 255
-31.477042320835920 -17.460177756642281 -9.775501409403446 158 107 88 255
-32.056589534473176 -17.011316054942114 -10.092945800522443 152 100 79 255
-32.460635115149643 -16.323534232329962 -10.310479733159710 161 109 87 255
-32.980837385836509 -15.796482864385212 -10.594145600918523 174 122 98 255
-33.732329049448339 -15.592627883235508 -11.009535956101814 173 120 94 255
-34.077405045814174 -14.826027053805745 -11.193478366839358 167 111 87 255
-34.538116604486646 -14.221044985331957 -11.443270223014707 151 97 71 255
-34.710717150320249 -13.210384215729505 -11.528913440332531 120 67 43 255
-35.516121220361441 -13.094019317265065 -11.975074367088993 98 48 26 255
-36.033155355205963 -12.572417266909099 -12.256945995103564 125 74 53 255
-37.007001737466766 -12.707017326429764 -12.799172451163855 167 119 97 255
-38.035234585290510 -12.928273754029561 -13.372466712939683 171 123 104 255
-39.857227118870554 -14.307512752185517 -14.398347458855625 170 123 107 255
-40.991336980468958 -14.707011635763251 -15.032217919776926 172 124 108 255
-41.952089422910745 -14.863945056486585 -15.567325089504649 175 126 111 255
-42.740675508568529 -14.776286218454800 -16.004309162256789 178 129 114 255
-43.865679618782480 -15.191320865804983 -16.633221275698759 146 96 85 255
-45.212238264345643 -15.946125331723891 -17.388612985376966 150 100 89 255
-46.498205137682135 -16.624859535881228 -18.109559595804470 157 108 96 255
-47.276131610066358 -16.555396749865906 -18.540724801171365 81 36 24 255
-47.884679036295950 -16.236599767211857 -18.875263284096363 45 6 0 255
-48.269321991347908 -15.582061083348890 -19.082013078375653 55 27 21 255
-49.043081240186098 -15.519735209994707 -19.510866698821602 115 80 68 255
-49.759564760588347 -15.375697557996830 -19.907055551184925 173 138 125 255
-50.695775355576615 -15.574541528790917 -20.428738495612862 174 139 127 255
-51.353433813306196 -15.351445492981611 -20.791403219968402 161 130 119 255
-51.899694182895615 -14.959545185573347 -21.090456450132450 97 70 57 255
-52.060730410912385 -13.968842768327363 -21.169444712558573 38 20 12 255
-52.442035623884095 -13.320101496483744 -21.374215712165011 11 0 0 255
-53.151348287510672 -13.188369854299452 -21.766387616934935 5 1 0 255
-53.095733558248270 -11.849624643375535 -21.721419999148992 0 2 0 255
-51.899975528045786 -8.688019769841219 -21.024648131686391 0 5 0 255
-53.533650917294125 -10.029646814838713 -21.945100244947071 0 3 0 255
-52.238211170390031 -6.679328985981243 -21.190969318220397 0 2 0 255
16.994985650103587 -30.468966090965637 15.946215880289813 195 158 139 255
14.953846385685438 -31.300795910018508 14.811775506072394 198 160 139 255
13.116503168201319 -31.941255116353773 13.791514441807962 204 166 143 255
13.253989085866493 -30.560682648751055 13.879275506315636 207 171 148 255
12.603099299866756 -29.991154371956100 13.524638613809032 211 170 150 255
11.626233709116633 -29.763833240713183 12.987011040067344 212 171 153 255
9.542527141507634 -30.702557390468513 11.828052913736286 209 171 152 255
8.311934529428868 -30.760993867397730 11.147806755363803 208 167 149 255
6.629815707400979 -31.306763148260359 10.213985855748064 211 173 154 255
4.888000710200487 -31.930325110016526 9.246512764334682 221 183 164 255
3.475124108165090 -32.216701101733747 8.463591060493016 223 186 167 255
2.066323528157596 -32.510005092655263 7.682847576067928 225 190 168 255
1.305997527617222 -32.112945216482501 7.266165030526395 225 190 168 255
0.161243570696200 -32.138015477029256 6.633529299695340 225 190 168 255
-1.044675027655870 -32.238381148110676 5.966454552566574 222 187 165 255
-1.734991507096993 -31.781046651818002 5.588917586389343 220 185 163 255
-2.424161606541958 -31.325655609413275 5.211985324302205 219 183 161 255
-2.857085311644255 -30.588764888006409 4.978979936382188 219 183 161 255
-3.862706333958755 -30.491789638646452 4.424177286252416 219 180 159 255
-4.738834728238999 -30.256392439804017 3.942070324324590 217 176 156 255
-5.486268442423608 -29.881215415301170 3.532230105211354 215 175 155 255
-6.169048830264984 -29.436666399945295 3.158683381822641 218 180 159 255
-6.976907543953189 -29.138040501613119 2.714797131662166 221 183 162 255
-7.783092411784025 -28.842258299682868 2.271803288877535 222 181 162 255
-8.650449622440618 -28.621762032540374 1.794371989064572 220 179 161 255
-8.700605074996275 -27.459859083065794 1.776336910284968 217 177 160 255
-9.690973078771151 -27.388801870750370 1.229673733585670 205 168 150 255
-12.052714346273945 -28.930600083972337 -0.088212077269418 217 180 162 255
-14.593097700607984 -30.706566519381568 -1.506766633573037 230 194 178 255
-16.067292571404948 -31.247278234523463 -2.325891980540675 232 197 181 255
-16.916410398833847 -31.057806214536384 -2.793540327910080 228 195 180 255
-17.577848108108100 -30.649544525343146 -3.155663885543490 219 183 167 255
-18.052799941457891 -30.020460569901815 -3.412905169288237 209 172 154 255
-18.774021898715375 -29.689848584742748 -3.808717433180277 209 172 154 255
-19.247771035267220 -29.062808190437892 -4.065317030980665 210 173 155 255
-19.782572135969474 -28.511262585479500 -4.356283086722755 212 175 156 255
-20.500537413813390 -28.186190347668514 -4.750348106739949 210 173 154 255
-21.155988714099266 -27.788110077248490 -5.109262579455162 209 172 152 255
-21.810314116999308 -27.391946121525763 -5.467571243197966 210 174 153 255
-22.098372892830895 -26.542728343085940 -5.619718373912406 211 174 156 255
-22.447621764865829 -25.768771987320406 -5.806303557037864 211 176 157 255
-22.736480207570281 -24.918194091375085 -5.958879483518260 213 178 159 255
-23.388566094041352 -24.525844826346685 -6.315978489191352 218 183 164 255
-24.220516042544119 -24.365589263916377 -6.774395388284887 220 187 168 255
-25.050555001152475 -24.208588644497752 -7.231780316745173 220 189 168 255
-25.578369565395320 -23.668942182602166 -7.518974854940893 222 190 168 255
-26.165530278230761 -23.207698295369227 -7.839611050206557 221 186 164 255
-26.811642066876715 -22.825529877415903 -8.193475592405434 210 171 151 255
-27.396977383237441 -22.367399646407705 -8.513118969732560 149 103 83 255
-28.160071134977358 -22.144949679073932 -8.932943008500558 130 84 64 255
-28.921529702047366 -21.925287315221766 -9.351880196770111 125 84 62 255
-29.562815678806288 -21.551349331316487 -9.703121838384178 149 107 85 255
-29.729898779125676 -20.549252530956267 -9.787094643366572 182 140 118 255
-30.370039245334482 -20.177274566330937 -10.137703715445525 184 141 120 255
-30.420348636828095 -19.015122865938565 -10.155800806649367 176 132 111 255
-31.059615795243815 -18.644643109552135 -10.505921437790121 169 120 101 255
-31.053089438099278 -17.399830717412840 -10.491904608059073 159 108 88 255
-31.633146749836669 -16.950732221260012 -10.808632074105503 155 104 83 255
-32.037343996002051 -16.262733019148811 -11.026183614397723 165 113 89 255
-32.441510502694058 -15.574793767317203 -11.243706633650135 179 128 101 255
-33.136052004312546 -15.289680925793334 -11.625024642767741 178 125 97 255
-33.713349504419767 -14.845311251569086 -11.940217635799982 173 117 89 255
-34.405464139817866 -14.564346374053230 -12.320202573695980 163 107 80 255
-34.750129939668710 -13.798304622446608 -12.504142660173841 149 96 71 255
-35.325251091663091 -13.357666876540662 -12.818121119902315 137 85 63 255
-35.669882136170799 -12.591703952196724 -13.002011617325493 117 66 45 255
-36.186629026776188 -12.071032339111696 -13.283035418138851 74 28 8 255
-36.702837023939480 -11.551288761487370 -13.563752267568432 59 16 6 255
-38.416020441398018 -12.761857907503384 -14.520284720220360 136 92 76 255
-39.667986842658109 -13.322170949667566 -15.216527635397938 160 116 100 255
-40.745709270457382 -13.640836811541305 -15.814457647362644 157 113 97 255
-41.593750547440180 -13.632802775124219 -16.282731592737960 156 109 94 255
-43.117638092361233 -14.627377401514252 -17.132799086013421 145 96 82 255
-44.354429868171195 -15.213564885403628 -17.820803660487201 132 83 69 255
-45.812199044690630 -16.141289801038170 -18.633744256693831 112 65 50 255
-46.535661202575596 -15.986525037819831 -19.031881248037223 125 79 64 255
-47.817235758162042 -16.675937220554147 -19.745436781215986 207 165 149 255
-48.815423116229425 -16.950652249862912 -20.298921559293660 201 161 144 255
-50.423471466019492 -18.160874010008996 -21.197184943462574 191 152 135 255
-51.192154552357636 -18.108604604991626 -21.621082892466234 194 152 138 255
-52.347096043370271 -18.654785787226018 -22.263390276027238 198 156 142 255
-53.000600313441311 -18.439766294131516 -22.622240254890144 195 156 141 255
-53.652818316967767 -18.226951557152972 -22.980373817539359 182 143 129 255
-53.588186395736415 -16.901945681134009 -22.933079456130017 176 145 134 255
