ply
format ascii 1.0
element vertex 656
property float x
property float y
property float z
property uchar red
property uchar green
property uchar blue
property uchar alpha
end_header
27.098122379753249 -1.122672970720288 -11.997756291896934 88 72 39 255
-1.530234826201166 -31.455523513249773 16.757966415458355 187 167 150 255
0.881147066751140 -31.563446055423142 14.483818681325914 190 162 141 255
3.736425301774830 -31.849347066353914 11.795620869323074 193 162 142 255
6.444663116336557 -32.102532009317514 9.245352855869868 206 174 151 255
7.601754777127667 -31.804294073799696 8.144033430842853 210 178 155 255
8.389620523274232 -31.377356124092131 7.387698918455811 204 176 152 255
11.173431830233483 -31.705825089039493 4.768279643899120 205 177 153 255
13.736184136347447 -31.970823206723566 2.355804677107216 211 182 158 255
15.116644377960625 -31.802068067207728 1.047343822088152 206 176 152 255
16.275636508920286 -31.557939841909800 -0.054128101521343 205 173 148 255
16.695405045338418 -31.034149183211142 -0.465554863946153 205 171 146 255
17.189258191850541 -30.542754494356899 -0.945990351926326 204 169 144 255
17.461337193178906 -29.967056144059626 -1.219402269732910 200 164 138 255
18.103406527774723 -29.541790309932082 -1.837858961724294 201 165 141 255
19.115605450281436 -29.271004180927832 -2.801375424559893 204 164 142 255
19.536079518278029 -28.766316898364266 -3.212813118270191 205 164 142 255
19.660641617659991 -28.143068363747403 -3.348198163504122 200 157 138 255
19.859270959657294 -27.551647254498889 -3.552587103537491 195 150 131 255
20.206022795544783 -27.023855975877339 -3.894997554510610 184 139 120 255
20.774989324925514 -26.592577142513349 -4.444451407326028 171 127 108 255
21.196025114760715 -26.102550510736918 -4.855872332546767 161 118 99 255
21.395019896339136 -25.520343209104610 -5.060235328022173 152 110 91 255
21.371890761295589 -24.843519312103510 -5.057530242691399 144 103 83 255
20.830261122308286 -23.940253065082644 -4.571665475381252 136 98 77 255
20.510764256477472 -23.131042267211882 -4.292831754740348 133 97 75 255
20.191207822012046 -22.319649253143865 -4.013970690411554 129 94 72 255
20.538501871450222 -21.804487769939186 -4.356294334662266 126 94 71 255
20.737682042058566 -21.225138857911304 -4.560559898191002 124 94 70 255
20.862812795832383 -20.613673988165601 -4.695786052763879 122 91 67 255
20.543223412296783 -19.799436090137547 -4.416833853325812 120 90 66 255
19.927024498800904 -18.846032614925704 -3.861738524637559 116 89 62 255
19.088253272295162 -17.784723175700890 -3.099514874851963 114 87 60 255
18.620077180711121 -16.891298790163646 -2.682395333012039 110 84 57 255
17.484319044404486 -15.679119760627444 -1.643953749592384 107 81 54 255
15.309859343316162 -13.964284772867430 0.361006466137241 101 76 46 255
-4.350346459527401 -2.330088527998981 18.595897206392038 86 60 35 255
-4.302140672236760 -1.596295985729896 18.530328243685148 76 50 27 255
-4.031236216518323 -0.972931988832585 18.257670709515168 60 40 17 255
24.380174777717286 -5.848948506504200 -8.415015400497509 159 122 101 255
25.399034223989645 -5.752394530621956 -9.378351407637155 168 121 101 255
26.641261692437723 -5.786229284508465 -10.548871581622876 163 115 95 255
27.288822063009064 -5.498822171227289 -11.166911217818978 153 109 90 255
27.936564738809494 -5.216053426621883 -11.784939856504138 146 105 83 255
27.914960491080478 -4.561510044717465 -11.781376244764488 137 100 76 255
28.190981469116650 -4.075075074375960 -12.054038387309731 128 95 70 255
28.467095133487931 -3.590536169166214 -12.326673491036956 118 90 61 255
28.668882563697821 -3.065245494078141 -12.530211965147913 107 86 54 255
29.094028813669667 -2.670024706330139 -12.940931230086392 98 77 46 255
29.072682463210384 -2.018658255560013 -12.937194979341740 87 70 38 255
28.530237132059881 -1.062773128340822 -12.449900579143588 80 66 33 255
0.768730066515502 -31.341639505269242 15.630207034719689 193 165 144 255
4.059475409682648 -31.785581969421031 12.518422846848068 192 161 141 255
6.687616174296693 -32.011408413521920 10.029467711759992 203 171 148 255
7.841910496400374 -31.712409747894711 8.924711803322083 209 177 154 255
9.660134035809619 -31.669533593760917 7.197007011770296 204 175 151 255
11.700068425209878 -31.723518436718422 5.261617320247012 204 176 152 255
14.625586258623741 -32.129054015197298 2.495590063878097 209 180 156 255
15.560241538960412 -31.792183073933813 1.598352774947159 203 172 148 255
16.716468111045174 -31.548102597660176 0.493446289238562 203 170 145 255
16.840052110452547 -30.908961467306483 0.357584880336788 202 168 143 255
17.775391033523420 -30.591158653974873 -0.539688870376096 200 165 140 255
17.825373297012305 -29.927860160333623 -0.606324602478452 199 163 137 255
18.908726961500577 -29.680244986838403 -1.642057937778105 203 167 143 255
19.549454763267761 -29.261244490219980 -2.262470379789846 207 169 146 255
20.264190297021230 -28.877325633808653 -2.952111600463269 207 168 146 255
20.462258227164568 -28.285608252032205 -3.157183561256744 203 162 142 255
20.808088699441896 -27.756992463089531 -3.500699255537057 201 156 140 255
21.006311752957856 -27.169090388656286 -3.705755756844269 190 144 128 255
21.426200519585080 -26.676631398381545 -4.118487373706927 177 131 115 255
21.772338697627418 -26.155876971158264 -4.461986011383374 169 124 108 255
21.896930346521458 -25.542389409865777 -4.597787379994259 160 117 100 255
21.799892497199579 -24.833732711758287 -4.525881400231981 152 109 92 255
21.555044940292760 -24.059822065440926 -4.315490335466762 143 102 82 255
21.457980148854460 -23.349517169568671 -4.243541302397631 138 100 79 255
21.360911546478206 -22.638649960783638 -4.171570902696772 134 99 77 255
21.929212366294962 -22.225669771146741 -4.722700192772407 133 98 76 255
22.201917561752879 -21.683250953452884 -4.996879409689001 130 98 75 255
22.474711765763487 -21.142954007336414 -5.271046631758253 129 97 74 255
22.155931639535169 -20.332996183444934 -4.991288693987713 126 95 72 255
22.650732266115028 -19.897491011643240 -5.473142039477722 124 94 70 255
22.331938118270330 -19.086073506741357 -5.193333761597813 121 92 65 255
21.125260928798184 -17.855037291732003 -4.082582989310396 117 90 63 255
20.214285509540275 -16.755494450151787 -3.248745910897497 112 86 59 255
18.785080266668444 -15.402123972631458 -1.930142283264018 107 82 52 255
17.873635230683021 -14.287552127300430 -1.096190566414066 103 77 50 255
-2.457681471006396 -3.005052551546356 17.883979503059777 97 69 45 255
-3.001813010990759 -1.985125647433435 18.372153260106217 88 60 36 255
-3.027705019052803 -1.218013151071034 18.375619539898963 63 42 18 255
25.021734631842065 -5.959741742126411 -8.102270614340057 163 126 105 255
26.186602569990754 -5.945497994907441 -9.207118768046996 170 121 102 255
27.574363653536494 -6.062742577434420 -10.519791491435967 163 116 96 255
28.962487934204773 -6.190066028352419 -11.832481200030884 155 110 91 255
29.831487330378792 -6.036577132087245 -12.660262888499545 147 105 83 255
29.735843986235466 -5.345597491498125 -12.587446558072514 139 98 76 255
29.565973913719887 -4.611704163587191 -12.445309768487306 132 96 72 255
29.173371606986109 -3.749327402227848 -12.095288156066459 121 91 63 255
29.820179338863795 -3.480952479292284 -12.715145160804781 113 87 60 255
30.095883722131560 -3.002599116755746 -12.988575290028933 102 81 50 255
30.668747036326579 -2.698872430089111 -13.539112400298563 93 74 42 255
29.681997189459196 -1.486496180544862 -12.634630811346426 84 70 37 255
1.467819696057518 -31.410350528858018 16.016305248856838 196 168 147 255
4.383179696598972 -31.721856445173998 13.242034892010423 196 165 145 255
6.784474115497716 -31.866411987438795 10.953667451394836 206 174 151 255
8.377285303004840 -31.729444206666102 9.428925087257170 208 176 153 255
9.896952470274698 -31.576951300509037 7.973575858802974 204 176 152 255
12.741354497050168 -31.935609540158509 5.268502948430154 205 175 151 255
14.850660680265833 -32.035082569751268 3.257647839132289 206 176 150 255
16.077405943476435 -31.810650075928734 2.079898573509070 202 170 145 255
17.083672891152219 -31.509739752565096 1.110417948048280 201 169 143 255
17.133264758536967 -30.841477909253712 1.043528038078705 197 163 136 255
17.845472211973600 -30.435827529884634 0.351757745975846 196 160 134 255
18.484247536749990 -30.006238445563980 -0.270586516808436 197 161 135 255
19.344119840098244 -29.670512055295575 -1.101238409459285 202 166 142 255
20.277875913094221 -29.371226138518352 -2.001335993070143 206 170 146 255
20.917254801331040 -28.958213975650423 -2.623700489842122 206 168 145 255
21.041144020830643 -28.336835572128592 -2.760007439960162 201 163 142 255
21.386112365178064 -27.808760201127342 -3.104618204918637 201 157 140 255
21.731186684481202 -27.283399675726812 -3.449223437314259 193 147 131 255
22.223756947437948 -26.823298698501674 -3.932703428264432 182 136 120 255
22.421654070393629 -26.240803162007978 -4.138415355516827 172 126 110 255
22.324767164029822 -25.532666793972155 -4.066346187868135 165 119 103 255
22.375321340247979 -24.888154013009981 -4.133143943685070 158 112 96 255
22.352176691021015 -24.211814390274910 -4.130480587772382 149 108 88 255
22.697752515544437 -23.698584267855509 -4.475026360393201 147 106 86 255
22.748434352558320 -23.056450685117767 -4.541776092192777 140 103 81 255
23.020428753454070 -22.514325776071644 -4.816851119083850 137 102 80 255
23.144974942924051 -21.907456408687835 -4.953016051587127 135 102 79 255
23.195795855184571 -21.267921847287326 -5.019713794628473 137 102 82 255
23.320438540416433 -20.662857859665593 -5.155842751798303 134 100 78 255
24.035505765931930 -20.332793009980634 -5.847571621216900 131 99 76 255
24.012717406235566 -19.662909483125333 -5.844765694158326 126 96 71 255
23.030353564499819 -18.540734007603902 -4.939026748061025 121 94 67 255
21.900120247045834 -17.341346727650318 -3.894321942810052 117 90 63 255
21.286461274618773 -16.381064143794660 -3.335755030342256 115 88 59 255
20.746515824370277 -15.451969153960704 -2.846601322555841 110 83 56 255
20.206460337062595 -14.518997127904356 -2.357404252674996 107 80 53 255
-0.818814626949631 -2.810976308063729 17.375759128993991 99 72 45 255
-2.026574290748385 -1.463174171056210 18.490585432343806 85 64 38 255
23.686447913275657 -5.650208222226780 -5.918287984179301 158 128 104 255
26.476333407342167 -6.515763271809774 -8.555094210131301 165 127 106 255
27.934656923894295 -6.668321819416718 -9.941282468415210 172 125 105 255
28.801171133226035 -6.503378147726849 -10.771616927030635 169 122 102 255
30.186154073315635 -6.633726025825709 -12.088345726664244 159 112 94 255
31.127249230454453 -6.524791618839316 -12.988168774453385 152 108 86 255
31.179989390645204 -5.920685549975175 -13.054128733558571 144 102 80 255
31.010590490229589 -5.190542411563271 -12.911581213098771 136 98 75 255
30.841178591192033 -4.459031340690643 -12.768986340849040 127 96 68 255
30.893987258520895 -3.854087070368877 -12.834822375348551 118 92 65 255
31.317270574297964 -3.463992727366033 -13.248091648696601 108 85 54 255
31.444302026995160 -2.904086488074626 -13.383351624782506 98 78 47 255
30.756242952418546 -1.866824913744125 -12.754098490051149 88 73 40 255
30.142160925069390 -0.868062331440484 -12.194270812972150 82 69 37 255
3.999760727460284 -32.139509822247490 14.660212758911342 198 170 149 255
5.367828729955221 -31.898336851612910 13.339732688627009 197 166 146 255
6.883012062869540 -31.721430837950905 11.879951544394174 203 171 148 255
9.205826670599407 -31.855441892756971 9.654123821506232 206 174 151 255
11.529249625479963 -32.006826176389509 7.428244845827578 203 174 150 255
13.559668508996879 -32.064511236812308 5.480873698590869 202 172 146 255
15.296971255513625 -32.025247665549344 3.812022096614641 204 173 148 255
16.667624124127428 -31.857479636551190 2.491343461130839 200 168 143 255
17.451193990653394 -31.471416483082379 1.727780355449312 199 165 138 255
17.353695591210823 -30.745178278765962 1.799930685436948 196 160 134 255
18.137587038266190 -30.367857155209862 1.036360985419748 194 158 132 255
18.701318373535088 -29.908357682490745 0.481719405140467 196 159 133 255
19.779489405800376 -29.660823300451213 -0.560449865065948 201 163 140 255
20.637519236890682 -29.331641079064823 -1.393692165950227 206 168 145 255
21.275324275957161 -28.918374781378034 -2.017998179030855 207 169 146 255
21.398836085890196 -28.296714885788845 -2.154760469885730 204 166 145 255
21.816420523261542 -27.799107300004806 -2.570113057576691 202 157 141 255
22.234130030354436 -27.304754127125875 -2.985461454915253 195 149 133 255
22.872537037523358 -26.907486446814715 -3.609762843452131 184 138 122 255
23.069925056546936 -26.325790983068060 -3.816143752225884 178 131 115 255
23.267383135797758 -25.745714139828095 -4.022512827595534 172 125 109 255
23.317807780243612 -25.103072705396514 -4.089558193204567 164 118 101 255
23.441827078783973 -24.493318091945099 -4.226243150637060 158 113 94 255
23.786609777964486 -23.982513743842290 -4.571885852128986 151 108 89 255
23.984341255325290 -23.408588487248679 -4.778201101243525 146 105 85 255
24.034966303724872 -22.769916007626421 -4.845181940088253 143 106 85 255
24.159223993028547 -22.165188767345384 -4.981804345355414 141 106 84 255
24.283534962973448 -21.561501642455568 -5.118408894562947 145 107 88 255
24.555132461738992 -21.026808852954275 -5.394321435792818 141 104 85 255
24.900446264649275 -20.528475485149698 -5.739883748548237 139 104 83 255
24.951329627058385 -19.894703954434874 -5.806771441178938 134 101 78 255
24.560384205290518 -19.052663750819150 -5.455637262346357 129 98 75 255
23.801098200187283 -18.032544380922246 -4.756127743661466 126 95 70 255
23.188971581963244 -17.077603519672962 -4.195906924515015 119 91 62 255
22.871403149554624 -16.260659065249612 -3.914320905918117 115 87 60 255
22.332737719131188 -15.333843356933457 -3.423684339704039 110 81 55 255
21.572893254689149 -14.294715109093303 -2.723985743362732 105 76 50 255
-1.053616038694798 -0.944871061430106 18.606017989251768 94 74 48 255
27.704646375582257 -6.950472757899419 -8.804776154027536 169 127 107 255
29.233501069182722 -7.146805946555801 -10.264911390942729 173 127 106 255
29.876516868690999 -6.862064192407090 -10.888715009106278 175 127 108 255
31.553790324473141 -7.160061077964528 -12.488269172398219 164 117 99 255
31.754074054329465 -6.639026269546292 -12.693871405678323 156 111 90 255
32.102195560162698 -6.203034739609322 -13.038842291973197 150 106 85 255
32.302651790053091 -5.685277470605214 -13.244382542230511 142 101 79 255
32.724880103842082 -5.296015988863587 -13.658999835030443 131 97 70 255
32.334261217181790 -4.440552376465263 -13.306837424673461 120 92 65 255
32.017493272049251 -3.624991744548069 -13.024322140009190 111 86 56 255
31.774603426059230 -2.850139976785385 -12.811457675901011 100 79 46 255
31.457750980546848 -2.029862102951327 -12.528828342329035 91 74 41 255
30.919023978745258 -1.075840723166891 -12.037005603523340 84 69 36 255
4.912015395834430 -32.287723856545824 14.828825400348762 199 171 149 255
5.618105109918673 -31.808033079026856 14.132898501358198 197 165 143 255
6.397596279207960 -31.360789897051561 13.367112614664990 201 169 146 255
9.446920890796662 -31.763690773948142 10.435960789200124 203 171 147 255
12.277373568910093 -32.106871170973420 7.714293598559323 200 170 146 255
14.156548417581121 -32.110188609339659 5.900639955173432 200 169 143 255
15.303805331090274 -31.847217502301191 4.785477886576018 202 170 145 255
17.476884388761903 -31.989303774331788 2.692341941828829 198 167 139 255
18.038811270735010 -31.518875129666256 2.135968059760785 199 165 138 255
18.381090764483787 -30.966265354297008 1.789158769770296 197 161 135 255
18.503639140840875 -30.329038117441129 1.651923223025875 193 157 131 255
18.992678080486399 -29.839890073801030 1.165408539121159 196 157 131 255
19.848347649741328 -29.502869159431825 0.329600694100890 199 159 136 255
20.997480963597127 -29.292090946158240 -0.785654788620576 203 164 141 255
21.560396600738471 -28.848367631180182 -1.342040891411528 206 168 145 255
21.830173000147425 -28.287099708383749 -1.618980279888717 206 168 147 255
22.393376413575595 -27.850979138260698 -2.175362058470256 205 160 144 255
22.883398614224319 -27.388180381274381 -2.661879258312695 198 152 137 255
23.373565204014653 -26.929170607826279 -3.148393099303206 190 144 129 255
23.717151255791720 -26.410839489829712 -3.495171654485119 184 136 122 255
24.134216812479423 -25.927029494250220 -3.911808559959894 180 132 118 255
24.478027694599348 -25.414360060501821 -4.258570830635819 175 128 112 255
24.528385230006108 -24.774926613560538 -4.325848365157213 167 120 102 255
24.872375501829055 -24.266547277849881 -4.672587093887728 159 114 95 255
24.922838857635895 -23.629232131697762 -4.739831602594251 151 110 90 255
24.899918919465875 -22.959254153901114 -4.737184594724937 151 110 90 255
25.023870289175989 -22.356127915207992 -4.874261475402733 149 111 90 255
25.147875496448023 -21.754041146253897 -5.011319778860383 147 109 90 255
25.492272174326217 -21.254939923352794 -5.357984703721314 144 106 87 255
25.763323482616613 -20.724233558696696 -5.634760130267978 142 105 86 255
26.034466201852979 -20.195629943645059 -5.911519692915050 139 104 82 255
25.864860059289754 -19.460354831979316 -5.768991211560461 135 100 78 255
25.401305006290954 -18.583666774727092 -5.346913197279235 131 99 76 255
24.864166532801789 -17.668321141589331 -4.854913833913031 126 96 70 255
24.473920439614659 -16.820316771995181 -4.502634924386371 123 93 65 255
24.010091785147466 -15.933640194402457 -4.080432920343100 118 88 60 255
23.766730689449616 -15.152058899986514 -3.867841015254271 113 83 55 255
23.155692347927754 -14.186662975546568 -3.305784322129341 110 80 52 255
0.137733958330301 -0.541887749543932 18.508789636552166 94 74 47 255
14.464434345018191 -0.829582925131078 4.704873947054665 46 50 16 255
26.225743074595073 -6.553726863078325 -6.476085265068463 155 118 97 255
28.487215030935118 -7.142385552174076 -8.639693392523355 171 127 108 255
29.791511271018607 -7.217858494893349 -9.894564119441924 175 130 109 255
30.506693779668325 -6.974674022652508 -10.590181945347553 175 130 110 255
32.180072570707523 -7.273536144326783 -12.194609947310113 167 120 102 255
32.379874842313313 -6.753278824903958 -12.400845802855997 159 114 93 255
32.800884291810462 -6.359913815970899 -12.816785392219288 153 108 87 255
33.000869971365063 -5.843205302562339 -13.022958316108344 144 103 80 255
33.790754719842852 -5.666930747367360 -13.788420083980128 135 99 73 255
33.548549969882373 -4.899155980110393 -13.575033781260487 123 92 64 255
33.232571380720373 -4.086518896224547 -13.291674502818694 115 87 57 255
32.842792558222271 -3.228190481774917 -12.938336532779942 102 78 47 255
32.452950435058398 -2.366815986148282 -12.584935759748333 94 74 41 255
31.841728971267912 -1.371138473147411 -12.021701000968193 85 69 36 255
3.047638545181542 -31.431989874668744 17.657116513456771 199 172 150 255
5.066113657803982 -31.424140069399982 15.697963314837637 199 166 144 255
6.719958477544424 -31.296697180308669 14.089076029407067 202 168 143 255
9.323797657183775 -31.535800741159292 11.569343922376135 201 169 144 255
12.512737180868299 -32.014469194283834 8.489048491277373 200 168 145 255
14.752715715781221 -32.155929061521348 6.319518860709564 203 169 144 255
15.897226955165905 -31.893544017399620 5.200921926425337 200 168 143 255
17.480528807424690 -31.809751775759850 3.661909662830737 197 165 140 255
18.333360997800582 -31.452055275976647 2.823539869659243 196 162 137 255
18.967133716229142 -31.014327558153482 2.195364558412535 196 160 136 255
19.235547142235959 -30.435881671505626 1.917530791025968 194 157 133 255
19.650282635129912 -29.918427668223259 1.499563420187286 198 158 133 255
20.430776353251190 -29.552578571371598 0.731244379546894 197 157 132 255
21.430896472692780 -29.282510654207655 -0.247296465307585 200 160 135 255
21.992419526508542 -28.838797880219857 -0.805411397996693 206 165 143 255
22.480950943604086 -28.368952567582895 -1.293451791355437 205 164 144 255
23.262282479805748 -28.025889880612979 -2.061788508035534 202 159 141 255
23.604793993384362 -27.502684200648403 -2.409674453109318 199 154 138 255
24.166960731400792 -27.076045363323274 -2.967782891774277 193 147 131 255
24.436524069959376 -26.527504181603078 -3.245577346745392 187 141 125 255
24.998981297358227 -26.108426794598060 -3.803676177527507 185 138 122 255
25.049130245464681 -25.468985667955650 -3.871212234168894 182 135 117 255
25.245752896641420 -24.894804480090471 -4.078891774343617 173 127 108 255
25.588905132503669 -24.387498694614308 -4.426720415271035 166 121 101 255
25.858928363057657 -23.849962362372750 -4.704454820949536 160 116 96 255
25.909300293280978 -23.215024941868535 -4.771923146273963 158 116 96 255
26.106221083580465 -22.647486713802678 -4.979540958180195 156 114 92 255
26.156683006205299 -22.014092353363395 -5.046969205512482 151 110 90 255
26.500281465633350 -21.517142188840339 -5.394724631017453 149 107 87 255
26.770705861570690 -20.988582422579654 -5.672377742546530 145 107 86 255
27.114515798638251 -20.496653271686412 -6.020103722730880 142 107 84 255
27.091922730731255 -19.833367584577729 -6.017361617659731 138 103 81 255
26.776100795464885 -19.029733686012065 -5.734225744625917 136 102 77 255
26.533545608900170 -18.259197657139282 -5.521146222670154 129 99 71 255
26.144294208696948 -17.415734461312127 -5.167843547238590 125 95 67 255
25.828310358280191 -16.605354978901175 -4.884595571676357 121 91 63 255
25.952365215755918 -16.009616218922801 -5.021886859066257 117 87 59 255
25.783045992382142 -15.269168597489596 -4.878762229956521 114 84 56 255
24.806674452293606 -14.123916999090298 -3.964515273773969 107 81 54 255
23.096325369222939 -12.601886392351417 -2.349205174029350 99 73 47 255
19.098546561187305 -3.095137732817534 1.262384880944893 54 55 22 255
27.232302159403815 -6.864882412393911 -6.516896924282804 143 103 82 255
29.268075148270611 -7.334338504735484 -8.476732968051550 167 123 104 255
30.348837176011415 -7.288923767178375 -9.525066721979329 174 132 110 255
31.282869960697553 -7.169362339253453 -10.433161718461037 178 134 113 255
32.658288210932568 -7.304427507580513 -11.761980217599984 173 126 108 255
33.078181858794864 -6.909121380077949 -12.179214547359749 164 117 97 255
33.498208481485108 -6.516817202199135 -12.596423159129841 154 107 87 255
33.844820158249490 -6.085390372998447 -12.943479743659083 146 101 80 255
34.191547084118469 -5.656406136440907 -13.290506650444144 136 99 73 255
34.170559945266433 -5.016547186873566 -13.286858632820355 126 95 67 255
34.149599042310484 -4.376389828623942 -13.283164204861379 118 89 59 255
34.275832091690290 -3.822338244850044 -13.419686791415700 105 80 49 255
33.813386562442020 -2.921220473856508 -12.995097983254482 95 74 41 255
33.350861403423721 -2.016499080657155 -12.570440763273240 87 68 36 255
32.667425936596459 -0.976083457251022 -11.935302874198072 77 64 31 255
3.525159467662348 -31.421702007594007 18.250247078523046 200 172 150 255
4.446023207588127 -31.013498880373390 17.339203512181427 202 169 146 255
7.042972086544410 -31.232640446295648 14.811846242589070 198 164 139 255
10.296451621561005 -31.716457224276468 11.651960783496065 197 165 140 255
13.113500703893692 -32.059630330841529 8.913658675195705 196 164 141 255
14.837937549258555 -32.007287691538792 7.229446139139213 199 165 140 255
15.833838902789438 -31.687499975279096 6.247976815248848 197 165 140 255
17.267468746970707 -31.545245836574082 4.844823115545637 195 163 138 255
18.118137951456958 -31.185145831692850 4.003880376350907 194 160 135 255
19.187827517400450 -30.918155195527930 2.952087670639116 192 156 132 255
19.601376394388609 -30.397153978046745 2.532812208885787 194 156 133 255
20.379782845985005 -30.026429498273586 1.762128915301645 198 158 133 255
21.085452431570957 -29.632014087038229 1.061723045344678 195 155 130 255
21.937252720459327 -29.302910692056656 0.220745576613410 198 158 133 255
22.424418657899764 -28.829268204077721 -0.268813295713841 203 162 140 255
22.838745680646184 -28.328948433958928 -0.688082803774904 204 163 143 255
23.983130130905835 -28.139384738941430 -1.810216665391835 203 160 141 255
24.470805822533663 -27.679295993769642 -2.299771895952148 203 159 140 255
24.812603572397165 -27.160414579560523 -2.648744381028962 199 154 135 255
24.862425783230805 -26.517994116035325 -2.716547684436193 195 150 131 255
25.423494513540959 -26.098922447016946 -3.276370049840637 190 143 125 255
25.692569618679329 -25.555761208306734 -3.555020131236404 186 140 121 255
25.815637663048619 -24.950004884584885 -3.693071250786744 179 134 115 255
26.157933955223456 -24.443231485992172 -4.041986914390719 172 127 106 255
26.500339965175698 -23.939133994024658 -4.390890593080542 167 122 101 255
26.769779259002490 -23.404525792766549 -4.669485616697870 164 119 98 255
26.966224306957912 -22.838590815902293 -4.877768279666213 161 116 93 255
27.016552464477456 -22.206791244956975 -4.945436556050538 154 109 88 255
27.359334921416632 -21.711450834054475 -5.294279432607084 151 108 86 255
27.702228245627566 -21.218758373100371 -5.643107600164768 147 106 84 255
28.045232646660082 -20.728708090795081 -5.991920530810120 143 105 82 255
27.949556007345620 -20.032478340124499 -5.918901870587803 140 104 80 255
28.000162908994298 -19.405780993577011 -5.986460985857548 136 103 77 255
28.123958422546139 -18.814888355414013 -6.124299049879653 134 103 74 255
27.882012538670295 -18.046922788043275 -5.910582612583340 132 101 72 255
27.420525468231716 -17.169589617634472 -5.485908077844556 129 98 69 255
27.544373032277463 -16.578148444440899 -5.623656084808033 127 96 67 255
27.595091174528505 -15.951257591933583 -5.691068158498325 123 91 63 255
27.353063746240935 -15.178011386378188 -5.477207856950997 116 87 59 255
26.159332124785578 -13.922458300083576 -4.349252484298574 112 81 54 255
25.697476145575649 -13.030485794135785 -3.924356406205419 105 76 48 255
21.660653047084992 -4.242656542128515 -0.235136770491124 52 52 17 255
28.382757537513214 -7.256541744418911 -6.701758352691542 135 94 72 255
30.340520858705503 -7.688291685178143 -8.597210635037669 170 122 102 255
31.565471483017745 -7.726857908198383 -9.789392751892564 179 134 111 255
32.350704919014333 -7.528221680277440 -10.559589498427471 182 136 113 255
33.062811597442334 -7.294013345040511 -11.259441323341861 176 128 107 255
33.555045593892800 -6.940256456710671 -11.748273982980550 166 120 98 255
34.414273637666923 -6.799292477053697 -12.588764205099864 159 112 92 255
34.833478860286760 -6.411858525208316 -13.007218282273271 153 106 86 255
34.885886513208987 -5.815441941409745 -13.073947779085046 141 99 77 255
35.011734269395333 -5.261947374184885 -13.210974405156151 133 97 71 255
35.064240790261351 -4.666305150318905 -13.277617133870422 122 88 61 255
35.630684253454945 -4.373381126094912 -13.836623287921697 107 80 51 255
34.949124197623263 -3.345268008122247 -13.199728766262126 98 73 43 255
34.414293978216705 -2.399428818972012 -12.703449442942144 89 67 36 255
33.805928237830926 -1.405396370681785 -12.136746780365485 80 63 32 255
33.711589704964581 -0.716767259157891 -12.062420129271544 72 60 28 255
4.101573786855710 -32.192975480105943 18.770391156704818 198 175 156 255
4.802042583518357 -31.702191471930249 18.068002940935656 203 174 152 255
5.502709964724829 -31.216898675546545 17.365606347369891 204 169 147 255
8.529696398132273 -31.600145288686207 14.407642655667132 194 160 135 255
12.066387623331082 -32.196862306110873 10.956204904207880 195 161 136 255
13.349999309830508 -31.967298247700526 9.689818969759784 194 159 137 255
14.343082859735347 -31.636404667963049 8.705367871041886 197 163 138 255
15.918271448382654 -31.537553186098705 7.156985088598930 195 163 138 255
17.493884872602365 -31.450649657705256 5.608575078232434 193 161 136 255
18.415195322828708 -31.118358924313952 4.694562904559064 195 161 136 255
19.191248354777258 -30.735416441248191 3.921525798288911 189 153 129 255
19.894754255611446 -30.329328692255203 3.218976272566493 190 152 129 255
20.452909543771881 -29.869877444367788 2.657411999988000 194 154 129 255
21.375153118979824 -29.563147879629909 1.743371662160229 194 154 129 255
22.079270869654437 -29.173642324050547 1.040811942042609 196 156 131 255
22.710786203168283 -28.759351043186882 0.408747318883485 200 160 135 255
23.269671314470429 -28.319458663676741 -0.152818875582227 203 162 140 255
24.120009964772038 -28.006918057604992 -0.996379052893445 203 160 141 255
24.970587696079235 -27.700870834807986 -1.839943857497246 203 159 140 255
25.530040879617957 -27.276136233010220 -2.401508473152120 198 153 134 255
25.798257956415370 -26.729467509491641 -2.681060677932521 197 152 133 255
26.212284805763574 -26.248623197007745 -3.101606569668348 192 145 127 255
26.480702093938419 -25.706801543601202 -3.381135239179230 192 146 127 255
26.676332455047941 -25.134750949076945 -3.590145193290567 188 143 124 255
26.872035722808135 -24.564300308495348 -3.799138914993250 179 134 113 255
27.286502226825206 -24.094188804100241 -4.219637248883316 176 131 110 255
27.628191847563414 -23.594102420626783 -4.569616192765636 167 122 101 255
27.897077021404726 -23.063225110222177 -4.849072083959527 161 116 93 255
27.947281311117791 -22.433289714873951 -4.916980607769204 157 112 91 255
28.216323979793856 -21.905832687195982 -5.196399763532781 152 109 87 255
28.485459654961574 -21.380482510097650 -5.475801265480982 148 106 84 255
28.681736416794621 -20.822697089733268 -5.684671002111884 145 105 83 255
28.732165464659403 -20.196852996861267 -5.752490451103085 142 104 81 255
28.928574169849639 -19.641629795920679 -5.961315342450632 140 104 80 255
29.343997856696575 -19.193990712352459 -6.381668636384831 136 105 77 255
29.248629617974387 -18.500186047267007 -6.308379764853470 133 102 74 255
28.861271261143116 -17.662194837220383 -5.952981575370842 133 102 74 255
28.765871853800775 -16.966033574013522 -5.879622019883215 131 100 72 255
28.889525355576296 -16.378511945504357 -6.017792780604509 128 97 69 255
29.159288874975914 -15.865358248161797 -6.296981089487986 123 92 64 255
28.406660279537107 -14.836662768502848 -5.588811024191187 120 87 60 255
28.384311215612115 -14.174836503274989 -5.585833815175334 115 82 55 255
27.485347950365821 -13.062732096433180 -4.736505434495541 107 78 49 255
26.586189135923519 -11.943984918681295 -3.887111466084605 101 76 46 255
16.021758751889791 -0.915848883097837 6.155316047186972 40 42 6 255
29.164078637429327 -7.447168555896482 -6.538164255972958 122 84 61 255
31.483046356364412 -8.082812266431702 -8.792046657422503 157 110 90 255
33.070998422144754 -8.327946100694803 -10.340552665683305 179 132 109 255
33.634980619369742 -8.010265532348029 -10.901464579284976 181 134 111 255
33.979593788318596 -7.572758548693812 -11.250719345681716 179 131 109 255
34.324323758408013 -7.137716342243266 -11.599943537660522 172 126 103 255
35.254753178804094 -7.039962879897658 -12.513522770615651 164 117 97 255
35.965822596212632 -6.822635655050931 -13.215445380418316 156 110 89 255
35.652078678857038 -6.016895630933362 -12.929632727832001 146 102 81 255
35.631189789289067 -5.379370713720576 -12.925971092830224 135 99 73 255
35.830029814983590 -4.870376999938145 -13.133923928717280 125 91 64 255
36.321921636832855 -4.535575118305928 -13.624060946262688 112 81 53 255
36.081453411605565 -3.769383672109413 -13.408592916203077 101 76 46 255
35.914221223601146 -3.044988205596127 -13.263623024287511 93 70 39 255
35.600444850650831 -2.231090959741991 -12.977472083645409 84 65 35 255
35.213349498710443 -1.370349266503567 -12.620691649680793 76 61 30 255
5.013837434265071 -32.339782150595298 18.939080256460642 198 175 155 255
6.582639897398423 -32.167844735957942 17.386163476176876 205 175 154 255
7.499268935478227 -31.767554675715203 16.469496966705577 205 169 147 255
10.809324670160123 -32.264516135431407 13.219766458062765 196 162 137 255
13.540019111419156 -32.568469279746296 10.535561386026586 193 159 134 255
13.950187281916584 -32.012564521724855 10.113709955790597 192 157 135 255
14.723222786700632 -31.598892656984830 9.338353905640787 194 160 135 255
16.222056382972028 -31.471780562076376 7.855970150342472 193 161 136 255
17.648729525221029 -31.327749695966631 6.444264916429916 193 161 136 255
18.350024012231955 -30.908620999315900 5.739576014072270 192 158 133 255
18.906347152999075 -30.437211162323791 5.176292842711746 190 154 130 255
19.390238392022468 -29.941030477037714 4.683715705244651 188 150 127 255
20.237298649142190 -29.595702895172323 3.837608313168829 192 152 127 255
21.302440274857219 -29.345923108681191 2.779372401764078 193 153 128 255
22.077383100674297 -28.984489418502989 2.003959211838747 195 155 129 255
22.779913633877186 -28.598805996246412 1.299252208272549 197 157 131 255
23.192077456745892 -28.096595672404888 0.877385683026347 202 162 137 255
24.040278015481050 -27.782185648467276 0.031258669660076 203 160 141 255
25.034040066458431 -27.536323528031105 -0.956296567008138 204 160 141 255
25.737398615202807 -27.172838934754338 -1.661006143518847 202 157 138 255
26.295600955851711 -26.751620725307461 -2.224286377646848 201 156 137 255
26.781280204090052 -26.302880927378112 -2.716846095771245 197 150 132 255
27.267106760224777 -25.857912128380178 -3.209397997917137 193 147 129 255
27.462251237861608 -25.287195776016134 -3.419072904834678 190 145 126 255
27.657469148038842 -24.718078627031019 -3.628730891826592 186 141 120 255
27.780034816032639 -24.117636573501557 -3.767652142867263 181 136 115 255
28.120861685790544 -23.617809156547963 -4.118713868808044 172 127 106 255
28.534544443955639 -23.154104456029373 -4.540482246402661 164 119 96 255
29.093864871807227 -22.761056980905082 -5.103682194772688 158 113 92 255
29.362300584304052 -22.236285053466574 -5.383979259185224 154 109 88 255
29.558057614192421 -21.679349543787779 -5.593533480736852 150 106 85 255
29.608327021738859 -21.054893554535937 -5.661615480517156 148 106 84 255
29.585844447787935 -20.396099661679202 -5.658944700813464 145 105 82 255
29.854582240154002 -19.877554941896889 -5.939155851423806 143 105 81 255
29.977796389040407 -19.290390058878700 -6.077888450977611 139 105 78 255
30.028250282667187 -18.668598016311165 -6.145865115556347 135 102 75 255
29.714606507042561 -17.867792312221937 -5.860157173721319 133 102 74 255
29.692258095217426 -17.209372757481532 -5.857337257542298 132 101 73 255
30.034161461985406 -16.733011806901558 -6.208151994922815 131 100 72 255
30.594744298868164 -16.369353786258927 -6.771149098771446 127 98 68 255
30.718311345733753 -15.788057822225710 -6.909716086131880 124 93 64 255
30.404698120080837 -14.984245273605168 -6.623830683839770 122 88 60 255
29.216445581613101 -13.727939785871314 -5.489040281284105 117 86 57 255
28.538166266900021 -12.727332217892368 -4.849350524929321 111 81 51 255
27.495243727460462 -11.531408740196980 -3.855896681553787 104 78 50 255
27.545738563764047 -10.902667421813277 -3.923500022799857 97 75 48 255
28.776118873216575 -6.994196633958765 -5.244669068047443 114 82 57 255
31.673388092457031 -7.950927396469154 -8.071336230661501 137 94 72 255
33.622519021053876 -8.399139330685884 -9.978266195071541 171 123 101 255
34.258158400502310 -8.123023605060055 -10.611625043188553 180 132 110 255
35.113015075693113 -7.975497342124797 -11.457236038970905 182 134 112 255
35.310950969524356 -7.459966818526482 -11.666007629444465 179 133 110 255
36.385295180993182 -7.448106132080270 -12.723863771931718 169 123 101 255
36.437430320694858 -6.854310801572154 -12.791053135831504 158 112 92 255
36.343521827409575 -6.175973781860776 -12.716670406996542 150 105 84 255
36.322678456852799 -5.539477336290119 -12.713000008549841 139 102 76 255
36.740241858063257 -5.160369371229265 -13.133878157847789 129 94 67 255
37.157941663807094 -4.784224456213892 -13.554724527242939 115 84 56 255
36.918051736325936 -4.019592071580362 -13.338611124101078 105 78 49 255
36.970496973346883 -3.428059909385595 -13.405520656452268 98 74 44 255
36.511301470122021 -2.528456125823041 -12.976968490776670 88 67 38 255
35.905816105805854 -1.536596855236112 -12.406791837099746 80 63 33 255
35.446452859910664 -0.629174243573800 -11.978084993219170 69 58 27 255
2.768512731531359 -32.099203784099757 22.222738477780098 181 165 149 255
5.128480168916354 -32.198852064327241 19.885164059017370 200 176 157 255
6.838105263949871 -32.078504068738127 18.185724663993994 208 177 156 255
8.114153676138216 -31.810973771821878 16.911713896385749 206 170 148 255
10.982239833625698 -32.146763741363799 14.077644785432909 194 158 134 255
12.838067168632620 -32.122782998857900 12.236281332378326 187 153 129 255
14.115449852761117 -31.892780685836513 10.962184897302734 190 155 133 255
15.537938737294866 -31.728150643161229 9.546242552500189 190 156 131 255
16.526493982490422 -31.406037328750770 8.555763873129877 189 157 132 255
17.804911053270558 -31.204863495742856 7.281613317380106 190 158 133 255
18.576838636321639 -30.813272178758538 6.503857484157010 191 157 132 255
19.131740658816483 -30.341062386650535 5.938847682408095 188 152 128 255
19.541957533857300 -29.814937329911672 5.515674652250198 184 147 123 255
20.242037136343697 -29.409732483193295 4.808831759382542 192 152 127 255
21.304535530068591 -29.158366003133906 3.747388959172014 194 154 129 255
22.222424439344422 -28.855231465000017 2.827777186415517 194 154 128 255
22.850723728882940 -28.438261147930163 2.191845449791032 194 154 128 255
23.261792761766429 -27.934698974535664 1.768682914381287 198 158 132 255
23.817951447288664 -27.495914233176762 1.203681537620241 200 157 138 255
25.026686747141554 -27.340742130796627 0.000365726662181 203 158 139 255
25.800759447404459 -27.006949960976172 -0.777410195949244 202 157 138 255
26.792580501335266 -26.773814466050368 -1.767965042229719 201 156 137 255
27.277053248608667 -26.325344063861962 -2.262034655894979 201 154 136 255
27.761673899831521 -25.880643942421329 -2.756095680487789 195 149 131 255
28.173906001207058 -25.407326782719366 -3.179218368995151 192 147 128 255
28.731359816695459 -25.002533822073971 -3.744189880690897 189 144 123 255
28.926204462740344 -24.437423194378184 -3.954497066084826 188 143 122 255
29.121123646276459 -23.873900189583281 -4.164785422755642 180 135 114 255
29.533839122048221 -23.412348192816651 -4.587854203286383 173 128 105 255
29.946685323426664 -22.953994118786468 -5.010909152268624 166 119 99 255
30.287070134156409 -22.464828946833208 -5.363014343972708 160 114 93 255
30.409762852785889 -21.875488655791528 -5.502293134094970 155 110 89 255
30.677734697399046 -21.356255182525103 -5.783422941118630 150 107 85 255
30.800561134032307 -20.769486786858025 -5.922655132488018 146 104 82 255
30.996074930576384 -20.218809735918569 -6.132801680967191 144 104 81 255
30.828473066665396 -19.492897665741893 -5.988220211169789 141 104 78 255
30.878799351410777 -18.872693094420981 -6.056428924653829 137 101 75 255
30.856509378878997 -18.217038874520682 -6.053664815768570 136 102 75 255
31.197572412889258 -17.742116907154141 -6.405589275303385 136 102 75 255
31.466074914338350 -17.233355339101990 -6.686546473078266 133 102 74 255
31.807358448065884 -16.763351780326417 -7.038425528154619 130 100 72 255
31.857982813051080 -16.148019022286249 -7.106490389241628 127 97 69 255
31.399730257804407 -15.272354192773506 -6.677878910939114 126 95 67 255
30.141561752882524 -13.980583618395912 -5.468763627874353 122 91 63 255
29.901201511575977 -13.208533168852611 -5.252889667825428 118 87 59 255
30.242652654409937 -12.739199192610869 -5.604591777255592 113 84 56 255
30.656959660081810 -12.310747282654717 -6.027221446927484 105 79 52 255
29.398190489021431 -10.997492858909851 -4.817854608187275 102 76 49 255
27.338807230903257 -9.247221457268452 -2.827879955531841 103 75 49 255
31.646316684045587 -7.697499608215409 -7.136461540317299 120 80 57 255
33.736431987937522 -8.225691505121176 -9.191030956949390 150 104 81 255
34.734652671687542 -8.153704112939678 -10.181121925840870 177 130 107 255
35.587476360709076 -8.006444087299045 -11.029268424656067 184 136 113 255
36.222001456509304 -7.740683895304954 -11.664490805004590 183 137 113 255
36.929573560355152 -7.521420463341727 -12.370664087059765 175 129 106 255
36.835833263709674 -6.843842950181696 -12.296107856675832 161 115 92 255
36.887853677333112 -6.250254406863064 -12.363449204362155 155 111 89 255
37.085688693574042 -5.742279834128297 -12.572696658833905 141 102 77 255
37.720961150037681 -5.493356073673780 -13.207772849503613 132 96 70 255
37.846116158125568 -4.946454202043441 -13.345965208661738 120 86 59 255
37.898427525890810 -4.356826637596697 -13.413129277229871 108 79 51 255
38.096625655159329 -3.854958874277628 -13.622209481837302 104 79 49 255
38.003197383637058 -3.178213112779545 -13.547304596628067 90 69 39 255
37.618036878331850 -2.323300165172668 -13.188393323298101 79 63 33 255
37.013984063704100 -1.331518342902854 -12.616442320810449 72 62 31 255
2.818405309972093 -31.933632412568826 23.249056146250780 176 158 144 255
5.244794694323673 -32.057935226324702 20.833322112887572 204 179 162 255
6.445122563850077 -31.751225868549852 19.626604505158497 211 175 159 255
8.150966163367343 -31.640767834686571 17.922012897396968 206 170 151 255
10.001631117703084 -31.597327899824535 16.075145475591938 189 157 134 255
14.018436676491177 -32.385569906844950 12.094527294689982 184 149 127 255
15.942585971710741 -32.406019401989141 10.176444569599255 191 156 134 255
17.217395206438937 -32.190997416960514 8.898458993614383 189 155 128 255
17.698177948037227 -31.677074678763674 8.402847279265814 190 154 128 255
17.962428773659269 -31.081990322332189 8.120619467391833 187 152 126 255
18.371238397210419 -30.546323576386314 7.696142712444839 188 152 126 255
19.213641126219528 -30.187185425332572 6.844895778964144 180 143 118 255
20.128537369051941 -29.863717006844766 5.922513471839324 181 142 118 255
21.115955492218433 -29.576724109574386 4.928993600982636 189 149 124 255
21.742288543141967 -29.148907652751305 4.291124916722367 195 155 129 255
22.441087613576343 -28.755935656079686 3.582125035617366 193 154 125 255
22.706342061211899 -28.187042227738630 3.299927327205211 192 153 124 255
23.405491352556595 -27.803295531002959 2.590933969357735 194 155 126 255
23.815604211048878 -27.301905155484349 2.166483931057428 198 156 134 255
25.021358821553832 -27.145149731171088 0.959542255151092 202 158 138 255
25.793476080227663 -26.809751209311003 0.179413975465280 203 158 139 255
26.999844220611010 -26.669746156937379 -1.027543614738278 198 153 134 255
27.483073828884358 -26.220463542362552 -1.523118399161575 200 154 135 255
28.472948571080565 -25.999760739916297 -2.516665809985113 199 153 135 255
28.956540648080534 -25.559903332470725 -3.012228147838158 195 150 131 255
29.802158029757891 -25.287085850442367 -3.863491422427188 190 145 124 255
29.851787295077230 -24.658534505947529 -3.932177843767931 192 147 126 255
29.973848317439092 -24.063685755408301 -4.071984992326151 186 141 120 255
30.313175564990587 -23.570278344849456 -4.425205851676850 181 136 113 255
30.652615596606296 -23.079527692112364 -4.778410031855003 174 127 107 255
30.992168669843181 -22.591428221397592 -5.131596954438237 166 119 99 255
30.969680422436738 -21.934585932208520 -5.129023788133850 159 114 93 255
31.526734615086781 -21.554064197633494 -5.695617677605043 154 109 88 255
31.794160442129908 -21.038525099245263 -5.977596601593859 151 106 85 255
32.061681866561941 -20.525073401049042 -6.259553753520635 149 105 84 255
31.966959892599363 -19.836907199701457 -6.185724475911911 145 104 82 255
31.944719014599656 -19.183741351788839 -6.183014918560900 141 103 80 255
32.067473497746448 -18.602280771266862 -6.322582742289569 140 104 80 255
32.335278858899017 -18.094141981913097 -6.604434066218658 140 104 80 255
32.603181231093288 -17.588059375098339 -6.886260414814274 138 104 79 255
32.871180868613294 -17.084026554387563 -7.168061175631181 136 102 75 255
33.066755058443647 -16.545054449143265 -7.378675985046385 132 101 73 255
32.464555449137208 -15.597790881175968 -6.806491011477277 131 100 72 255
31.862234500876554 -14.646058260648061 -6.234249227731112 127 96 68 255
31.840195911619503 -13.992207705904192 -6.231256832431313 123 92 64 255
32.471218663121050 -13.680798153441671 -6.868707443250941 121 90 62 255
32.376745429941565 -12.990737350896680 -6.794481525846322 116 89 60 255
31.266192545792649 -11.759455786179899 -5.723871073478591 112 85 56 255
29.719873162063919 -10.286590581480127 -4.226168708522891 111 79 54 255
28.536179369340800 -8.997901782440678 -3.084217550138561 116 87 61 255
28.005667933250237 -8.055131711859204 -2.582720602521903 107 83 57 255
32.202419516000703 -7.768072207581596 -6.768459239186626 94 53 31 255
34.287609328808685 -8.296874942992758 -8.829170050810063 131 85 62 255
35.356123577951138 -8.266484329300923 -9.893401826594697 171 124 101 255
36.424936989482774 -8.244002199554373 -10.957629335890459 185 137 114 255
36.985310327570772 -7.938258143734103 -11.523574180990096 186 140 116 255
37.618543026922765 -7.678471052027305 -12.160677765553118 182 136 113 255
37.306933395155681 -6.875496746810200 -11.872344596995987 172 126 103 255
37.649617426494416 -6.451769406570591 -12.224633123760412 155 110 87 255
38.065134404829848 -6.073159895811727 -12.648074229408394 145 104 80 255
38.626232828505380 -5.783435530178380 -13.213862626333110 135 98 72 255
38.678391417510682 -5.195155720713061 -13.281278857241261 122 89 61 255
38.585120862099785 -4.520096780129975 -13.206256513677374 113 83 55 255
38.855606117022234 -4.063042398808165 -13.487152589091210 107 80 51 255
39.126194756924718 -3.607834096724616 -13.768006027759156 96 72 44 255
39.251355114615365 -3.065818076601218 -13.906418495178059 82 67 36 255
38.794386010533913 -2.167767901484623 -13.475175238150911 74 64 33 255
37.609509395768384 -0.817365776396727 -12.331828028736936 64 55 24 255
3.518038403513060 -32.001195587451107 23.635882126273003 164 151 135 255
5.362780129601020 -31.917030931766945 21.783553357510016 202 181 162 255
6.704103091264074 -31.661905681505502 20.430527422629694 207 177 157 255
8.405787524443042 -31.550709036587676 18.720808135222399 203 171 150 255
11.980135676004352 -32.154175101009969 15.156341364176200 188 153 131 255
15.123337225700311 -32.621218405325152 12.019819863738320 182 147 125 255
16.538745106102454 -32.451503289357944 10.595325249926788 186 154 131 255
17.810470968040079 -32.237070554004347 9.313485541203761 190 154 128 255
18.578231680869379 -31.835961626807389 8.530999891930662 186 150 124 255
18.697720153765033 -31.185822123531764 8.390565932715560 182 145 119 255
19.249645219733679 -30.708452911541471 7.822100862108158 181 144 118 255
19.945882240234766 -30.293205860023903 7.110954974540533 181 144 118 255
21.074819825340967 -30.058287220568332 5.971754826574880 182 141 118 255
21.987795955715768 -29.743798030170296 5.046572742898007 187 147 122 255
22.252115733435005 -29.169174495308468 4.763480940675521 192 152 125 255
22.732859747506438 -28.686612249915029 4.266365751099471 192 153 122 255
22.853148597108486 -28.056712688164495 4.125985826356356 194 153 123 255
23.766920180935500 -27.763392487000175 3.200808550669706 193 152 122 255
24.031698913872646 -27.200191231244986 2.917756262593656 194 152 127 255
25.090204365669734 -26.980584362283409 1.849883873247933 198 156 132 255
25.716060242249426 -26.581230687493772 1.210102035645519 200 158 134 255
26.847273251627769 -26.407790675228441 0.070872761769209 198 156 134 255
27.690096776965134 -26.115590565764094 -0.782958449912371 198 155 136 255
28.749720591467593 -25.926219700395578 -1.850846058735186 197 155 134 255
29.448666571360832 -25.582987003687805 -2.561971963048876 194 153 133 255
30.075613419006913 -25.212474067403534 -3.201738263088231 194 151 132 255
30.486105635614649 -24.748004742021521 -3.627430948986841 191 148 131 255
