ply
format ascii 1.0
element vertex 653
property float x
property float y
property float z
property uchar red
property uchar green
property uchar blue
property uchar alpha
end_header
40.028645972012669 -4.148525218730811 37.394853438773168 79 61 31 255
39.942314439011682 -3.394033916653655 37.482174210211554 76 60 32 255
39.664909337515326 -2.521370639490172 37.816192955482251 63 52 22 255
39.323799369986233 -1.606836452916795 38.232542490764246 33 28 1 255
39.110152828616151 -0.768575832386048 38.484643680412574 19 24 0 255
38.279966073620983 -11.328774357131991 41.109957990104164 167 166 123 255
39.714989326023044 -11.423357653467860 39.219186365688358 153 115 95 255
40.325803263672640 -11.064279509249346 38.399414805415347 155 108 92 255
41.380993460561797 -10.963267611253642 37.003020033777403 150 107 87 255
41.611635717494721 -10.398243237779710 36.677685438781424 145 102 80 255
41.652028772528695 -9.725199875728762 36.599600751928591 140 97 75 255
41.565567413262585 -8.978612818440610 36.686393567066915 132 92 70 255
41.479164165349516 -8.231252499736669 36.773294390755950 123 88 63 255
41.519802043256107 -7.558068915764764 36.695520062108017 114 82 57 255
41.624035354736577 -6.922937228882432 36.535456363081835 103 73 47 255
41.474350269455385 -6.136543010197343 36.705081336457312 94 67 40 255
41.261194607258631 -5.310496496082351 36.957224913255516 85 64 37 255
40.666916208301075 -4.251115263146772 37.703896169379959 79 62 32 255
40.326703418915372 -3.341911738859082 38.121111805106949 66 52 23 255
39.986490457546097 -2.429683824741673 38.538467586410576 49 43 11 255
39.646279219798089 -1.514420196367425 38.955966391489369 32 31 0 255
39.152742214654467 -10.842331089173484 41.099575546159400 166 160 127 255
40.457693746991737 -10.873164397523468 39.369233896217679 144 110 90 255
41.573263409633569 -10.806863736554533 37.886713440578802 148 105 86 255
41.739952229563869 -10.204245668124869 37.643202631762023 143 99 79 255
41.780181013499401 -9.529713876712506 37.564983143972427 142 97 76 255
41.947108157363346 -8.929382015847025 37.321662019240534 135 93 71 255
41.860919688056669 -8.181608025671181 37.408848603607140 127 91 67 255
41.711471916192977 -7.395564994107005 37.578751809351559 118 85 60 255
41.625397691350685 -6.645939628377747 37.666166103537790 108 76 51 255
41.729399529670985 -6.009600643482827 37.505871151793144 96 68 42 255
41.770172335342011 -5.335784328013290 37.428293646990966 87 66 39 255
41.240853611358602 -4.315056692329378 38.094340773835370 78 60 30 255
40.964935903604783 -3.445069827066604 38.430081319687559 64 50 21 255
40.435549099388055 -2.416113067932727 39.096425857596614 48 42 10 255
40.032875118403894 -1.461268432612087 39.597690784053640 33 33 1 255
40.149648052440796 -10.430939025516054 40.920863980397655 155 144 111 255
41.198984545683231 -10.325198194444596 39.517423619135826 147 110 89 255
41.743782938034713 -9.937315243913972 38.776508670361750 144 101 83 255
41.846954624667944 -9.297418939489049 38.615348505839989 145 98 80 255
42.392161222664470 -8.916992715149888 37.874594123216525 140 96 76 255
42.432479096893360 -8.243508217591852 37.796436601842601 131 93 71 255
42.220296627157325 -7.420370699247286 38.049653007973490 124 90 66 255
41.881826769030681 -6.519821868485749 38.468630146603033 114 82 57 255
42.111852434279342 -5.958596988650982 38.142353966367523 102 72 47 255
42.342030925276873 -5.399286731071470 37.816178602997127 90 64 39 255
42.066892202483530 -4.533236185348471 38.152703269372353 77 58 28 255
41.728578873355161 -3.625858765488815 38.572191585023120 67 53 24 255
41.011062296360620 -2.480686487481620 39.488796856078039 52 45 14 255
40.293448322666961 -1.329191154839933 40.405574694593071 31 36 3 255
40.262767220430817 -9.518142808899739 41.900878443820346 159 144 113 255
41.183549586450027 -9.342596385097679 40.660032582338602 142 108 88 255
41.601054806055004 -8.881593800513230 40.083430910431872 144 100 83 255
42.396527903147643 -8.645868206711526 39.008760002230616 139 94 77 255
42.625579440627689 -8.082003032491457 38.681397361674954 136 93 74 255
42.665845820083007 -7.407592535477079 38.603218904678016 129 92 69 255
42.202314037739626 -6.431339354981915 39.189398485765622 117 86 61 255
42.242711461626527 -5.755320313116826 39.111457319554717 104 76 49 255
42.598233405560848 -5.271139197552785 38.618455614977279 95 69 39 255
42.449840591210318 -4.481266606626050 38.789845858855443 81 62 30 255
42.301501344521000 -3.690010751498022 38.961366781733318 70 58 25 255
41.396856595616441 -2.427769260498565 40.129515495876518 53 52 16 255
40.189409382912459 -8.492774547259330 43.133035806296135 154 150 112 255
40.982263346561325 -8.245482742919179 42.055651057885200 133 108 78 255
41.901005779467624 -8.078951027789643 40.811855063340062 132 99 72 255
42.506095772492330 -7.734228150744144 39.984313278483370 132 93 68 255
42.860210882942624 -7.244716335585693 39.489812939923240 127 91 65 255
42.649165894114589 -6.418275708133606 39.744594372250532 115 87 58 255
42.312504032097905 -5.513841524267534 40.165995737543511 102 78 46 255
42.352844178054170 -4.836308633260401 40.088053739749370 91 72 36 255
42.644657897810731 -4.313401974955099 39.677232683931067 81 67 28 255
42.182438436337293 -3.326560298693408 40.265532393581935 64 66 21 255
40.095641317805274 -6.735663915701011 44.373821414515220 117 120 73 255
40.949283596238985 -6.529948491518354 43.210499801565675 111 103 60 255
41.928526925957442 -6.406625338303172 41.880334478906377 108 96 55 255
42.281676570886987 -5.914005379898825 41.384780143192472 99 88 47 255
41.883166412808691 -4.967792416960023 41.890812219187325 90 84 40 255
41.672629704189035 -4.132991196969215 42.146612487168539 74 76 28 255
-59.970760556026811 -1.522005486545993 -10.519394494847319 13 17 3 255
-59.246261751236950 -2.442927316245687 -12.529436778839482 8 13 0 255
-58.986759249956201 -2.164488663352927 -13.490036279960833 4 10 0 255
-60.888138711807805 -1.590994852095889 -4.292419372188078 12 13 0 255
-60.483015050734686 -0.692133052332338 -5.984344656524627 14 15 1 255
-59.185710821386742 -2.122632109993106 -9.706054173071522 13 17 2 255
-58.408974398010933 -3.188492276872637 -11.851835089686290 8 12 0 255
-58.726001647381061 -1.401967757291175 -11.507164299946368 5 9 0 255
-57.749566833273015 -3.009151110992661 -14.099336014794432 1 8 0 255
-58.209796062433675 -0.841695164724172 -13.431342712145664 0 6 0 255
-56.374818205952558 -4.743873509722391 -17.956079374098863 0 6 0 255
-57.494138435632784 -0.825266761674470 -15.799943707220308 0 6 0 255
-57.237194173883047 -0.555861361799828 -16.753666546969356 0 8 0 255
-60.321147134020144 -2.584944065955085 -2.551191113546707 7 9 0 255
-59.689391068028335 -3.238829269840494 -4.398391056611302 11 9 0 255
-58.772208786674518 -4.641439374119841 -6.902730532459316 17 12 0 255
-58.399999316802969 -4.645377865263015 -8.139875383170477 25 21 9 255
-57.371391288462071 -5.413215099957995 -11.262547483970963 17 18 7 255
-55.659717730423900 -8.952839809972829 -15.575269195135917 11 12 0 255
-56.488205017527825 -5.831334030051664 -14.037440996623417 7 10 0 255
-56.461211614072518 -4.004816072223662 -14.839690524850511 2 9 0 255
-55.836142162033703 -4.718818565838660 -16.640040487643802 0 6 0 255
-56.689339730098247 -1.490745162493567 -15.061166436355364 0 6 0 255
-54.986179709843135 -5.104804271746957 -19.315905315787774 0 5 0 255
-56.206994509454240 -0.874937528647308 -16.904893401317622 3 7 0 255
-58.668051133212948 -5.404077414945846 -3.729919276631762 11 17 0 255
-57.984811697499161 -6.206918883676565 -5.709758898959961 13 2 0 255
-57.841999443309838 -5.615841555567783 -6.418167440106259 61 42 29 255
-57.472328608093129 -5.618123088058894 -7.656889344326174 64 45 32 255
-57.074782255566411 -5.699014893812830 -8.958438692102646 48 34 21 255
-55.148673448863370 -9.806392615093614 -13.823031369825884 33 24 13 255
-54.329127605447276 -11.028620920575207 -16.096499626678167 23 17 7 255
-53.991380041703515 -10.988671759664328 -17.244043278259625 14 12 1 255
-54.077684547928833 -9.825942200185381 -17.405205882636693 6 6 0 255
-54.897315344531982 -6.702299343255163 -15.868138592693413 7 9 0 255
-54.615837594268051 -6.511139456774060 -16.885328138278311 5 8 0 255
-54.729033516367458 -5.262548710257420 -16.989295365648672 2 6 0 255
-53.547299966883877 -7.505340570333260 -20.080624395452674 1 5 0 255
-54.391974386246922 -4.280230896743433 -18.498511586854477 0 5 0 255
-55.375461509205870 -0.659284168236184 -16.604405707879664 1 7 0 255
-55.280501377780787 -10.859221313860985 -9.805789221161348 166 132 120 255
-54.577333716980498 -11.758186681961774 -11.835437374576145 150 116 104 255
-55.027244596823344 -9.630654496996158 -11.134782164365589 75 45 31 255
-54.156741003622933 -10.985357745059929 -13.553981704560755 54 32 18 255
-53.848567118125196 -10.862608992691662 -14.642189811544398 37 23 9 255
-53.877048521531286 -9.847140721343322 -14.936667441966250 28 17 5 255
-53.289329712787968 -10.477802741708445 -16.678925875227293 22 16 5 255
-53.597653791540630 -8.712711064329881 -16.316388686733859 23 21 8 255
-53.374223566287107 -8.372880890372528 -17.201401253317300 16 18 4 255
-53.458191390932960 -7.204399883791950 -17.366867919738780 7 13 0 255
-53.067546408173207 -7.321150802302355 -18.640777623824704 3 7 0 255
-53.541553720989931 -5.087965242042742 -17.898288983483837 2 7 0 255
-54.070252690376471 -2.694049664605075 -17.032810205601976 0 6 0 255
-54.152639701875792 -1.513016534464271 -17.208039479289226 0 6 0 255
-53.734306574192210 -1.708237527253175 -18.544907186499842 0 4 0 255
-51.596083312936834 -2.917430604303036 -25.295855519663689 0 3 0 255
-52.010874037629144 -0.808178460481201 -24.704987602816772 0 4 0 255
-53.418297667269862 -13.376090722875176 -11.969251172467295 187 148 137 255
-53.223260262823608 -12.953202455068237 -12.795008735225593 173 133 122 255
-52.944899940114261 -12.754241041944852 -13.818696325147556 115 78 67 255
-52.694662923939241 -12.484095380726899 -14.773708619440953 54 23 12 255
-52.666941540414037 -11.620850823313305 -15.197746133984737 46 21 10 255
-53.332993995882468 -8.889840908606260 -13.973656668982642 40 19 9 255
-52.971630306848461 -8.918499546471452 -15.192386568462751 32 17 7 255
-52.499913423576636 -9.251924417101918 -16.670199462808711 23 14 2 255
-52.084232045031534 -9.440757241581593 -18.012398399760770 14 13 1 255
-51.918036633833260 -8.955015075264782 -18.762966930212912 10 13 0 255
-52.055923083054331 -7.637482775638716 -18.796124661290605 5 8 0 255
-52.828360346458176 -4.569707411402703 -17.337846548712861 3 5 0 255
-52.523530708716542 -4.459363000102769 -18.416594013027208 2 5 0 255
-52.163968357962396 -4.505268573923615 -19.621870933852620 0 6 0 255
-52.080216524780290 -3.789608716600469 -20.179155798848484 0 5 0 255
-51.690240434341270 -1.082817823008384 -22.535117482163486 0 3 0 255
-50.701233023320022 -1.989285370588732 -25.552291461479541 0 4 0 255
-52.513631553650221 -14.328356853433888 -11.504878056949906 191 153 138 255
-52.098785783807109 -14.494023903560958 -12.865488416985215 183 139 128 255
-51.987960924097074 -13.852793304016757 -13.488992057252773 178 134 123 255
-51.573969172298241 -14.026517695840795 -14.843318828050911 160 120 108 255
-51.298231140512463 -13.834180110620196 -15.862042292311031 143 106 95 255
-51.242915698526922 -13.049201272118665 -16.349209325844498 92 59 49 255
-51.599846712837824 -11.143747997796169 -15.846932344826882 53 24 14 255
-51.626400368170785 -10.130264750027948 -16.139637540170781 37 16 7 255
-51.241154249060251 -10.241700390170877 -17.418318144331181 24 11 1 255
-50.774190426189186 -10.583846563419257 -18.889731469555244 17 11 0 255
-50.527012342444728 -10.327829307201483 -19.833889472810711 9 10 0 255
-50.581118902841617 -9.241339767967958 -20.059300714068229 5 8 0 255
-51.318444039582012 -6.254071752488301 -18.661590014182082 5 7 0 255
-50.743166089652938 -6.909966082592859 -20.385195786425101 3 5 0 255
-49.431944031316171 -9.635709105711385 -23.848523027197331 1 5 0 255
-50.713109369428317 -5.104910336945068 -21.170147583389820 0 6 0 255
-50.437571932804140 -3.989102750836935 -22.535543912577594 1 4 0 255
-50.055224366305616 -4.127622720853537 -23.793105481626156 0 3 0 255
-49.945071813293062 -3.496555227713372 -24.408640838744759 0 3 0 255
-50.240102580258970 -0.756662526431569 -24.431962290017282 0 3 0 255
-52.103306742088954 -13.962169400521503 -9.832477827239757 190 167 141 255
-51.143676363394398 -15.589871400653749 -12.538115586125855 193 157 141 255
-51.169979247928929 -14.581304375487491 -12.826905816268123 193 153 141 255
-50.950179824846906 -14.235540339634184 -13.716993015000384 189 148 136 255
-50.539536364997808 -14.410246605301523 -15.070894541433006 180 138 126 255
-50.347616540067541 -13.996169026215910 -15.890010189657659 178 138 126 255
-50.346582754399599 -13.062669005564203 -16.244487079226673 172 134 123 255
-50.318154432298734 -12.202666492064367 -16.665886000451138 163 128 119 255
-50.099234388304133 -11.866108392607259 -17.548783753042954 128 102 95 255
-49.934880490746430 -11.381579161441437 -18.298586138326726 50 32 22 255
-49.770653690613848 -10.898423716872600 -19.047315220974525 22 11 0 255
-49.633676525061411 -10.341120090991978 -19.729621736619322 17 13 0 255
-49.469683426695262 -9.860499347502412 -20.476370441419050 17 15 0 255
-49.224607234314540 -9.609090346231824 -21.417103986771536 12 13 0 255
-49.358466437436782 -8.294109297768557 -21.447821065735042 9 12 0 255
-49.219995542228226 -6.803002229177594 -22.484796201752317 4 6 0 255
-49.460885311017570 -5.174139003808193 -22.263292132385118 2 5 0 255
-49.458642259153230 -4.233346258706945 -22.623410529143143 1 4 0 255
-48.944712152053263 -4.758538167118786 -24.200973417546749 0 5 0 255
-48.781240041490371 -4.284010600948193 -24.942957201849367 0 4 0 255
-49.450971859275491 -1.403923199058511 -23.709239270622419 0 5 0 255
-51.031687496366807 -14.415119292261579 -10.129330576307780 192 164 142 255
-50.216294239734289 -15.676962763748065 -12.499832058267117 187 150 134 255
-49.970800475092652 -15.404652643056039 -13.457054203402834 93 53 41 255
-49.590315859470756 -15.504085333470016 -14.745728649436728 114 74 62 255
-49.399531934141216 -15.090073649997464 -15.564911387224100 126 84 70 255
-49.316925078139171 -14.380886484710970 -16.117196629389639 159 115 102 255
-49.315222553299243 -13.448430862982548 -16.470777233788795 171 129 118 255
-49.124679636838344 -13.037480540474178 -17.287563781750009 168 127 118 255
-49.015093245669483 -12.403687163132560 -17.905314684372087 167 137 129 255
-48.851727961360929 -11.920605580562722 -18.654075758927860 115 90 81 255
-49.037903651065413 -10.459927015767107 -18.549662979977995 30 11 1 255
-49.089297395633984 -9.372692695290141 -18.775378622223570 21 8 0 255
-48.925797125731101 -8.889277387447294 -19.524389501052127 17 6 0 255
-48.494392163071701 -9.166659235688513 -20.922829838655190 15 4 0 255
-48.866979905833354 -7.165025717135762 -20.370340603837718 17 3 0 255
-49.158447538385595 -5.385379161915068 -20.017546999798782 13 0 0 255
-49.074998707499383 -4.671995997662862 -20.573062839856505 11 1 0 255
-48.964833617347743 -4.035504501357764 -21.192887173833071 5 2 0 255
-48.747989567495686 -3.707549142544110 -22.069198181580219 0 3 0 255
-48.131564077359890 -4.540038023558282 -23.904666965117741 0 4 0 255
-47.968832093592773 -4.064848495573472 -24.647252025536545 0 4 0 255
-50.365994624800997 -13.770380190815899 -9.418053131975171 157 126 106 255
-49.450295471751581 -15.323723318525026 -12.059185697953268 88 49 34 255
-48.965025449149955 -15.712711240807835 -13.619559112579111 202 162 150 255
-48.507249658284714 -16.034360425664033 -15.108149478247356 197 157 145 255
-48.585309148509417 -14.881516569191149 -15.260627354110966 199 157 143 255
-48.556108170638971 -14.023181913865358 -15.680625938716560 189 145 132 255
-48.526781352285361 -13.164098438069914 -16.101203620483687 183 139 126 255
-48.257170768144583 -12.976246961938273 -17.117021721358412 179 136 126 255
-48.094521035452168 -12.491963109621253 -17.866808867105931 171 134 126 255
-47.985266720490820 -11.858876723358776 -18.484035403182304 136 106 96 255
-48.381631126235085 -9.795588097973194 -17.854877309796478 59 34 22 255
-48.750497852085225 -7.800272944423199 -17.296999839555326 38 17 3 255
-48.481051819288332 -7.615268932806316 -18.310582914830462 27 4 0 255
-48.052721386980160 -7.888968751462954 -19.712258343869593 49 21 15 255
-47.863617352775968 -7.482934084562572 -20.525307702993388 118 79 73 255
-47.860099418266309 -6.544160431652500 -20.883695234752452 115 74 69 255
-48.385644173805638 -4.072720430704408 -19.951273576822331 21 0 0 255
-48.857162746602519 -1.745199007401823 -19.155209455124691 7 0 0 255
-48.007047850107689 -3.258819456789297 -21.578780343581883 1 5 0 255
-47.369457640452886 -4.167152494685979 -23.479968814292448 0 4 0 255
-47.312865644290873 -3.381184739565924 -23.967784090305031 0 3 0 255
-49.243303936175955 -14.369669834878692 -9.849658407849716 152 120 100 255
-48.787725444136534 -14.676998504980304 -11.349806657764219 179 137 123 255
-48.173566427152245 -15.431968490998088 -13.246829410242015 181 139 127 255
-47.719457412383072 -15.752677717479486 -14.736548092248881 167 128 113 255
-47.636879768381213 -15.043115000190085 -15.289133455327004 113 76 60 255
-47.554274141198952 -14.333653680654351 -15.841635677722252 156 114 100 255
-47.445200712513731 -13.698742246251413 -16.460324779174272 191 148 132 255
-47.283318695714620 -13.213678783237526 -17.210809154723989 186 143 127 255
-47.174344338858354 -12.580246523949228 -17.828338651780513 179 137 123 255
-47.144497221359991 -11.722086141630029 -18.248131577561622 157 120 106 255
-47.404292036686364 -10.034906766467600 -17.946806319732104 77 48 34 255
-47.452884355766251 -8.946389245145696 -18.173242944030648 41 11 0 255
-47.211992784053997 -8.688795308396038 -19.119307839246403 65 27 18 255
-46.997648912727051 -8.357917512951332 -19.998192835736774 105 57 51 255
-47.019722864907216 -7.343946672982042 -20.290813566424532 175 115 112 255
-46.989147550251865 -6.481098880304813 -20.714237728894688 139 75 76 255
-47.325165535043020 -4.545514294229577 -20.233599286425886 81 43 40 255
-47.712714614560674 -2.449679165783493 -19.629259751433551 9 0 0 255
-47.445768533154698 -2.271186730045031 -20.637954651008613 0 3 0 255
-46.709021562912234 -3.485492456892018 -22.798446888342738 0 2 0 255
-49.077596317262199 -13.279861036506020 -7.495979290110938 173 169 128 255
-48.124749166805152 -14.968910649135267 -10.281736369028806 193 160 138 255
-47.778322377338775 -14.984322201379825 -11.512512100892508 169 127 113 255
-47.905253343380728 -13.679395469336100 -11.534549276058641 94 52 40 255
-47.086856976479233 -15.028205013683049 -13.963879250081533 169 129 117 255
-46.794266474981406 -14.908637646201953 -15.051206401709948 169 131 115 255
-46.606834997274525 -14.495646612107947 -15.869933660489522 192 149 135 255
-46.524267093277054 -13.786682180456836 -16.422046812189734 194 148 134 255
-46.441673928384255 -13.077820929344171 -16.974075698757019 186 140 125 255
-46.306809710921563 -12.518800806711113 -17.657961686016421 180 135 120 255
-46.172021887481129 -11.960733932375547 -18.341101687869894 165 123 108 255
-46.271977868423868 -10.725978855137782 -18.432735617944246 121 84 68 255
-46.163173128462908 -10.092401969781804 -19.050397312889061 102 63 48 255
-46.054399238853428 -9.459353928134277 -19.667643939336386 142 95 85 255
-45.971657215703054 -8.750904330947094 -20.219331592205918 113 57 50 255
-46.070723242248654 -7.509561330166548 -20.316083055696367 194 130 127 255
-45.987776970458818 -6.799834696888581 -20.868759386261132 169 105 105 255
-46.060368989489866 -5.630811106804913 -21.033461344164522 122 80 77 255
-46.443456972949498 -3.537998569580964 -20.426262802985804 11 0 0 255
-46.385755156673035 -2.746502050870333 -20.918334760474892 0 3 0 255
-45.060740687749963 -0.964765261590969 -26.282432789872047 8 6 0 255
-44.772282228199394 -0.885337704804385 -27.338443700856175 8 0 0 255
-44.407190234559899 -1.045456847927483 -28.580731657880506 119 94 82 255
-43.863080235485150 -1.762620869314276 -30.259145219000317 216 182 166 255
-43.422377238547718 -2.171063061622988 -31.680875595570313 201 167 146 255
-43.443222376704107 -1.157732352825349 -31.972861030426486 196 158 136 255
-43.182518913277029 -1.017669511118470 -32.951813944583904 199 155 134 255
-42.896617644472038 -0.960405864499251 -33.990561961594182 196 152 131 255
-42.330311859858746 -1.786144913439387 -35.708697448068250 200 156 135 255
-42.224021443658735 -1.176976609762107 -36.307316253866560 197 155 133 255
-41.863006285956608 -1.372119235272862 -37.522329103549623 200 158 136 255
-41.528004064058528 -1.491407828000888 -38.672138894563744 203 160 138 255
-41.117225458252811 -1.857419024537649 -40.002639673138077 202 158 135 255
-40.935746114296613 -1.499873735033361 -40.778134979821345 201 157 134 255
-47.036384176827561 -15.494938723966044 -10.646960410963231 191 160 137 255
-46.875026819722045 -14.998121548913218 -11.406796831956029 184 142 128 255
-46.687782138906165 -14.576272254733709 -12.232550425339724 98 54 41 255
-46.214934138734442 -14.968053417051550 -13.792018117830509 185 143 130 255
-45.742798663207772 -15.366313933448538 -15.346435532345765 195 155 140 255
-45.530674276787558 -15.028778254681384 -16.230819732662184 198 155 140 255
-45.422390721004909 -14.395711151025267 -16.848132897013443 192 145 131 255
-45.417652427784525 -13.464563376443380 -17.200360415232439 185 138 124 255
-45.309320011536364 -12.831704539598832 -17.817503716269556 177 133 115 255
-45.175183903914338 -12.274452232915479 -18.500067806319038 173 130 113 255
-45.092737510166820 -11.567575156331486 -19.050542648704294 151 108 92 255
-45.061833539663617 -10.709799426555776 -19.469920405012942 131 87 71 255
-45.082324640599417 -9.699851468957263 -19.759192986267720 157 106 93 255
-45.102600212507689 -8.688310636132144 -20.049702884638720 89 31 21 255
-45.225488769887143 -7.370623156416173 -20.081409342440196 124 60 54 255
-45.168191900774154 -6.584100842553141 -20.569589288906883 169 110 107 255
-45.213461018319457 -5.491007999568353 -20.799296145819881 57 23 18 255
-45.642956525482681 -3.244274313833785 -20.062852356005891 7 0 0 255
-45.994626469208519 -1.220123050143172 -19.525978959767571 0 3 0 255
-43.280587087258546 -4.651043086340621 -28.041253324451759 8 5 0 255
-43.656961958302752 -2.543100311381011 -27.445318003083912 14 5 3 255
-43.040518838392309 -3.487990275713798 -29.319809949702716 199 175 160 255
-42.704618956614134 -3.576366559662972 -30.493976633149515 207 167 153 255
-42.496138950288973 -3.274603205564347 -31.350448018910015 204 159 143 255
-42.059674886783633 -3.687009034993082 -32.769488100160231 196 152 133 255
-41.750583825093564 -3.708847661785114 -33.871166160558687 195 149 128 255
-41.340705949216876 -4.052708379998307 -35.219282115056927 199 151 133 255
-41.159046400883646 -3.684490705870303 -36.003200180933163 198 150 132 255
-40.826032551863314 -3.797773734507928 -37.157968947508920 198 149 132 255
-40.796350879460654 -2.953399466944688 -37.566874658480657 197 150 132 255
-40.413632144903751 -3.233533267050177 -38.840315509955559 200 153 135 255
-39.955963902700383 -3.760592794905904 -40.294373461542051 200 154 136 255
-39.348087168962131 -4.778878176076830 -42.111709939924395 198 155 136 255
-39.243993692511275 -4.185905687575143 -42.697748703503294 203 158 140 255
-39.340859331602580 -2.943652073560600 -42.794989517208052 208 161 144 255
-39.412309965165896 -1.779946401072948 -42.955365306748547 206 160 142 255
-39.282987340269734 -1.266940661688352 -43.603436299484969 202 158 140 255
-39.128747967923424 -0.836708636421349 -44.311352046909576 197 154 136 255
-46.338396407993038 -14.923519119838460 -10.002231511612138 176 142 120 255
-45.662454561948159 -15.892417837609713 -12.107353250421795 152 107 92 255
-45.476595637706872 -15.473069467538494 -12.931274090286450 169 123 108 255
-45.008083378229109 -15.867307281984779 -14.489253646355110 198 155 139 255
-44.745773984886178 -15.675938065136506 -15.508620474011337 203 161 145 255
-44.483783275718771 -15.487648133205511 -16.525585086272713 203 158 142 255
-44.375933555507878 -14.855822037464065 -17.141962165577127 193 146 130 255
-44.293720531033351 -14.149877216565358 -17.691724101789902 186 139 123 255
-44.237071242252405 -13.369176713225585 -18.175367059993306 178 133 114 255
-44.154787551364826 -12.663229919286039 -18.725123140457640 174 129 110 255
-44.149096249469856 -11.731532363873981 -19.077685508217343 166 123 104 255
-44.194262680453427 -10.647671151125138 -19.300079528518751 149 105 86 255
-44.188186366924903 -9.713213197305407 -19.654784916944294 168 118 101 255
-44.207407690417647 -8.701665583787673 -19.945189536107279 195 138 125 255
-44.226414865986492 -7.688526421332796 -20.236830568260416 158 96 87 255
-44.296037022012335 -6.521102538452396 -20.399955500452421 144 91 85 255
-44.492294113305384 -4.968444568767040 -20.241422549921111 43 12 6 255
-44.865544194663066 -2.873828956571401 -19.634617729034233 7 1 0 255
-44.756439603277776 -2.234362798295933 -20.256906267730670 0 2 0 255
-43.429867686479106 -1.464309893207258 -25.332345701356559 10 0 0 255
-42.389738271608614 -3.730019216547703 -28.292476342502567 192 170 155 255
-41.728981998746271 -4.834929064308483 -30.291609346712391 208 170 153 255
-41.496766111028499 -4.612144533173591 -31.211051111429271 200 153 136 255
-41.315082362374461 -4.234217863059598 -32.002646285275148 193 147 126 255
-41.158691794198383 -3.778979013439766 -32.730116231463967 189 144 121 255
-40.751787831547539 -4.118246040894576 -34.082177825911799 186 141 121 255
-40.295450989238255 -4.622162858950560 -35.554680989851107 192 148 129 255
-40.140070512054344 -4.175672081138600 -36.275337370984943 195 150 131 255
-39.934862979826796 -3.890439356013815 -37.119076759168848 196 151 132 255
-39.779848476020426 -3.447089491021359 -37.837287141271844 198 153 134 255
-39.350624528290957 -3.889192676229925 -39.233596973100759 201 154 136 255
-38.772600022885179 -4.820809387847419 -40.994687514323687 200 153 135 255
-38.270260403463745 -5.518584490625528 -42.564888821275389 202 156 140 255
-38.042330560461330 -5.332553483903325 -43.455709001665554 205 158 142 255
-37.988619804993228 -4.580607810615163 -43.916915783976407 207 160 144 255
-37.959696452324827 -3.746884719301704 -44.317476184005869 208 159 144 255
-37.682753086934035 -3.728805923550965 -45.326169787780941 207 158 143 255
-37.430995995352042 -3.632328851258421 -46.271586028076825 199 152 136 255
-37.253841247557894 -3.292687425080658 -47.033373552038768 200 154 138 255
-37.126347606809340 -2.790252168940924 -47.673275426069097 198 151 133 255
-37.048367970901914 -2.123752136167411 -48.192281508715411 193 146 126 255
-45.176660015729134 -15.669000934165410 -10.569968141897306 177 137 117 255
-44.762073403332430 -15.906205812021710 -12.001952841521984 196 145 132 255
-44.424500119099058 -15.928297586369695 -13.228373802380418 204 157 141 255
-44.138276605972401 -15.807156846426835 -14.317613675277244 202 159 142 255
-43.852419911605345 -15.689521679573943 -15.404119197903327 205 163 145 255
-43.643111539946439 -15.352733893389654 -16.288207366870409 207 161 142 255
-43.383287202236467 -15.167040014314239 -17.303345905394792 195 147 129 255
-43.250503944011662 -14.611204808546205 -17.984931073726642 185 138 120 255
-43.219072876338423 -13.756898399060077 -18.401509339263526 178 132 113 255
-43.288698310388405 -12.601572267374223 -18.555065503681703 172 124 106 255
-43.206387895001193 -11.895492927841275 -19.104923620699111 170 122 105 255
-43.250282292712875 -10.812051629588609 -19.326851996918435 160 113 95 255
-43.218250296193098 -9.953712493971295 -19.746557011970935 159 110 93 255
-43.312078887368962 -8.715039930420403 -19.840646540731314 195 143 127 255
-43.330033083556209 -7.701894950622830 -20.132181664867460 126 75 61 255
-43.398066109312374 -6.534474246782565 -20.295137304406495 93 49 38 255
-43.742119631450926 -4.522511076717194 -19.747823999061012 40 17 6 255
-44.135510898994902 -2.349908621916995 -19.076886899227929 5 3 0 255
-43.851020822567172 -2.247789901030444 -20.151262607239175 0 5 0 255
-43.241311845170834 -3.152657155796476 -22.058118567838676 0 2 0 255
-42.060198006320725 -2.960266721373443 -26.436038057678559 39 20 14 255
-41.279972697957582 -4.447331106632930 -28.760016870875091 197 166 151 255
-40.799909357554604 -5.004807239361128 -30.315597789624604 197 150 134 255
-40.445005228384112 -5.175788443266526 -31.550363253679535 191 145 122 255
-40.339130807106962 -4.562662033483605 -32.152156511268316 167 123 98 255
-40.307779375231384 -3.712760894353437 -32.565258641922668 137 91 68 255
-40.152340021482026 -3.258659024405404 -33.291929086145529 124 82 61 255
-39.873186086776947 -3.203531312740267 -34.329695743473849 148 111 88 255
-39.668683195944233 -2.912683135232442 -35.177950808908605 168 128 106 255
-39.489161030774916 -2.544097820895558 -35.962383988663817 189 149 126 255
-39.136950868031711 -2.738393665704223 -37.178990705160544 185 141 120 255
-38.612574550650514 -3.500012786971809 -38.824312087534139 191 144 124 255
-37.965853540019232 -4.672235894872244 -40.771674458820627 199 151 131 255
-37.443411799314880 -5.450316608828018 -42.404178038745584 199 152 134 255
-37.167880490868590 -5.426062144754439 -43.417904683640188 201 156 137 255
-36.941913073127786 -5.242841629383634 -44.306707769147152 203 158 139 255
-36.691709763786356 -5.143662242323046 -45.254424561988316 205 158 140 255
-36.368293971515108 -5.292431316056877 -46.382131790309131 205 158 140 255
-36.118897505556227 -5.199954413956732 -47.324631711193973 206 157 142 255
-35.869869142606696 -5.110507546679344 -48.264773559127605 205 156 139 255
-35.572306429538465 -5.188631915411463 -49.323140463834449 201 153 136 255
-35.421775726863125 -4.775726218423699 -50.017740607718252 199 151 131 255
-35.515442738431751 -3.537204123458309 -50.111694160767485 196 150 128 255
-35.657546052314423 -2.129971087279728 -50.088313854085840 189 147 123 255
-35.653115255196902 -1.217695955621650 -50.425645709906945 186 138 120 255
-44.659037667028151 -15.524353606095332 -9.094869682209378 205 179 145 255
-43.868643161937221 -16.853334511716213 -11.542822541665004 178 135 114 255
-43.659748920339844 -16.506933847843499 -12.434557793152806 171 122 106 255
-43.602266237430378 -15.721298343752665 -12.922016787413753 208 161 142 255
-43.217435487274336 -15.894615240812129 -14.279726305821072 207 162 141 255
-42.984068369292153 -15.629122851077767 -15.232828426683909 208 163 142 255
-42.750970773882337 -15.366286798885341 -16.183857716729932 207 160 140 255
-42.568344873871688 -14.957251527019736 -16.999960378003806 194 147 127 255
-42.511270687506773 -14.176821518887039 -17.483344786482263 187 139 119 255
-42.504225671028969 -13.246368306014688 -17.834780829451773 179 132 112 255
-42.497010195235696 -12.314748019807325 -18.187122117645515 169 122 102 255
-42.364618209077015 -11.758348211998651 -18.869194940143075 164 117 99 255
-42.382165884693684 -10.749967285088445 -19.156919116860564 156 109 91 255
-42.374545300835941 -9.815698003118257 -19.511313199050193 139 92 76 255
-42.391686309067147 -8.804349016163911 -19.801342380437944 119 70 55 255
-42.358808647527461 -7.943663473711183 -20.222814610744280 119 73 58 255
-42.375572705643613 -6.929559970423782 -20.514983006229301 56 21 10 255
-42.814623790043846 -4.612502126835466 -19.707234934359349 29 11 0 255
-43.327106394089462 -2.056353583960686 -18.712513078719127 6 3 0 255
-42.995077235677719 -2.107287012159588 -19.916702642636125 0 3 0 255
-42.753292603347639 -0.906416020767949 -21.224992661074310 0 3 0 255
-42.521221210648740 -0.656346657074380 -22.166031420732764 9 6 0 255
-41.400093949532440 -3.210563859916931 -25.401185955580985 16 2 0 255
-40.651235420528060 -4.612162683009103 -27.668126145548740 109 76 65 255
-40.150258658924834 -5.242837732727196 -29.291545464020146 196 151 137 255
-39.871791443154585 -5.174688144593290 -30.339684270907156 190 142 121 255
-39.667536028562573 -4.874016332905853 -31.195735633399835 180 133 107 255
-39.561850732633552 -4.260031534122163 -31.798227710400994 147 103 78 255
-39.628105392633124 -3.092907430582102 -31.960762106019786 110 68 44 255
-39.620475184247404 -2.161257686178658 -32.313083169247278 59 30 5 255
-39.735230698039750 -0.830843786943547 -32.354002447494253 33 9 0 255
-39.482382048967047 -0.693081650463398 -33.331959900797898 53 36 8 255
-39.180976461528793 -0.718258998122337 -34.431803675814990 45 35 5 255
-38.733438341476692 -1.228255421819142 -35.900421396540850 107 99 62 255
-38.286654738803158 -1.744690337980785 -37.364025567228396 147 129 95 255
-37.523662872183515 -3.315050971340213 -39.623927127324237 183 152 123 255
-36.956928555528869 -4.251043191064639 -41.382741614617402 188 151 125 255
-36.512861427099601 -4.790583842413071 -42.828354640731988 195 149 127 255
-36.093860930261194 -5.255339928881483 -44.207819363625759 201 152 133 255
-35.627005538004944 -5.888940730418483 -45.704573151684940 200 153 134 255
-35.257993060490783 -6.202849560108632 -46.952737001247044 203 156 138 255
-35.107694048731624 -5.785299953839342 -47.651034712789482 202 154 136 255
-34.884939044211315 -5.615259799995044 -48.529749500936191 203 156 138 255
-34.541584246450192 -5.859165225237518 -49.708045262213318 202 155 136 255
-34.440388175287588 -5.282993475788260 -50.281099012614959 202 155 136 255
-34.435804144290707 -4.376545158960823 -50.613805876972663 202 154 134 255
-34.527536977004154 -3.137281662563282 -50.708142875032081 196 149 128 255
-34.209507139765570 -3.308045947645780 -51.819017524017198 195 144 129 255
-34.108542833246268 -2.733170053701372 -52.391070598677800 196 144 129 255
-33.887480200169726 -2.576449681885379 -53.259427282961269 194 143 126 255
-33.954876619326107 -1.417347823600608 -53.415736048245122 190 143 124 255
-33.758160959092770 -1.179301537599542 -54.223042995715076 181 139 118 255
-43.501556020220399 -16.267711031673315 -9.664733199722974 133 109 72 255
-42.793881239299488 -17.379223140275968 -11.909584515391913 140 93 71 255
-42.686343458300293 -16.740812729001902 -12.531202412115050 167 118 101 255
-42.653617438341179 -15.882212327209004 -12.951041246925882 200 155 134 255
-42.396607058378954 -15.686942252816095 -13.974049713052807 206 161 140 255
-42.015506589215754 -15.864748008824819 -15.328600112054090 209 162 142 255
-41.883540790353443 -15.305649763613587 -16.012852079883487 205 158 138 255
-41.701984051983850 -14.896356102702669 -16.829271330170769 195 148 128 255
-41.669445275362257 -14.041052900224514 -17.246521788447893 189 141 121 255
-41.587219163019036 -13.334705037319679 -17.796601150348977 182 135 115 255
-41.529729165172860 -12.553404497273732 -18.280630495385083 170 123 103 255
-41.422702678544958 -11.922334524272173 -18.896495892466362 159 112 92 255
-41.488665533701244 -10.763398163485761 -19.052523300575189 148 101 83 255
-41.529629550380811 -9.677721073192544 -19.275912608202958 135 88 70 255
-41.521011232333713 -8.741850997182155 -19.631468179280091 136 89 72 255
-41.512228724620236 -7.804816825976928 -19.987927297919271 121 79 63 255
-41.503283270537928 -6.866618773220978 -20.345289925614821 57 27 14 255
-41.961284316225466 -4.472865991843605 -19.472262682248015 25 9 0 255
-42.319944015497846 -2.376924312240249 -18.864975507544926 6 3 0 255
-42.113394130376300 -2.043792610141452 -19.746461278474783 0 3 0 255
-41.299495305118093 -1.678635098511052 -22.892319917661638 6 3 0 255
-40.287719689899113 -3.924150837384616 -25.871399045629715 18 4 3 255
-39.766047373278759 -4.625257132733509 -27.564868808864020 198 162 150 255
-39.294037711013551 -5.177610780390694 -29.125346752412611 193 146 130 255
-39.139520766462574 -4.716932885162691 -29.857315524997261 190 142 120 255
-38.912142346748944 -4.493628467729536 -30.777676199590900 159 112 86 255
-38.830934949051176 -3.799694526530232 -31.318043277664884 125 81 56 255
-38.846879270544186 -2.789498113852460 -31.607035201330433 95 57 31 255
-39.032466510457475 -1.222590200458114 -31.458653916341945 50 23 0 255
-36.823639937966767 -1.840147725779332 -39.437759911751670 115 113 70 255
-36.094099305474025 -3.345231269010355 -41.624872878709141 165 141 107 255
-35.534187952698652 -4.293371499007321 -43.374794565329466 184 143 118 255
-34.999298630483160 -5.168633064270637 -45.057055733855321 195 149 127 255
-34.705267948812953 -5.235710048206158 -46.124531612895424 197 152 131 255
-34.411702249236377 -5.306667988479546 -47.188986522184905 198 151 133 255
-34.118602671035866 -5.381504078451030 -48.250422801294036 199 152 134 255
-33.682475611666895 -5.953799640840828 -49.670960564294660 197 150 132 255
-33.533806367412076 -5.542799179037218 -50.364249058857041 183 136 118 255
-33.433042733818617 -4.967758223194267 -50.936453755102690 195 148 130 255
-33.380037732352115 -4.227406101839847 -51.388564306880312 196 149 131 255
-33.041206963515357 -4.484003918593601 -52.557295399764911 196 148 132 255
-32.893286016253661 -4.078741738215228 -53.246123546276579 196 148 132 255
-32.650472406037075 -4.008929252910946 -54.171387171774910 196 148 133 255
-32.550492754177434 -3.439666264399534 -54.739103874192921 193 148 129 255
-32.355721474466471 -3.206691896837185 -55.542603083313139 185 142 123 255
-32.350779316912842 -2.302549355466851 -55.873448534067393 174 132 113 255
-32.487738222055249 -0.890919989811437 -55.853005745883223 146 110 91 255
-43.116121280746107 -14.750134991234233 -8.138079660854089 133 137 88 255
-42.192250485833760 -16.515338361141119 -10.994573808422075 188 149 123 255
-41.763771056237751 -16.827975250866814 -12.493367375748306 195 145 126 255
-41.705891455005251 -16.043131847249100 -12.980158175950521 204 159 138 255
-41.352278400384570 -16.143353761830156 -14.271028510471353 203 158 137 255
-41.097633724105400 -15.952381572628099 -15.290885702715144 210 163 143 255
-40.892485400078023 -15.616078529840877 -16.175027042074390 200 153 133 255
-40.834941818882733 -14.835491033152522 -16.658486758622075 193 146 126 255
-40.801863868541496 -13.979954913260997 -17.075864864644842 189 141 121 255
-40.744149800180828 -13.198522409870549 -17.559975074361830 179 132 112 255
-40.588406017234156 -12.717002116172523 -18.308301067570341 170 123 103 255
-40.555114819917399 -11.860519124865618 -18.726405752375854 158 111 91 255
-40.619466196618198 -10.701369840610511 -18.882432455749608 139 92 72 255
-40.659087242382277 -9.615476720885823 -19.105851695079679 143 96 76 255
-40.674053370666464 -8.603477273253674 -19.396167127507283 134 88 70 255
-40.713171883645593 -7.513771743740989 -19.622549176535330 122 83 65 255
-40.849393200084812 -6.116731697026694 -19.590489080181158 61 33 17 255
-40.960839377124877 -4.792525769709528 -19.626150647562554 21 6 0 255
-41.193335682622894 -3.081260865662671 -19.341011667077311 7 4 0 255
-40.648638024410026 -3.827540271332794 -21.124266113484424 0 3 0 255
-40.205578053595026 -2.312825677739113 -23.299338909587334 2 1 0 255
-39.107545377739250 -4.871133764741558 -26.533681386107730 77 62 56 255
-38.808308402732315 -4.872454644992274 -27.652622808249816 186 150 138 255
-38.485396790624868 -4.955934566155065 -28.832025539540837 188 141 125 255
-38.331633454412362 -4.494599207247461 -29.564593445173358 180 132 110 255
-38.202087543054169 -3.955975093550308 -30.232904694818984 142 92 67 255
-38.216905232251783 -2.945051880097537 -30.522353266062595 119 74 51 255
-38.279565534640291 -1.774362066884237 -30.687330851050433 78 40 18 255
-35.951142245779700 -0.928141863906603 -39.683775778932358 99 105 59 255
-35.181928171369542 -2.600688790119477 -41.990129058530812 140 116 82 255
-34.580392911145118 -3.715683545027389 -43.859567954022708 184 143 117 255
-34.122295866035820 -4.350307051047650 -45.356431982817440 188 143 120 255
-33.807192752504086 -4.500749730605207 -46.483687827598516 179 132 114 255
-33.421587470807047 -4.901640820987495 -47.789241136255328 160 113 95 255
-32.989351315189957 -5.472619838068113 -49.211228611378971 163 116 98 255
-32.581502612994846 -5.967537516619586 -50.568006409875295 183 136 119 255
-32.292361436072191 -6.055025343894840 -51.619850815148709 200 153 135 255
-32.215852742873160 -5.400333654884605 -52.129671076650851 200 153 136 255
-31.974528193192704 -5.327440579806364 -53.057527671180026 196 150 134 255
-31.851198293103643 -4.840980165271731 -53.685230703611893 197 151 135 255
-31.586998718741263 -4.856587883542261 -54.668616309631687 198 152 136 255
-31.487548511198703 -4.289453493582130 -55.234704892241666 195 151 132 255
-31.364728905803922 -3.806741387017212 -55.859496633011190 183 142 122 255
-31.429445748959104 -2.651627048001671 -56.012370119982961 169 128 109 255
-31.610906176492158 -1.072156976061649 -55.873492178958088 138 99 81 255
-41.828461292378030 -14.920176321444899 -9.403628811947613 182 155 121 255
-41.061354143080585 -16.254978764258112 -11.849420927611618 199 151 129 255
-40.832271321667157 -15.983361963027789 -12.807816985829163 192 146 125 255
-40.457238606775668 -16.157071630426998 -14.166244126502022 200 155 134 255
-40.253184872013158 -15.818058532245232 -15.052643949133000 207 160 140 255
-40.000711490477251 -15.629685577822528 -16.070673067488570 195 148 128 255
-39.870036224184311 -15.072319320304530 -16.753690503502582 191 143 123 255
-39.739435994327785 -14.515912316283931 -17.435957061623952 191 143 123 255
-39.705896197232740 -13.661102977539940 -17.852711825851429 178 131 111 255
-39.769121405433502 -12.505342445039048 -18.005939894661964 169 122 102 255
-39.807833101714046 -11.422408892437034 -18.226922732044812 152 105 85 255
-39.797934746764334 -10.488417818680830 -18.580857705902645 140 93 73 255
-39.715428807303375 -9.780333729873774 -19.132281024784561 146 99 79 255
-39.753518149256756 -8.692849841169618 -19.356797783622113 146 103 81 255
-39.911832781819875 -7.222782383894639 -19.256887458058827 116 78 58 255
-40.021492506061271 -5.901235342769439 -19.290258405538054 60 32 14 255
-39.986454557216682 -5.035638200663811 -19.715388905546718 23 7 0 255
-39.614978993145023 -5.243818512105634 -21.046923683858353 8 3 0 255
-40.108036573601304 -2.686527870960617 -20.051066565824129 1 1 0 255
-37.895687223264268 -6.904540228703326 -26.972957940519592 2 1 0 255
-38.196579159490845 -4.962119609865283 -26.494040227924813 54 43 35 255
-38.114678736811932 -4.261395034658904 -27.039705847485237 145 116 103 255
-37.746576210077798 -4.499598935058600 -28.347846484456937 157 117 99 255
-37.522018158640059 -4.272311424050940 -29.271653712763396 179 132 111 255
-37.345358281562049 -3.890352683970377 -30.066965435898794 116 67 44 255
-37.406654351898702 -2.721484188047157 -30.230359215254680 129 86 64 255
-37.610160992597265 -1.075680788283080 -30.018331198019268 67 29 10 255
-34.245655389363414 -1.937252650586686 -42.416634401731244 112 72 46 255
-33.720963810393563 -2.812033517296072 -44.100346040366247 127 81 57 255
-33.314376422861891 -3.285760953023441 -45.474017328237125 172 125 107 255
-32.814884196832757 -4.093662459851430 -47.085341712336202 208 161 145 255
-32.199405052820801 -5.320527525011698 -48.992762052801453 215 168 152 255
-31.538375267498857 -6.722120741082875 -51.013059592338266 213 166 150 255
-31.111906584743416 -7.307560824488235 -52.424213906458647 211 163 149 255
-31.059092223941938 -6.573163397646880 -52.871634405545393 207 159 145 255
-30.982973687813477 -5.921506472917827 -53.379095167734562 202 154 140 255
-30.976651029211901 -5.019970550236167 -53.707733945623517 205 157 143 255
-30.668199123854500 -5.203034877264429 -54.809884671438709 204 157 141 255
-30.615545727136997 -4.469290491377023 -55.256805519499750 196 150 134 255
-30.562874040765017 -3.735174192372938 -55.704018624912550 179 136 119 255
-30.741761285499244 -2.159106505711463 -55.562179402325143 152 113 95 255
-40.402792048043132 -15.535375096920632 -11.070176104289942 159 115 90 255
-40.054467420528461 -15.629379523152323 -12.366519381128541 154 109 88 255
-39.634353669474827 -15.949491992852785 -13.860277866076842 204 159 138 255
-39.407515246975457 -15.683775749917345 -14.814242232877035 206 159 139 255
-39.132843560483927 -15.569117622430383 -15.899566827484165 198 151 131 255
-39.026731661455663 -14.937089927455531 -16.516285751385254 193 146 126 255
-38.920645618825951 -14.305597455473503 -17.132584036773466 189 141 121 255
-38.934474905728187 -13.300458654903139 -17.417353505431777 178 131 111 255
-39.043897067716024 -11.993536208118627 -17.439131719929463 163 116 96 255
-39.105047264616921 -10.833849308672598 -17.595247706079277 143 96 76 255
-39.022460953581692 -10.124567403845617 -18.147610041761112 143 97 74 255
-38.915978228930392 -9.491083711012692 -18.765441716882236 155 109 86 255
-38.881090620824089 -8.630442492782549 -19.186667945038408 155 110 88 255
-38.989064551424939 -7.312402032953429 -19.217088324567356 123 84 64 255
-39.049019514735512 -6.143723738603683 -19.380190909545860 73 42 25 255
-38.918426427620808 -5.584890575400664 -20.064377267212762 39 18 4 255
-38.882940973168040 -4.720030594360026 -20.488877720184178 11 0 0 255
-39.298221564017801 -2.392210770524343 -19.687147492087746 6 0 0 255
-39.024993179088717 -2.293560726380747 -20.759961443315916 1 4 0 255
-37.283946006105189 -6.996179625666372 -25.812812361931861 6 9 0 255
-37.320559012732282 -5.908945147556096 -26.036976900968085 3 4 0 255
-37.427813005490755 -4.586277442172275 -26.070981794677238 9 2 0 255
-37.322208714645818 -3.962499867433905 -26.681228289385416 29 12 6 255
-36.957252669629106 -4.199796873217849 -27.990416485310959 154 125 106 255
-36.592889745092897 -4.442286150522818 -29.295559931905245 171 129 109 255
-36.535039435605889 -3.667451361959593 -29.774437164981919 126 80 59 255
-36.618185303190394 -2.419096437071289 -29.875064129758158 127 84 62 255
-36.865365494196944 -0.614329461645070 -29.537492407931069 69 31 12 255
-33.249134047413925 -2.438394848176472 -42.683249342398426 212 169 146 255
-32.706522710630075 -3.395993884825998 -44.427504901002322 216 170 148 255
-32.280723717638899 -3.952983208992919 -45.861233556701052 210 163 147 255
-31.878822356683294 -4.434350908595832 -47.229353323232147 214 167 151 255
-31.338964823267737 -5.415224169757209 -48.955488382788104 215 167 153 255
-30.753943950311090 -6.569550391114319 -50.795549942243611 214 166 152 255
-30.308405733279010 -7.237195532965416 -52.267612468694011 212 164 152 255
-30.163168714703609 -6.834149212492974 -52.954969584772897 207 159 147 255
-30.110156451237764 -6.100043976448092 -53.402138196253702 206 157 143 255
-30.080109781846055 -5.282267750821745 -53.789967010253918 205 156 142 255
-29.958138757296659 -4.797783837238455 -54.416249277661422 200 152 138 255
-29.905112032726841 -4.063006129497751 -54.863948284931439 183 137 121 255
-29.966637356360799 -2.908145791327513 -55.016285913935832 162 122 104 255
-30.073677972605019 -1.582492626669591 -55.052629860543931 137 103 83 255
-39.619299235215415 -15.182600337160238 -10.627326198301290 195 153 128 255
-39.035255680189614 -16.011032803762873 -12.597334321115824 207 160 140 255
-38.714379035568719 -16.037040172799550 -13.822410414755979 204 159 138 255
-38.513008859219092 -15.697498565818506 -14.709509916239057 199 152 132 255
-38.264293184788421 -15.508582648564470 -15.728362877474183 198 151 131 255
-38.110933121724223 -15.025123780314800 -16.478472419299067 195 147 127 255
-38.076367576839836 -14.169951934532435 -16.895406268821233 190 142 122 255
-38.112808815432878 -13.089544832662114 -17.114152444491197 165 118 98 255
-38.267404648579522 -11.631901692870485 -17.004024413501980 148 101 81 255
-38.255867802789403 -10.696922912957518 -17.358568687390090 138 92 69 255
-38.149623651444820 -10.062660977666155 -17.977040976923803 150 104 81 255
-38.019801124639891 -9.504618878645687 -18.660682486268939 166 120 96 255
-37.937232537842284 -8.795751128612153 -19.212719092823704 163 117 94 255
