ply
format ascii 1.0
element vertex 657
property float x
property float y
property float z
property uchar red
property uchar green
property uchar blue
property uchar alpha
end_header
0.149817530058584 -7.882415680562090 20.569950170003338 179 137 113 255
3.388996668340013 -8.590972309664863 22.260633196681908 189 130 117 255
4.351096037613985 -8.347489637268183 22.769409491843561 172 120 108 255
4.948938903258153 -7.953177207707185 23.089129510354795 155 104 90 255
5.364651658286022 -7.483557090543002 23.314337368526395 161 112 95 255
5.233424312442196 -6.778325103867473 23.255788374634790 140 97 78 255
6.014068557038854 -6.471590406618986 23.670342204550167 137 96 76 255
6.065284664398888 -5.847717313218098 23.706494189090009 127 86 66 255
17.481880268234164 -9.654166252323407 29.646895777888730 150 104 88 255
26.442141510887609 -12.481402198442254 34.311727298937328 180 138 124 255
30.057376601820948 -13.540030651843381 36.195156195469053 182 140 126 255
30.295447859989537 -13.071797736660940 36.327363165922193 180 137 124 255
31.720813547977514 -13.152382933136622 37.075107119542878 176 132 119 255
32.598613477854883 -12.986964989374130 37.538919302774048 172 128 115 255
35.212521672265723 -13.637297570853008 38.902573130470245 171 125 112 255
34.720583740389600 -12.843106561654210 38.656315077770429 170 124 109 255
34.685397734233732 -12.261836235260404 38.646850621059727 168 122 107 255
34.650168389379985 -11.680139481350139 38.637409103331748 167 121 106 255
35.986273916645388 -11.754463638522381 39.338570794645406 165 119 104 255
35.585437256818466 -10.999846798464461 39.139736537770091 163 117 102 255
36.739217654326382 -10.995902946897431 39.746364845217798 165 115 104 255
36.704206537851888 -10.418991867477118 39.737123096481369 164 114 103 255
37.309592107560462 -10.155650725427776 40.059632717188975 160 110 99 255
-57.372554976433065 -9.602485003868210 -8.675472455731750 9 9 0 255
-50.492305982845238 -8.626698167963454 -5.077124604138362 8 9 0 255
-52.448666966378738 -7.141973125275015 -6.077417133765351 6 8 0 255
-56.585626860459428 -4.888652806324473 -8.204173488330810 3 5 0 255
-44.698416302709376 -5.843915609812910 -2.020703637548081 5 8 0 255
-39.928530735238127 -6.776923988534278 0.453330500530370 3 4 0 255
-37.793812247414195 -6.776540475158683 1.566134339665808 7 1 0 255
-31.747843072108850 -8.226706250545234 4.698559358492759 203 176 153 255
-31.521053465246808 -7.555674671104228 4.825768876879096 197 150 130 255
-30.839321355152634 -7.055972675856012 5.187887261703594 192 146 122 255
-30.066366646444266 -6.594657393703528 5.597080681696042 188 141 115 255
-29.111135182264178 -6.207047011006040 6.100344703000161 185 136 110 255
-29.065800819006682 -5.477324547147347 6.133876986491828 181 130 103 255
-28.929423283919476 -4.782994833897845 6.214432476041367 173 119 95 255
-29.066174180884644 -3.983554678366744 6.154044096630258 162 105 86 255
-28.929773910344835 -3.290141005207346 6.234670282257980 146 94 74 255
-28.884426410981433 -2.561709967115519 6.268334485362175 120 72 52 255
-28.747974352150067 -1.869715315357809 6.349041933800436 98 57 35 255
-28.247011306312828 -1.324182141962268 6.617849771709444 78 48 24 255
-28.383837014520083 -0.524886263119825 6.557606188914690 62 42 15 255
1.590096384076674 -7.983588254969845 22.086833019934815 179 128 112 255
3.283564562488493 -8.046462028350078 22.969413854265326 169 121 107 255
4.247358722955482 -7.806390584442454 23.475708076194778 162 115 99 255
4.481086474344352 -7.256848874059429 23.605605027562234 173 127 109 255
5.080134515111723 -6.867254617936183 23.923833961482828 172 127 111 255
5.679373190623210 -6.481125170011609 24.242151877548679 169 128 108 255
5.365324337669335 -5.696386528269372 24.089767834580940 166 123 104 255
5.690685943957277 -5.193003710693773 24.266967337612130 175 133 114 255
8.848936370541878 -5.954721440179043 25.903963186455982 172 129 110 255
18.825306003572592 -9.186138693034124 31.062875014179994 166 122 110 255
31.094920640377580 -13.582169532233351 37.401532425909636 183 136 126 255
27.675123864293681 -11.433774683639541 35.648732205251704 182 135 125 255
33.310537319552992 -13.461341558806780 38.560035543394491 180 134 123 255
33.732682550321670 -13.090616905877013 38.786093132907141 177 132 118 255
32.233184269148609 -11.820538239008428 38.022611529677036 176 133 117 255
32.655226227593204 -11.448712072783437 38.248713579140770 171 128 112 255
35.091399465411968 -12.035882778708938 39.511812663564811 167 123 107 255
35.788737214706146 -11.805989761892633 39.879563221609828 167 123 107 255
36.761033165123791 -11.712149160349753 40.388835182858273 165 120 104 255
37.184074016788202 -11.358040915661405 40.615351255535487 164 114 103 255
37.882072271796659 -11.139973029715364 40.983388650985518 161 111 100 255
37.572367218451348 -10.432371661639905 40.832815657248631 156 107 95 255
-57.219226738874539 -8.978933494115608 -7.625228061755280 4 9 0 255
-54.906105763960994 -8.924338236710994 -6.427033057044696 5 10 0 255
-52.327481965883436 -7.342869267420184 -5.071877410151586 6 8 0 255
-44.339678499952498 -5.342124232843148 -0.910088802920484 1 4 0 255
-31.366638827862374 -7.769875141047450 5.776240390687889 198 157 137 255
-30.592592138934521 -7.305700291996970 6.183230236104265 199 152 129 255
-30.091663872860096 -6.743481345230848 6.450103530137284 192 144 122 255
-29.408282107413044 -6.253339144431223 6.810551515258055 191 140 116 255
-28.906989347858058 -5.697759388881792 7.077596673431543 184 131 108 255
-28.952586320710651 -4.934906465677031 7.064185395609627 175 120 98 255
-29.089404684464370 -4.136518637784960 7.004037796571851 167 109 91 255
-28.952661272985068 -3.444144692158758 7.084203152693561 148 94 74 255
-28.542211391781194 -2.860207992775258 7.304724330242067 123 76 56 255
-28.314112664859039 -2.206467666129072 7.431767937197577 104 62 40 255
-28.177206320881595 -1.517695461963328 7.512085871675737 82 51 27 255
-28.496633468434339 -0.646372966368105 7.358525832083103 62 41 14 255
1.482609986849468 -7.434742684520813 22.798598294951205 161 124 104 255
2.447643862302698 -7.190246201940013 23.302249984001079 148 114 92 255
2.315769735167208 -6.478762193158431 23.244056703381574 169 134 112 255
3.098345332176706 -6.162983156224172 23.654236750769670 176 139 117 255
4.704392668695704 -6.211129064165007 24.486087470809679 172 138 113 255
5.121685465660335 -5.746081747205267 24.709147708790198 165 130 108 255
4.258082069777828 -4.716741915472440 24.276390385299933 172 135 113 255
3.394140588358624 -3.682122448010972 23.843578629286924 174 134 114 255
23.655145371479790 -10.326893650623660 34.251616131372984 172 128 117 255
28.656187146984195 -12.031636571552639 36.819789402194004 174 130 119 255
28.070381260110821 -11.180510475326415 36.528750349427597 178 133 122 255
26.384732462529570 -9.813776139125025 35.675060605201978 179 133 120 255
29.555888208367065 -10.712246701168269 37.306393419597001 177 134 118 255
34.194825000660416 -12.320794170603193 39.688370432445339 174 131 115 255
32.967688348311839 -11.174031612882331 39.069315594033270 172 129 113 255
35.224665860903912 -11.682442179139358 40.232486715600842 172 129 113 255
35.831532512013240 -11.411573818443273 40.551571572087724 169 126 110 255
37.814582951008845 -11.808688970593266 41.574421478466917 167 121 108 255
37.229322642617859 -10.969166023811013 41.283838693710237 166 120 107 255
37.653245510956680 -10.619287914914196 41.509356363746221 161 115 102 255
-56.476559457108266 -7.729171740337549 -6.268474588815451 3 10 0 255
-51.790966094339552 -8.498090341800676 -3.868352837539419 5 9 0 255
-35.178265872521166 -7.281386996351031 4.691849815818159 37 34 18 255
-31.849200537575058 -7.748164128160084 6.398408402947894 200 166 144 255
-30.982678152940508 -7.317617475002280 6.849768084987176 206 158 138 255
-30.298389756933460 -6.823816154107973 7.208232983283011 199 151 131 255
-29.522590599818415 -6.368655376958912 7.613311918178766 197 145 124 255
-28.837826530657281 -5.883382775633862 7.971984901124841 192 137 117 255
-28.883337298154828 -5.121846906690209 7.958584019073839 182 126 106 255
-28.654890957894480 -4.466051604401841 8.084789373334559 171 112 94 255
-28.243688179775205 -3.882831827915453 8.304112496283381 152 96 77 255
-27.375548309315889 -3.481376602776706 8.756190536364983 129 78 59 255
-27.512271622113957 -2.687669916598736 8.696440238237955 104 62 40 255
-27.831848653347180 -1.820372413567441 8.543616718195636 83 51 28 255
-28.700017893102398 -0.731168907836846 8.111491027161634 65 40 15 255
-2.062002500910751 -6.085194319458012 21.750124701861068 155 130 99 255
0.551978841078324 -6.535104997275994 23.089704653630406 149 126 96 255
0.236534516759207 -5.740201325285284 22.938485293612615 171 148 119 255
0.562076889560586 -5.220909132992972 23.113475511633993 179 152 125 255
1.803766161392474 -5.102709913566670 23.754589132006046 174 145 117 255
3.595605279663857 -5.232965424134250 24.675521487994274 161 130 104 255
4.013480299373981 -4.766677478322734 24.897440763232041 162 128 103 255
2.506721622868099 -3.447118641026208 24.140425884603388 172 136 114 255
5.766306643455209 -4.251300827516630 25.807742636209454 175 135 115 255
24.815723497672224 -11.004709895588647 35.522199881930035 176 132 119 255
26.613748307140554 -11.239772840906213 36.445109191035201 180 134 121 255
27.678358390556838 -11.146314964462164 36.995053835911776 180 132 120 255
24.797185479313242 -9.224805954666849 35.539147309974851 178 130 116 255
27.055020150941942 -9.689972246238526 36.695689519006464 176 130 114 255
29.772657139291510 -10.384427684260274 38.085780201518688 174 128 112 255
32.491244474280393 -11.094898860118903 39.476164281061429 172 126 110 255
29.608719440070871 -9.152467167421221 38.020063055359614 170 124 108 255
35.083806687790286 -11.199061941696897 40.810950127776024 170 124 108 255
32.108762183886228 -9.202343844394690 39.308085176102779 168 125 109 255
37.494335442346909 -11.244118591225430 42.052994966884398 167 124 108 255
36.264746745968438 -10.088477050898078 41.437059988911557 162 119 103 255
-32.606140852803350 -7.625402901170816 6.882249318732562 212 187 163 255
-32.103845233148746 -7.057848225981317 7.146153628772879 203 158 139 255
-31.327179137791319 -6.596053351281270 7.548961662909619 207 156 137 255
-30.641669512926882 -6.104427394228466 7.905604254548479 202 149 129 255
-29.133025652102305 -5.929886331713462 8.678895886026680 196 142 122 255
-28.721264692251424 -5.343802965914094 8.896925103658731 186 130 113 255
-28.309373300524243 -4.760208313530143 9.115029314791713 172 116 97 255
-27.897352203707527 -4.179094017214211 9.333208759978532 154 99 80 255
-26.936210488681041 -3.815578362014449 9.829274711785530 131 80 61 255
-26.889894230101191 -3.096522548540349 9.862407418130090 109 63 42 255
-27.392765985103352 -2.159384521192450 9.617710746028649 87 52 30 255
-28.170476859869353 -1.109281082744005 9.234048383460873 67 41 16 255
-4.048960960049129 -4.056684614209956 21.529129808497572 151 138 103 255
-4.090490654476440 -3.367039930280441 21.517531565811311 165 151 116 255
-2.113719874193691 -3.555339568580806 22.526136426969416 175 158 122 255
0.506044006093560 -4.036614437326506 23.859604719884686 156 134 102 255
3.218491795545617 -4.573778863280708 25.239747928884256 151 122 94 255
3.545284741007862 -4.067674870859420 25.414181772366192 167 135 109 255
1.852373806564742 -2.661086142864093 24.568111942090454 173 138 114 255
-1.310378979721150 -0.583707884402600 22.979606271515181 175 139 120 255
21.258597363014530 -8.932239170763580 34.408677935375522 181 134 120 255
24.988770736026225 -10.052629276026309 36.301538741172592 184 134 122 255
29.271703587459371 -11.450958338712852 38.473291924825858 179 131 116 255
26.661816317534800 -9.655142335746049 37.163930794068392 175 129 113 255
30.486825535724677 -10.867575531985565 39.104117490090985 175 129 113 255
29.899213412447807 -10.015822356368773 38.816083217839648 175 129 113 255
30.874916795376720 -9.904065780588837 39.317404510541266 172 126 110 255
29.735141970226692 -8.785342757634140 38.750771069775070 172 126 110 255
33.655344721731609 -10.095995833374189 40.738411869362452 165 122 106 255
31.043191280212625 -8.265067710108966 39.428718983511999 161 118 102 255
-32.678066351461354 -7.001920225662687 7.722489642086970 204 171 146 255
-31.625574279585948 -6.642199519258611 8.261279297526897 208 159 139 255
-30.938944992127887 -6.150774252106942 8.616036796350329 206 153 135 255
-29.611090219021349 -5.906857642088610 9.293238617839279 199 146 128 255
-29.107067833806667 -5.355485860106114 9.556132470496806 192 137 117 255
-28.511280197945467 -4.842452315967122 9.865170320239287 176 123 105 255
-28.006918679601455 -4.297399997146584 10.128241072062025 159 106 88 255
-26.952582195124705 -3.970462127447945 10.667803265509008 136 85 66 255
-26.814411146675326 -3.288566003446974 10.746786471509864 116 68 48 255
-27.317887613478291 -2.352761671526594 10.503280227850411 96 55 33 255
-27.638193737510647 -1.487314302243860 10.351920922454696 73 43 17 255
-10.550593275543036 -1.428492758391911 19.032863793763838 97 106 54 255
-0.886740646442888 -2.924208315920623 23.923145608720318 156 151 112 255
-0.182418837779977 -1.253696423739569 24.304869759093307 165 144 117 255
26.433319599106909 -10.865972776796738 37.698214371585209 185 137 123 255
26.304833585627335 -10.222151097055402 37.642329430552820 183 135 120 255
26.728636317186869 -9.834895184078334 37.863585526742526 178 131 113 255
26.968399462873577 -9.363554124322292 37.992536350807256 178 131 113 255
28.497542538808744 -9.502011002886348 38.768277202442249 177 130 112 255
28.369191325017852 -8.861927114125493 38.712609064506040 176 129 112 255
30.543965042110074 -9.321342018817958 39.812059992130060 178 131 114 255
31.060876761767929 -8.996165302629279 40.080005849089730 175 129 113 255
32.591717207120809 -9.164087679294838 40.856373552746334 165 119 104 255
-32.932127854327888 -6.311880748391772 8.469273529718265 210 163 143 255
-31.602711679589589 -6.059148502988492 9.142759679766556 207 156 139 255
-30.089426525001471 -5.883851010961010 9.908047312561166 200 149 132 255
-29.125971255492885 -5.507321639526353 10.398613494977496 192 139 121 255
-28.529155794803870 -4.995301065049148 10.706019901655907 181 128 110 255
-28.023904455749602 -4.451265698091589 10.967694989356175 163 112 93 255
-27.243174836409224 -4.017781252932039 11.366957454429354 140 89 70 255
-27.104712854347554 -3.336106737987180 11.445471086705396 120 72 52 255
-27.149832881815172 -2.582488762220024 11.432350114109568 99 58 36 255
-27.562276095842805 -1.681977652240022 11.235872095882513 75 45 19 255
-28.250400471810252 -0.668242573672586 10.901833210162664 56 36 9 255
24.565107294806751 -10.153778672374543 37.432043488292706 179 135 119 255
26.003280834708022 -10.230225245379742 38.157454951304658 179 132 116 255
23.938375652582408 -8.684093600507993 37.136870744883922 176 129 112 255
25.930175020444921 -9.025961353065100 38.138201625988785 176 129 111 255
28.291585290422830 -9.553321882907923 39.323601311438352 175 128 110 255
28.624333544705223 -9.132178914320647 39.498033398931597 173 126 108 255
30.064351343446418 -9.240974018278848 40.224165765316727 174 128 109 255
31.597133736732331 -9.402388182996162 40.996444671920713 177 128 113 255
33.407329664167349 -9.706380317410435 41.906838293550109 176 127 112 255
-33.782354949846393 -6.152765622453828 8.909801839427871 203 165 141 255
-31.532663777042188 -6.243488278990966 10.035485414587754 206 159 141 255
-30.108807402423651 -6.034669896415963 10.751220907654300 203 154 138 255
-29.143775378431343 -5.659135408161106 11.239217536565732 193 143 126 255
-28.729688031072186 -5.077523602927641 11.453814484463010 184 133 114 255
-28.407367457360493 -4.462819554963332 11.622896895458183 168 117 98 255
-27.901132799043609 -3.921729871818499 11.883247371218857 147 96 77 255
-27.578592675212889 -3.311418427388688 12.052480328075859 127 78 58 255
-27.715672335779601 -2.521103506317147 11.993742913159807 103 62 40 255
-27.760863904815864 -1.766639297184682 11.980642802525580 79 47 22 255
-28.173994133348145 -0.864203943602988 11.785106239262916 59 36 8 255
22.433398828733061 -8.134263759062861 37.062875328543910 173 126 112 255
24.335625213222926 -8.429248673267537 38.013303274402929 175 126 113 255
27.069825337758942 -9.126480328651240 39.375484821320100 170 122 110 255
28.326793348571016 -9.139912348050316 40.006276623943350 169 121 107 255
29.768981803049883 -9.248600584124986 40.728695156731561 166 123 106 255
30.195034002071594 -8.878444430748246 40.948159125556288 168 121 105 255
30.898508274791794 -8.644249711453242 41.304932614735662 168 121 105 255
-32.288939189310071 -6.117421177250918 10.517797610337823 204 162 142 255
-29.943123288691737 -6.254980795734440 11.683207626204336 206 159 141 255
-28.884484065888813 -5.916006935838396 12.213995236375993 197 148 130 255
-28.469595789578904 -5.336224141363914 12.427445120439870 187 136 117 255
-28.514736325366670 -4.581083086650196 12.414177117084108 170 119 100 255
-28.375818705469300 -3.897384521671867 12.491672005558883 150 99 80 255
-28.236873538007359 -3.214524865175690 12.569220168507428 131 82 63 255
-28.005822139450260 -2.568873910715567 12.692195969450239 106 64 42 255
-28.050999974520693 -1.814634811953752 12.679099341072430 82 49 24 255
-28.464666022726163 -0.912440147667851 12.484505134788591 64 38 11 255
21.627337150042393 -7.314364261333438 37.349140085327463 174 138 118 255
24.365196951298515 -8.004301994403050 38.704210144573850 169 127 111 255
26.548862707011182 -8.447841559912973 39.786602751917968 168 123 108 255
26.604848176712011 -7.891877080747093 39.822737415782896 168 121 105 255
28.882181823481602 -8.398820798575130 40.951025153603709 165 120 105 255
28.105358460899481 -7.448555175949821 40.577779534344387 162 117 102 255
-32.862101375170681 -6.060365256877418 11.092193317872756 205 166 143 255
-30.236389316777576 -6.301490332663036 12.386823316532343 206 162 143 255
-29.268221549141373 -5.927670718659826 12.869678281215442 200 151 131 255
-28.668341927787282 -5.418409376218690 13.172189869976890 190 142 122 255
-28.252608607098949 -4.841581605021616 13.384552022871006 171 123 103 255
-28.205488018753414 -4.123888977973806 13.416476203767004 154 103 84 255
-28.434974680473630 -3.298180794407656 13.313040910641590 135 87 67 255
-28.480131710053769 -2.543886971372658 13.299902268781040 111 69 47 255
-28.802027645291247 -1.679392293030588 13.151367502024740 87 53 28 255
-28.570566960984564 -1.034498890468868 13.273735975437020 68 42 15 255
22.023992756555600 -7.056091222665358 38.226175695031898 158 149 117 255
23.376610869240153 -7.099866501587130 38.895532302846803 160 138 114 255
27.324649259618667 -8.383586556259061 40.832493786674362 164 128 109 255
23.302348505629482 -5.882281390312954 38.876659143239550 160 126 101 255
26.510023500260758 -6.832231981820925 40.451876570847134 157 122 98 255
-32.421160721966629 -6.382597581631501 12.161114321137916 205 170 145 255
-30.068094042957824 -6.521743311926613 13.314350971140470 209 164 149 255
-29.282864911307541 -6.079417327216404 13.704885061383635 203 154 140 255
-28.220513875733019 -5.747607003488611 14.230199864919513 191 142 125 255
-27.988559847199753 -5.102027497427983 14.351645179664743 175 124 107 255
-27.756546679918955 -4.457836807410246 14.473155615019138 160 107 89 255
-28.078501305588333 -3.598424074117091 14.325328178481143 138 88 69 255
-28.308239111233462 -2.773505175188475 14.222415411346319 112 70 46 255
-28.907563085879048 -1.800672814703816 13.939882160533358 91 55 31 255
-29.137578499100215 -0.971966753281080 13.836990184449846 72 46 20 255
-33.640550174523099 -6.084234817451744 12.422335040468283 203 174 145 255
-31.284060529160882 -6.220793882107827 13.569426291938541 211 165 150 255
-30.128100344405965 -5.916009031390118 14.136389360215844 205 156 142 255
-28.971757534108093 -5.618034764564541 14.703513857015253 193 144 127 255
-28.184802400823997 -5.184644212235710 15.092172766448456 176 125 107 255
-27.767429520696254 -4.612584979338024 15.302309208660702 160 107 89 255
-28.182207921466585 -3.718121526603426 15.110535443573752 134 86 66 255
-28.782138742353169 -2.748505206915951 14.829421188941723 113 71 47 255
-29.752335013505700 -1.628824870109256 14.369587677227599 96 60 34 255
-29.242523218928767 -1.093989078742922 14.624586278951881 74 48 23 255
-32.780086465228266 -5.815708679755303 13.695491901061644 212 168 150 255
-30.789610602476074 -5.822669678613011 14.659060167367755 206 160 144 255
-29.353843146483229 -5.629623083946953 15.356371371908239 199 148 131 255
-28.473075122871620 -5.231696809829955 15.787339542570919 180 128 111 255
-28.055002271629832 -4.659837376310733 15.996306377998209 162 109 91 255
-28.470315933788498 -3.765610099544745 15.805473478675694 140 90 71 255
-28.793172728495591 -2.905325655253861 15.659080116071038 115 74 50 255
-29.208814021241182 -2.006518080487851 15.468258524533439 96 60 34 255
-29.161325916550908 -1.289790651939384 15.499671409034249 74 48 23 255
-33.723391458462316 -5.619145977162745 14.092220763111797 208 172 147 255
-31.266572873187982 -5.799373245632992 15.271491441992225 208 162 146 255
-29.735927392517539 -5.641215546233980 16.009227052181075 203 152 135 255
-28.668356052275016 -5.314290401016379 16.526224754612514 185 131 115 255
-28.527766435825782 -4.635447501150466 16.601449036806841 167 111 94 255
-28.479902769485108 -3.921353454707273 16.632536244754164 145 95 76 255
-28.339283989308484 -3.243904237874091 16.707877337860793 120 75 52 255
-28.662551734867435 -2.384125340640040 16.562245074235008 99 63 37 255
-28.893163851773267 -1.559346212771018 16.460839748037770 77 49 23 255
-29.680771120501362 -0.510168367729946 16.094161775275836 54 40 11 255
-33.461868850194065 -5.874149850437888 15.062970832569846 203 177 149 255
-30.722770156782900 -6.161110086639113 16.367775251525515 208 163 144 255
-29.560983999945478 -5.864444447199844 16.925774975664439 205 155 138 255
-29.234503331456750 -5.254698079334673 17.088356653559828 191 137 121 255
-29.093674950376140 -4.575252331931139 17.163101795063824 172 116 99 255
-28.859938104000236 -3.932726338581091 17.281872202481281 145 93 74 255
-28.440342666299699 -3.364277640229645 17.488650522377569 123 78 55 255
-28.392304420091904 -2.651769246850378 17.519629539530030 100 63 37 255
-28.716019117743514 -1.791941265888639 17.374753483694832 78 51 25 255
-29.132829316801946 -0.893033603698669 17.185912969043770 57 42 15 255
-33.663136720457743 -5.955463823506093 15.811911135935730 197 181 146 255
-30.919892561837884 -6.242785903916939 17.109690592385562 210 165 144 255
-29.849268094846167 -5.911285197728446 17.620935828610925 205 153 137 255
-29.801198683838805 -5.195122711247933 17.651425067280911 193 138 122 255
-29.288103321435955 -4.658308827526341 17.900588671774059 172 116 99 255
-29.239974225485724 -3.944096132187653 17.931209132759989 150 98 80 255
-29.005778002682604 -3.302868893222310 18.049351476127924 124 78 55 255
-28.957641740479261 -2.589756872382097 18.080091242012060 103 67 41 255
-29.002591768845804 -1.840017439013664 18.067143874873835 81 53 28 255
-28.954501223300866 -1.127154290297739 18.097991328324923 60 44 18 255
-32.512902690831908 -5.799545748958906 17.198532632115302 209 166 143 255
-30.882173013484675 -5.676007482120269 17.967783696486720 208 157 138 255
-30.089057719065607 -5.242166433118712 18.345885428575571 196 142 125 255
-29.668272143874816 -4.669736397140653 18.550158766887378 175 122 106 255
-29.340529641154859 -4.063688832705495 18.711030945619257 154 103 85 255
-29.385410032940996 -3.314163470628898 18.697990425218990 132 84 62 255
-29.150757964898474 -2.674222396439220 18.815509220989284 109 68 44 255
-29.195683846888784 -1.924964260363097 18.802578195214181 84 52 27 255
-29.147432971456084 -1.212577620305609 18.833209218936673 60 42 12 255
-34.016243964788117 -5.391405213058775 17.336706121137809 205 172 144 255
-31.077754656313203 -5.758125501227852 18.707124810281357 208 159 140 255
-30.003580985787693 -5.431321109871945 19.212879678355890 199 144 128 255
-29.302189395979582 -4.967567501191255 19.545773391052691 179 126 110 255
-29.253667931739045 -4.255394828061512 19.575968616651167 160 109 91 255
-29.205160379106275 -3.543505364136934 19.606221403870592 137 89 67 255
-28.876677335430230 -2.941729306706904 19.766341345886445 114 72 48 255
-29.014844905822628 -2.157421418097968 19.710176667671789 86 54 29 255
-29.339820024280272 -1.297972294836526 19.567494955889330 64 44 15 255
-34.775914071409062 -5.263246265684614 17.824556457763379 197 175 142 255
-31.646332252820031 -5.699203345697100 19.273480587856938 212 165 144 255
-30.290342704440633 -5.478326924768183 19.905464536957439 200 147 130 255
-29.587843603724679 -5.014750651887439 20.236491085329789 180 127 111 255
-29.258871000168739 -4.410985909635556 20.395538670886253 163 111 94 255
-29.116718094082984 -3.736451800992683 20.468612348887007 141 91 70 255
-29.068015923894080 -3.026123202340372 20.498719818184981 116 74 50 255
-29.393265004301924 -2.168536693201148 20.356727794248812 92 58 33 255
-29.625162512028879 -1.346185771670477 20.257804271343147 67 48 18 255
-35.817201968466946 -5.030177295936284 18.185961603985504 189 179 138 255
-32.028411054133500 -5.710798211984965 19.926327271904114 210 164 143 255
-30.763909594057139 -5.454276363453729 20.512016423802862 201 149 131 255
-29.873224459036436 -5.061919715028040 20.926741018304170 183 130 114 255
-29.637266556432877 -4.422283009690418 21.042069678843774 165 112 96 255
-29.401259575157468 -3.784011109896696 21.157477743760893 142 91 70 255
-29.446017920637331 -3.037279296410205 21.144562940512145 122 78 55 255
-29.397206009229564 -2.327143901694029 21.174506382857032 98 63 38 255
-29.629324211078114 -1.505818497483972 21.076081696006312 71 50 19 255
-32.410489596851590 -5.722389430779046 20.579173079182169 209 165 143 255
-31.144074481762431 -5.465746582852333 21.161584906403107 200 148 130 255
-30.252025162952833 -5.073284955083352 21.573970963139402 177 124 108 255
-29.921954878017431 -4.469630605844230 21.731160144908188 165 112 96 255
-29.498078638829355 -3.904212051002816 21.931001592960342 144 94 73 255
-29.355315175571633 -3.231428752714677 22.003243454932246 127 83 60 255
-29.493811755502605 -2.448832436511950 21.947844274589926 100 64 38 255
-29.726167650269389 -1.628259670986026 21.849914800210939 76 53 22 255
-30.615175865820760 -0.544397651758189 21.453958753995920 55 41 9 255
-32.417377213215474 -5.874948099934272 21.401253007578589 200 169 138 255
-30.961356673419658 -5.690292472543959 22.065034480730247 203 151 134 255
-30.161676848812618 -5.263563997115128 22.432793307738649 179 126 110 255
-29.830985878111022 -4.661180859651552 22.589076094767918 165 114 95 255
-29.406352662454680 -4.097029007351395 22.787778227610431 147 98 77 255
-29.169365778199818 -3.462121266157837 22.901917510604420 129 84 60 255
-29.214018791622692 -2.717954232093078 22.889129586561964 103 68 42 255
-29.634370652598051 -1.824938332289392 22.707031789862384 77 54 23 255
-30.712401194368823 -0.667575174952333 22.228530985513473 54 42 13 255
-32.423167940159857 -6.027467349956908 22.221457980905427 193 172 136 255
-30.401189933866561 -6.056819217415651 23.133989274025097 203 153 134 255
-29.412188096264771 -5.704254564880003 23.583861066687874 176 123 107 255
-29.174747123827814 -5.068985780671099 23.697182966980108 165 114 96 255
-29.313258418169852 -4.289792262060672 23.642215488252262 155 105 83 255
-29.357838303211935 -3.546378104749422 23.629392841136138 134 89 64 255
-29.590535882848286 -2.728953651260227 23.532422157970089 104 68 42 255
-29.917401618246430 -1.873016708225975 23.393383714704541 81 57 28 255
-30.808809904698222 -0.790708271842334 23.001705538367546 53 43 14 255
-33.650798229256765 -5.721893831395604 22.495868049428168 186 174 135 255
-30.685075341812222 -6.103705207998530 23.821655578040691 204 158 137 255
-29.412245003486618 -5.858626101202958 24.394510961612895 176 122 106 255
-29.174338155879894 -5.224358912730438 24.507158208625384 170 115 98 255
-29.218796239318323 -4.482500580545278 24.494313795725503 159 109 87 255
-29.639919709372663 -3.594013557779562 24.314072798764499 133 90 64 255
-29.967058186606636 -2.739934989433507 24.175721456410869 108 74 47 255
-30.200164258401657 -1.921067134046453 24.079274792909700 78 54 25 255
-31.092806395066845 -0.838989999125502 23.689728024553915 57 46 18 255
-34.033015539544550 -5.733461853774330 23.148947689693713 178 172 131 255
-31.345589452035682 -6.008567219496214 24.342412983627185 202 160 138 255
-29.976656393566401 -5.798320044464219 24.953597806402399 188 134 118 255
-29.455608462572826 -5.271556584730519 25.190402893889086 179 123 106 255
-29.594336526776459 -4.493582894440081 25.135950779121771 160 110 89 255
-29.921731598084278 -3.641623416294649 24.998290158898044 133 90 65 255
-29.966359901688151 -2.898321760492863 24.985563510782868 107 74 47 255
-30.105367573175073 -2.117598285046640 24.931259556718501 76 52 23 255
-30.904839919568957 -1.074234990574013 24.585506865724597 54 43 15 255
-35.641735925285531 -5.287075482763726 23.264200455526378 177 170 129 255
-32.384378376928936 -5.771453357471373 24.699073933166005 200 160 137 255
-30.919133947284735 -5.594944827812128 25.348101795110779 192 140 123 255
-30.114187732307954 -5.174575194347639 25.707641036373047 183 131 112 255
-29.875470041267619 -4.540958069870641 25.818983438204356 164 115 93 255
-30.108846943396458 -3.725787346253824 25.723440336318731 142 101 74 255
-30.247901476483065 -2.946099133983410 25.669339990777800 108 77 49 255
-30.575966203891284 -2.091325849214812 25.532484931493002 74 51 21 255
-31.093140448933440 -1.159828195049812 25.312848623420393 61 47 20 255
-33.330590093638108 -5.569877000475898 25.100159786511853 200 159 138 255
-31.485197102514206 -5.534659485487040 25.910007447412397 190 140 123 255
-30.868126009921667 -5.041566679426680 26.185138859498934 174 124 105 255
-30.818172372086025 -4.334165510531093 26.213462330817080 156 108 86 255
-30.862806903247900 -3.590452818789515 26.200697184754461 146 104 79 255
-30.718337002532820 -2.920149842056645 26.270325878581104 114 83 55 255
-30.857652125080591 -2.139276384688273 26.216528220209852 82 58 30 255
-31.375514012790603 -1.207988535461780 25.998089443517046 62 48 21 255
-34.089176791778328 -5.439313248510402 25.585875504986433 204 159 138 255
-32.525077470080902 -5.295574927508611 26.268293868977395 190 139 118 255
-32.001842931184825 -4.764449319179917 26.500849444460812 173 126 105 255
-31.478469448115817 -4.236306967035787 26.733524594353085 146 100 79 255
-31.428466795738785 -3.528274563175572 26.761689065115519 124 85 59 255
-31.378490008753175 -2.820496277250513 26.789928003002601 105 74 45 255
-31.896946686254495 -1.890268195658550 26.572630004641411 88 64 31 255
-31.941874151046733 -1.143952045678603 26.560053226435798 74 55 23 255
-35.701829302346852 -4.989402365162420 25.707411559650296 201 155 136 255
-34.040832824717228 -4.877750813492071 26.426476785230562 190 139 120 255
-33.896210492362144 -4.199163144011166 26.494855607761124 173 123 105 255
-33.182644546402884 -3.739174906481026 26.807441445613890 146 99 79 255
-32.563715670874359 -3.246674833366058 27.079476083895145 119 80 54 255
-32.039473579258612 -2.720841340040224 27.310946112087464 104 74 44 255
-32.084326010232218 -1.975293512427825 27.298333207606376 94 68 35 255
-32.129240624442986 -1.229435067212123 27.285789211432444 82 59 28 255
-36.084207284592168 -5.000830344791652 26.360748418446974 198 153 133 255
-34.325829378278712 -4.924777008008292 27.116054394907167 189 138 119 255
-34.085988532290997 -4.282393933120815 27.224434292222696 172 124 105 255
-33.086429847422011 -3.931714966473677 27.656531523312097 145 99 79 255
-32.846381403021752 -3.294199444789669 27.765139098171019 124 85 60 255
-32.321318543382944 -2.768528925907844 27.995229155184660 109 78 48 255
-32.746209368178000 -1.874735452635349 27.820777576409597 105 76 43 255
-32.791193798223020 -1.127975130401367 27.808244850678008 90 65 34 255
-36.276492946923867 -5.083192360718456 27.094498896531604 198 152 134 255
-34.705621116249773 -4.936026459678402 27.764960260435160 188 137 118 255
-34.465385294187371 -4.293548435383158 27.872655360304776 174 124 106 255
-34.034917263929827 -3.725002332708669 28.060883792214398 151 104 85 255
-33.604346977043150 -3.158884327743536 28.249228014465729 130 91 66 255
-32.983416211112541 -2.668850645828044 28.518144059739029 116 83 52 255
-33.028341562598513 -1.922586259647275 28.505569863701453 110 80 46 255
-33.168493641003039 -1.138632741196290 28.452831203983934 94 67 37 255
-36.944161628537444 -4.988154196285379 27.627467089539763 197 151 133 255
-34.990216774096012 -4.982996939353669 28.453847667702078 190 139 122 255
-34.463916952618689 -4.448737199125887 28.680802292453080 173 124 107 255
-33.747013860683268 -3.990027328848029 28.987850906398549 152 106 87 255
-33.982416360305052 -3.169801392787278 28.895157471308465 134 93 68 255
-33.836879804807353 -2.495509110926250 28.962490774934992 120 85 53 255
-34.072474745326389 -1.673597424808619 28.869924023521364 111 81 46 255
-33.831703151039704 -1.037141706960611 28.977425235888376 97 73 39 255
-38.851851603098140 -4.432027327389562 27.645283033395799 198 150 135 255
-36.799964928329672 -4.458102722326728 28.506427212720155 188 139 124 255
-35.605619027189363 -4.171740216633594 29.010142299593412 171 124 108 255
-34.887768202957176 -3.710741036151092 29.315301430104611 152 107 87 255
-34.932820603556223 -2.961369848041727 29.302572615118692 135 94 68 255
-34.596321130668031 -2.358999874312204 29.448953223286566 121 86 55 255
-34.832278424922237 -1.535917915239864 29.356864460684889 110 80 47 255
-34.495747639422433 -0.935638362044202 29.503441471569275 100 73 41 255
-38.854742257222568 -4.585295441666560 28.460632739505456 198 149 134 255
-36.608839558322217 -4.683749176010622 29.395673034885235 185 138 122 255
-35.890093371858740 -4.218839470376821 29.698838250245785 170 123 107 255
-35.457674788573200 -3.649156226445371 29.883605022180689 149 106 86 255
-35.693830912193590 -2.826052762255600 29.791852702672202 134 94 67 255
-35.547952878339089 -2.148847348680704 29.858255669767416 119 85 54 255
-35.784306308178571 -1.324049720774738 29.766637324143858 105 75 44 255
-35.542923625645329 -0.684665194154832 29.872746629943066 99 72 41 255
-38.187363952081142 -4.986727865347405 29.548984713957481 198 148 134 255
-36.798528016613005 -4.766393876865990 30.125028944853909 184 137 121 255
-36.269931041611386 -4.229898797192348 30.347799712759127 169 122 106 255
-36.315076458718039 -3.478734413238939 30.335015219394677 147 104 84 255
-36.264624863954367 -2.763824683658783 30.361592426491683 131 92 65 255
-35.927171836478948 -2.159607369859742 30.506126436613272 115 80 50 255
-36.259519018984207 -1.297632880061386 30.375712653049590 102 74 42 255
-36.113477958904554 -0.620507245810145 30.441847186383669 94 74 39 255
-43.023466519075697 -4.100446639320651 28.381596732640986 197 164 139 255
-39.718857832839859 -4.572547798338377 29.734437950542286 196 146 132 255
-37.466427238112516 -4.670356057497344 30.658270766039777 183 135 119 255
-37.320143737325537 -3.988936531294527 30.723478834235053 165 118 102 255
-37.556991480506923 -3.163239396120588 30.632595829155605 148 105 84 255
-37.793970838555168 -2.336163655598853 30.541772498553570 128 90 63 255
-37.647821014403888 -1.654949969155112 30.607233087851299 111 77 49 255
-37.405842926449708 -1.011593190984229 30.711852542145479 103 76 43 255
-43.508440719132778 -4.076815026429571 29.007648647492772 197 163 139 255
-40.199068174134965 -4.548410739372784 30.352306878935394 195 146 132 255
-39.189920310385986 -4.181353462279318 30.766097033022618 180 133 117 255
-39.043612959811270 -3.496034333467819 30.830798458311648 163 116 100 255
-39.089146804567093 -2.738982522885181 30.817972740754357 147 104 84 255
-38.846939045545383 -2.091247138159403 30.921677379845704 125 87 61 255
-38.412796620240698 -1.518452798701389 31.103133168941184 103 72 43 255
-38.074529999221880 -0.910977881971007 31.245890703219459 99 73 42 255
-43.609728259564321 -4.193870660384263 29.788415601804118 197 163 139 255
-40.583552868324006 -4.559698891697295 31.009219065823999 196 145 132 255
-39.860992529688104 -4.085343939525785 31.304752336364515 178 131 115 255
-40.578851811102169 -3.075189868000024 31.021840680788017 161 114 98 255
-40.240377039507763 -2.459831739874360 31.163301315027738 143 100 79 255
-40.286135074804832 -1.700212187380885 31.150551023211591 118 80 54 255
-39.851513501625533 -1.124309663251395 31.330818435588725 102 71 42 255
-39.512906268102057 -0.513727837471478 31.472623954479644 93 70 38 255
-44.767622991829143 -3.923965957354753 30.146212285667247 196 165 139 255
-41.737210986751705 -4.287400047799551 31.359506051887223 192 147 127 255
-40.917545261119045 -3.846461749514233 31.691490053722475 177 132 113 255
-41.251791066046422 -2.978284598197732 31.563572325928106 159 112 94 255
-41.297620169172006 -2.216963233334241 31.550739852019603 135 95 73 255
-40.670043629249079 -1.711048991995924 31.806426933270330 112 77 51 255
-40.234763885562046 -1.135023525608588 31.985557445141382 96 69 39 255
-39.895636746529789 -0.524321242008341 32.126462108308843 80 69 32 255
-49.104513851334701 -2.493512113272701 29.250780829015611 195 163 138 255
-43.278204638662913 -3.873369474632497 31.561174679919588 191 145 126 255
-41.976029464418247 -3.607598570038192 32.081523287254058 177 132 113 255
-41.829250127619758 -2.917347224874945 32.144830586448649 157 110 92 255
-42.453128865016851 -1.937854518289001 31.903368417275317 131 90 68 255
-42.113794938653740 -1.320058877001884 32.043072887343541 104 72 45 255
-41.678038474130204 -0.740920147334705 32.221018553841219 91 66 35 255
-49.596517966001926 -2.469956297525044 29.888828114926724 194 164 136 255
-45.208180854906487 -3.317652878783065 31.617038671649553 189 144 123 255
-43.229318432397832 -3.297337151099597 32.399122357850530 176 131 112 255
-43.082438543331051 -2.604532516353245 32.461953108967180 154 109 89 255
-43.417909009764543 -1.731266307188207 32.335515372551114 125 87 64 255
-42.788697804218288 -1.221285161066291 32.587929307451020 96 66 37 255
-42.545338020934111 -0.567616603685309 32.688960717686811 82 61 28 255
-49.606103175150423 -2.622176153503418 30.715467071692501 193 162 134 255
-45.983873547590434 -3.187212217971862 32.131935572228215 188 142 121 255
-44.291942668180951 -3.058513368482423 32.796219236635579 172 130 108 255
-43.565392381977603 -2.579545900092327 33.084398304328488 147 104 82 255
-43.804713890027386 -1.742159357131456 32.996336366552839 116 80 54 255
-43.657684926427606 -1.049451597969949 33.058924515052922 88 60 31 255
-52.031551604693703 -1.895397628158108 30.605559119304843 194 163 135 255
-45.793733548390293 -3.411045585049052 33.022644842544821 188 143 122 255
-44.195974041951359 -3.248098189761464 33.645375746776978 170 128 106 255
-44.435543031461094 -2.410637986186444 33.557726973801607 148 105 84 255
-43.998047870254965 -1.825491309997432 33.731990174143093 110 77 49 255
-44.721580660440537 -0.804578921648641 33.457466549547490 83 58 28 255
-52.720101475312930 -1.801500349346725 31.174266987143994 196 164 136 255
-46.086117919169425 -3.457666705396150 33.724770601881914 191 144 124 255
-44.970277994953193 -3.116337286558149 34.157747024426328 170 124 101 255
-45.113353031970661 -2.313656840184876 34.107754387750674 140 101 78 255
-45.450296803586951 -1.437653967095898 33.983501687392419 101 69 41 255
-51.179584212767708 -2.516012588458707 32.593529169054165 193 162 133 255
-48.123678012073725 -2.866666963672401 33.761827114278759 187 142 121 255
-45.357754944840991 -3.127328489436508 34.819725655372537 165 119 96 255
-45.792002870487892 -2.216650230834404 34.659210719752124 131 94 70 255
-46.711546913788965 -1.122320140605439 34.314068735048494 97 68 39 255
-52.546279487983412 -2.175965745660847 32.902905203857998 194 159 132 255
-48.612224492310901 -2.842417967027046 34.393896150570953 186 141 120 255
-46.910714885174883 -2.710014898368613 35.041405031793204 159 116 93 255
-47.054325234319123 -1.903858419502797 34.991909761845619 128 95 70 255
-47.975286040279883 -0.807001849782907 34.648881521426631 91 68 38 255
-52.846240069895913 -2.222503266758125 33.617938747001773 196 160 133 255
-49.684520150057807 -2.605651654900171 34.807729084192005 180 138 116 255
-48.758763801203798 -2.185690671769734 35.159357171454502 153 115 89 255
-48.805515557990901 -1.411303620627109 35.146536595363870 120 90 64 255
-49.046930889328706 -0.564151482210079 35.060877791242660 84 69 35 255
-52.951214807213233 -2.339257413344129 34.404956508423979 199 161 135 255
-50.856134494101269 -2.333479485459804 35.188647361935637 171 129 107 255
-50.708344683861839 -1.625748211297463 35.248143017943733 146 110 84 255
-51.242459843771343 -0.667136195073809 35.054151719628493 112 85 58 255
-56.907581372094484 -1.845242834049017 33.764719420625340 197 163 135 255
-53.542889465485672 -2.280268831825254 35.010685855262054 201 162 136 255
-51.542375369626740 -2.238339902003545 35.753269843940984 181 139 117 255
-51.784531620276283 -1.386960922885336 35.668369258990907 140 104 78 255
-51.929283560662412 -0.570137442355673 35.619545812785717 109 84 56 255
-54.868763939035063 -2.728182155414260 35.344616907488955 198 153 132 255
-52.768194627730423 -2.713054679165793 36.117831565340097 174 127 106 255
-51.838840370027043 -2.284771589131452 36.462330620282088 171 127 104 255
-51.885949437649771 -1.504895795050686 36.449463404654068 155 117 94 255
-52.519265455096814 -0.509045505791320 36.222137585095908 118 93 66 255
-62.208609270587061 -1.844445195512790 33.495859305341583 193 172 133 255
-57.272252898558207 -2.801092699226913 35.292824903080486 201 159 137 255
-54.289492857218676 -3.088058151015005 36.380203233814228 207 157 140 255
-52.674655230310833 -2.899811510509295 36.970792090507615 204 156 136 255
-52.232843742439428 -2.295740113368026 37.135434378888164 155 110 89 255
-52.573416271992556 -1.408734112881618 37.016054066030620 133 95 72 255
-52.914170165602997 -0.519787461126256 36.896751091259503 112 91 62 255
-59.387252245717860 -2.988396068134662 35.356894465523084 193 169 135 255
-57.184038067222190 -2.985467126430237 36.154579365439787 200 156 138 255
-54.392772154590233 -3.203847229335523 37.164214875933339 205 153 139 255
-53.265154032714491 -2.840618497238282 37.574492123035412 200 152 132 255
-52.822727606788618 -2.235861250649577 37.738003960278832 168 123 102 255
-52.869947408591059 -1.455193062972327 37.725230865252570 127 90 67 255
-53.309099578478168 -0.530464636035859 37.571398975196274 96 77 45 255
-61.456906382306641 -2.416849379354531 35.450997252169373 196 165 135 255
-57.094470921121996 -3.169744653473330 37.014016492655088 200 154 136 255
-55.769686446196062 -2.866550263636952 37.491343376400195 201 153 139 255
-54.052323918309156 -2.711143914692613 38.109073582879773 204 156 139 255
-53.315117317280027 -2.211324374326509 38.376591473475031 194 149 128 255
-53.068145735423201 -1.537241062321755 38.469025173506267 152 112 89 255
-53.311657393452180 -0.684807971839433 38.386309658112225 106 85 54 255
-58.868488190322552 -2.697072647833991 37.209940141507303 199 151 135 255
-57.051196600393752 -2.564111305309709 37.857995546247707 200 155 139 255
-55.036989673651675 -2.511408127686920 38.575945200884064 207 162 143 255
-54.200621045117913 -2.045186244076930 38.876428788904775 204 159 138 255
-53.462261264656860 -1.547891565254659 39.142282162884015 186 146 123 255
-53.509617549665478 -0.767193282780269 39.129738181591790 129 104 74 255
-66.101647643511200 -1.102498836166887 35.490391111112132 189 169 130 255
-60.842953511680179 -2.155312123451154 37.343327678007185 202 152 131 255
-59.318281782605737 -1.913289418480687 37.883200847566187 202 154 138 255
-56.908248034749107 -1.995658241606378 38.734495045499870 208 162 145 255
-54.792500411580392 -1.985164454158323 39.482383710314394 206 161 143 255
-53.758046561008342 -1.594126588922691 39.850160513864239 197 154 136 255
-53.510309147355628 -0.921344370232688 39.941443909443620 160 124 100 255
-65.135257224465903 -1.594234714621919 36.673784796080611 177 157 118 255
-61.246970596213117 -2.166623658608515 38.033546244101473 167 111 92 255
-59.818590627744555 -1.889574808132039 38.535389089444863 210 159 143 255
-58.291341327700110 -1.655486154349390 39.071815456250363 207 163 146 255
-56.665173760617648 -1.465167414880440 39.642838663560894 210 163 147 255
-54.940038789452984 -1.319429011415977 40.248471770844972 203 157 141 255
-53.903977417403638 -0.931702942870430 40.613903418394216 176 136 114 255
-65.643295924185082 -1.571475231287877 37.339266911855987 180 160 121 255
-61.946711523243238 -2.074188783247649 38.621510103617908 139 83 64 255
-60.812113587402820 -1.691642333060955 39.017578115015937 150 105 87 255
-58.888415042455250 -1.596141261225100 39.686707854995149 203 160 142 255
-58.147532282616822 -1.086707533236506 39.946808898130826 212 160 146 255
-55.729729625872920 -1.187302273571291 40.787034646920432 205 156 141 255
-54.297677056728702 -0.941985171779066 41.286407290747547 187 143 123 255
-53.358545317786792 -0.523543645743231 41.615411314854924 122 96 62 255
-65.855573545842645 -1.651506903566485 38.106826098983987 168 142 104 255
-63.042116444254788 -1.843483441250427 39.075469595866053 136 80 59 255
-62.498350922798608 -1.249890816441010 39.265554527251936 125 91 65 255
-60.868376099014910 -1.045348275468839 39.828386539580663 196 156 137 255
-57.855390280971477 -1.344933159087830 40.865736533559712 207 155 141 255
-57.211936264699403 -0.805625529266919 41.090361519155152 207 155 141 255
-54.592623590971044 -0.988103857492661 41.992841613766672 198 151 131 255
-53.553349317954400 -0.605944460097135 42.353460305942804 159 125 93 255
-67.154396540835165 -1.354367741068870 38.503630716524583 165 149 105 255
-64.633674770689112 -1.439998185024322 39.364613318181000 117 75 46 255
-64.089329731449567 -0.842985330956154 39.553301450372771 123 111 76 255
-60.974161739837740 -1.161412469597465 40.616704482189249 193 157 137 255
-59.341380964048454 -0.966414908171458 41.175892787848341 206 154 140 255
-56.719062928810018 -1.136739100536914 42.071796266086750 204 152 138 255
-54.491636625950349 -1.177781087271981 42.833452677659693 197 149 129 255
-53.648699619543805 -0.724432173756540 43.124275131258059 180 143 112 255
-66.129579350525802 -1.071075634263295 39.692819828504796 89 84 38 255
-60.929453655293941 -0.552531616999374 41.457850849039133 205 153 139 255
-58.204633354835352 -0.754986361227679 42.380849462601986 202 149 135 255
-54.488372640634935 -1.331431329277521 43.638354114533740 190 140 122 255
-54.139571974668087 -0.698091331429040 43.760059924194692 184 144 116 255
-57.610452293972884 -1.121508551170677 43.391807796900082 200 145 132 255
-54.880839205963667 -1.341348666630992 44.308711939214732 195 148 129 255
-54.432328540434327 -0.744023504954029 44.462737967554844 153 119 88 255
-63.371773503106141 -0.772211437247051 42.281911661403811 189 155 127 255
-60.143507821427278 -1.139040307466942 43.356288466474297 170 119 102 255
-57.510155849597908 -1.309728425733965 44.233422084105996 201 150 133 255
-55.174009389934355 -1.387078722576064 45.012071068037017 202 153 133 255
-55.221611082152577 -0.608989471492038 45.000257279667409 127 100 64 255
-62.085365249580462 -1.379068512951434 43.527496942930100 168 131 105 255
-59.150658211138108 -1.644198099417977 44.496171900162807 167 114 97 255
-56.115595305188293 -1.960955691610323 45.497931518302408 196 145 124 255
-54.969581476416266 -1.612200273505678 45.878572745531699 174 128 105 255
-55.315608664825476 -0.727081755740812 45.768718408374568 81 72 28 255
-66.021987149643479 -0.931693102007031 43.057194029437653 164 128 92 255
-62.984652610978657 -1.214008580379740 44.050964797997437 130 83 61 255
