ply
format ascii 1.0
element vertex 645
property float x
property float y
property float z
property uchar red
property uchar green
property uchar blue
property uchar alpha
end_header
-36.807005816952277 -2.844311184844003 -39.153467556004955 197 149 127 255
-36.486393950862613 -2.971120591706949 -40.298838770781202 194 149 128 255
-36.045970830255804 -3.507221899140916 -41.747554694421410 201 153 133 255
-35.630345877189733 -3.968544185759754 -43.130089754471072 206 158 138 255
-35.119372280663249 -4.761541481829568 -44.751998149672488 205 156 139 255
-34.801227887875264 -4.909190927279440 -45.881144214199111 202 155 137 255
-34.579458969337431 -4.733779447032077 -46.764211117580629 201 155 139 255
-34.453769857840889 -4.232767158979016 -47.403176832540538 170 124 108 255
-34.184707160239221 -4.226254976278767 -48.403548516052354 169 123 107 255
-33.796608139605873 -4.635569728708276 -49.702177137710351 194 148 132 255
-33.504641814654725 -4.719697953190064 -50.756382433374824 204 158 142 255
-33.165462804193304 -4.973488900375003 -51.927297163795544 197 151 135 255
-32.945939100172247 -4.816441524912818 -52.796074011808997 200 153 137 255
-32.774324605489504 -4.495345218653142 -53.543774112513887 197 154 137 255
-32.769310446314115 -3.591269387228863 -53.874559240336652 196 153 136 255
-32.645464530031681 -3.104693329832344 -54.502299588739589 190 147 128 255
-32.687777538631074 -2.031329197164496 -54.716091135744165 172 133 112 255
-43.487170464539084 -13.656164508359268 -7.123347853930881 197 170 138 255
-42.513505892064124 -15.564465494772151 -10.117293091684900 163 120 99 255
-42.257516797041752 -15.360840524608591 -11.147017318880415 187 140 122 255
-42.026505394672633 -15.086729981494784 -12.107183480570285 203 156 140 255
-41.795761064518025 -14.815278115592321 -13.065274703642018 209 162 146 255
-41.368379281794894 -15.138441475544511 -14.555857212472944 211 163 147 255
-41.236724838208112 -14.577179187190211 -15.241853577485870 210 161 145 255
-40.982324753742127 -14.388973402855783 -16.259548261098104 197 148 131 255
-40.826402974964147 -13.905322831690285 -17.009540586376005 188 140 120 255
-40.621577882697501 -13.572745036572798 -17.890769242249632 181 135 112 255
-40.563916363169632 -12.792059052424463 -18.374294483129745 173 127 104 255
-40.652974493895918 -11.559441867989250 -18.463093655401110 169 123 100 255
-40.766107259565111 -10.248479885549955 -18.488456497890382 153 106 86 255
-40.805579824945546 -9.161312894400965 -18.712867764558013 133 86 67 255
-40.820397442735718 -8.148039773802680 -19.004175064186057 113 66 52 255
-40.859367417375786 -7.057060769789160 -19.231548820509602 125 84 73 255
-40.946757846634206 -5.811408863619192 -19.330483207982354 53 26 14 255
-40.766308200270039 -5.404868873956559 -20.144840540489952 19 7 0 255
-40.294545406643486 -5.921197151806041 -21.733839836696262 3 1 0 255
-39.944899144037215 -6.059587581562312 -22.994935848345619 0 3 0 255
-39.315310756405815 -3.233882821152406 -26.315335475577996 19 3 0 255
-38.919524167726244 -3.547629874632833 -27.688749688186675 147 112 95 255
-38.668941133458624 -3.396284678740813 -28.677688881038165 190 143 123 255
-38.466842403851949 -3.090683252440272 -29.537865825914622 173 127 104 255
-38.289036758864619 -2.708427718548307 -30.333292060293672 133 90 68 255
-38.183489288508646 -2.090708129624204 -30.938752756347554 102 59 40 255
-38.125984004161374 -1.314915368444076 -31.418423939325152 92 55 32 255
-38.044465046395707 -0.618307751036639 -31.960873150995525 105 77 51 255
-37.627726605705597 -1.037901536166601 -33.376297873731147 112 92 62 255
-37.283449731743111 -1.223717978823231 -34.600444243557547 135 113 82 255
-36.796356042316397 -1.895154962167794 -36.193078596574509 145 114 87 255
-36.548819252374606 -1.770312527621115 -37.161374265093883 164 129 102 255
-36.182412788234366 -2.051363699429771 -38.435801452564334 188 147 121 255
-35.792792859859610 -2.418360378726845 -39.767743319423232 190 143 120 255
-35.284850337071624 -3.195899848377223 -41.402196696794476 195 146 124 255
-34.920442886755659 -3.493920339604017 -42.663411241393561 198 150 129 255
-34.580392911145118 -3.715683545027389 -43.859567954022708 192 144 124 255
-34.288349205609997 -3.778926342543230 -44.930285139883438 185 136 117 255
-33.854587097912621 -4.337075225373724 -46.362260881546234 168 120 105 255
-33.563622148544347 -4.409348823417588 -47.425948075189069 197 150 134 255
-33.060294495653032 -5.225839666604315 -49.030075917586430 213 166 150 255
-32.746863715969916 -5.390237534351627 -50.146468960297199 211 164 148 255
-32.433951298298076 -5.558928701789625 -51.259520478986502 208 161 145 255
-32.121558286015691 -5.731910058451717 -52.369233043481387 204 157 141 255
-31.856783559924473 -5.742967622248614 -53.356157381169879 207 160 144 255
-31.757101300696611 -5.174246954591638 -53.923476328323176 203 160 143 255
-31.774995350515304 -4.188364137137796 -54.193441241595934 196 153 136 255
-31.769247547319843 -3.284582825826362 -54.523916413691040 184 143 123 255
-31.833734318403238 -2.127732180840837 -54.678139142732505 161 125 103 255
-32.015086555072820 -0.547584966536363 -54.539785455043614 137 107 82 255
-42.083085500003413 -15.128863458115205 -8.369757254706229 161 131 97 255
-41.412920827558345 -16.163555023673240 -10.551376624658133 181 134 112 255
-41.305543102926414 -15.521452729503295 -11.175931534652193 157 107 88 255
-41.100607810930335 -15.174144198223530 -12.068800382479310 204 157 139 255
-40.944629567495319 -14.681514289574636 -12.825889282361686 211 164 146 255
-40.520978349075513 -15.004163578329781 -14.317269932671849 209 160 143 255
-40.438474499958666 -14.294031558106838 -14.870313349237136 208 159 142 255
-40.161581807987069 -14.179333091226823 -15.955436758666423 198 150 130 255
-40.054955825945207 -13.545748261834859 -16.573333396294458 189 141 121 255
-39.851372439853243 -13.212060239978968 -17.455570538478270 183 137 114 255
-39.793342723587593 -12.430289569844405 -17.939915105214311 173 127 104 255
-39.856226281302845 -11.271878370633232 -18.095203949538899 162 116 92 255
-39.894622169660870 -10.186507365428810 -18.318081625925430 151 105 82 255
-39.932752854111392 -9.099124338452725 -18.542522943747343 135 88 68 255
-39.850007636972300 -8.389240968862566 -19.095344350564261 134 88 71 255
-39.935930404767653 -7.146667913496543 -19.191689390318828 109 71 55 255
-40.117783985035992 -5.595928585324828 -19.030127189360172 46 21 7 255
-39.938358331829512 -5.188715950673839 -19.845124039761771 17 6 0 255
-38.990371836560293 -7.239345224274558 -22.729184961719483 3 3 0 255
-38.980102910688807 -6.303795761319435 -23.084313703306464 0 3 0 255
-39.104760576188774 -2.005290430466573 -24.066725582419338 22 6 2 255
-38.377300851491434 -3.403139289041235 -26.338877718648718 65 36 21 255
-37.889675992051032 -4.030187898114150 -27.966566761501639 163 124 107 255
-37.712619672634865 -3.644734911171383 -28.764600767084232 180 133 113 255
-37.559562015232309 -3.182422370388679 -29.498015667153624 161 113 91 255
-37.525532556222579 -2.327130428123894 -29.915100772744580 122 80 57 255
-37.515157521869433 -1.392010985047762 -30.269878240040896 80 41 20 255
-35.142443410817499 -1.704122666806200 -39.113048354294648 131 106 75 255
-34.521486835888517 -2.884627802028774 -41.056563744452490 163 125 98 255
-34.136716618947041 -3.262958632653010 -42.380049467542079 163 117 95 255
-33.869998914004789 -3.239818834218681 -43.393819412604813 148 100 80 255
-33.486425837128557 -3.628251971356065 -44.709440025094153 177 127 110 255
-32.892653145589570 -4.758759989294504 -46.567422874082865 218 169 154 255
-32.487223282636684 -5.242288124380309 -47.933463459775425 214 167 151 255
-32.059127225450872 -5.814063991279795 -49.355255140859327 216 169 153 255
-31.841989383602630 -5.650043986016954 -50.229797612890451 213 166 150 255
-31.531850792399418 -5.819342675582845 -51.342659703199502 208 161 145 255
-31.245536572365204 -5.910042529112729 -52.392260138408261 207 160 144 255
-31.052816273203582 -5.672202239703154 -53.199823456431858 207 160 144 255
-30.999907218108071 -4.936657855818510 -53.648141240589098 204 159 140 255
-31.086366578488075 -3.699603606505491 -53.740177315287127 194 149 130 255
-31.056476281583706 -2.878321554795605 -54.130795588219513 171 130 109 255
-31.096065270736382 -1.804406107741841 -54.344737331464785 149 116 91 255
-31.181755570999520 -0.560111074473582 -54.442420028633563 129 102 74 255
-41.681772528975095 -13.611574473181463 -6.841210250835474 145 144 98 255
-40.775804609667482 -15.373021984654372 -9.702554111429549 188 147 122 255
-40.354491128541930 -15.682072024140751 -11.204936876387848 181 134 114 255
-40.054467420528461 -15.629379523152323 -12.366519381128541 205 159 138 255
-39.947668304260652 -14.990433286764954 -12.988638628578144 208 163 142 255
-39.720509049923429 -14.721953339329303 -13.944755366729851 209 163 142 255
-39.565775226478756 -14.233537438702285 -14.698641660194909 200 153 133 255
-39.387137630856891 -13.820918538845376 -15.517997478880631 195 148 128 255
-39.232676337145257 -13.335486501257037 -16.269552190129389 190 142 122 255
-39.174251451124924 -12.552094855857291 -16.755137447459816 182 134 114 255
-38.972038248435020 -12.218682628643023 -17.637300240625564 175 128 107 255
-38.961477950800436 -11.285416510305311 -17.990592316883124 164 118 95 255
-38.902943490936771 -10.501935204464928 -18.476236994373636 148 102 79 255
-38.915978228930392 -9.491083711012692 -18.765441716882236 147 101 81 255
-38.881090620824089 -8.630442492782549 -19.186667945038408 128 85 65 255
-38.941405985497987 -7.464622908548904 -19.347547163661034 95 58 40 255
-39.072824052323590 -6.067401075569762 -19.315126759478062 47 22 7 255
-39.013545581239477 -5.278751156799842 -19.804781636888094 14 1 0 255
-38.336575150060106 -6.485211886560762 -21.977752636230207 3 1 0 255
-39.582984925358723 -1.468701123200731 -18.912325453362143 0 1 0 255
-38.693115874512593 -3.373957924978242 -21.661608219209654 1 1 0 255
-37.829543990292400 -3.263553288387413 -24.984545565722868 148 125 112 255
-37.322208714645818 -3.962499867433905 -26.681228289385416 153 118 103 255
-37.051579481955194 -3.886872117190762 -27.736104783792996 177 134 118 255
-36.781345238308525 -3.814741483287150 -28.788256573524251 176 128 108 255
-36.605635946280195 -3.431486524549598 -29.584693346403952 151 103 81 255
-36.665200111567096 -2.261362884077641 -29.748898161174566 119 74 53 255
-36.865365494196944 -0.614329461645070 -29.537492407931069 69 30 9 255
-34.011738001986650 -1.682589437393688 -40.034872638369876 114 86 57 255
-33.397755137446943 -2.869650026657553 -41.973934663773150 179 133 112 255
-32.947399044020507 -3.496678215084046 -43.477618864673133 211 163 146 255
-32.474666113960687 -4.212172580293498 -45.036911742648158 214 167 149 255
-31.840665850589936 -5.507739934329663 -47.015978308213704 218 171 155 255
-31.531778945878507 -5.664961541833975 -48.138524525000122 216 169 153 255
-31.223407217699993 -5.826484634279609 -49.257722409059880 218 171 155 255
-31.030985813705435 -5.579988941463569 -50.072163370199775 214 167 151 255
-30.700461948275965 -5.831724046052898 -51.245612587821910 210 163 147 255
-30.462655519800371 -5.756629765214257 -52.175579522316667 207 160 144 255
-30.340284162284071 -5.269069887411376 -52.804252809522183 198 151 133 255
-30.355967034278258 -4.282563507760472 -53.074478888165771 189 144 125 255
-30.463334585561292 -2.960345019468434 -53.108140376816749 177 132 113 255
-30.455643199455004 -2.053457621514156 -53.440868432045534 159 121 98 255
-30.493663045367136 -0.977470302236100 -53.656284309896250 138 109 83 255
-40.419508404916392 -13.705025287066462 -8.042074127782058 191 163 132 255
-39.404361429409029 -15.842699185415455 -11.234032787878874 203 161 139 255
-39.011398357281514 -16.084589787752662 -12.664580535655915 208 163 140 255
-38.952705625705953 -15.299343984472443 -13.151604289577250 207 162 139 255
-38.774896717105328 -14.883694137196301 -13.973444505321510 207 162 139 255
-38.692392718925056 -14.173076434957920 -14.526872072310425 196 151 130 255
-38.491071049309788 -13.834606576523129 -15.413128929990904 192 145 125 255
-38.337440768287088 -13.349133833114507 -16.164803053027356 187 140 120 255
-38.207645718897773 -12.790215648661047 -16.849140414521315 181 133 115 255
-38.101613015997110 -12.157214809274450 -17.466637390385415 172 124 104 255
-38.113908966351296 -11.148465705245854 -17.754101624013970 158 112 89 255
-38.055083300957342 -10.364538974960254 -18.240068062718450 148 101 81 255
-37.996190760693246 -9.580300711331773 -18.726273900435046 154 109 88 255
-37.795718725387538 -9.251115921224766 -19.605275598293730 137 92 73 255
-37.783966223186390 -8.315315958980023 -19.960446780206468 97 59 41 255
-37.866196183640575 -7.073081242319773 -20.056136642406926 56 29 12 255
-38.018601482023222 -5.598396425135434 -19.959258388208667 21 7 0 255
-38.875100937932366 -1.817291822729487 -17.922642700953730 8 3 0 255
-38.838057022679330 -0.943624678752940 -18.353945908019654 1 1 0 255
-37.652483159492583 -3.850417056595347 -21.943117580721349 2 5 0 255
-38.061273533241568 -1.515466279698217 -21.146346669418733 5 7 0 255
-37.439960109474960 -2.585739726840927 -23.177015965864371 8 0 0 255
-36.632876941974594 -4.288303435041769 -25.711516805607488 83 62 48 255
-36.527469762037235 -3.663661415111335 -26.322467748149307 148 113 98 255
-36.305542518049414 -3.430688093868696 -27.251048455302083 172 129 112 255
-36.107199730368457 -3.121926464757678 -28.114119249326762 167 120 101 255
-35.885840610523182 -2.894041390594737 -29.038734865332913 145 97 75 255
-35.966888542358568 -1.643587818387118 -29.140801646955055 104 58 36 255
-33.057003111959666 -2.019300656211669 -40.180070446043970 209 173 147 255
-32.265577088452098 -3.856647781269373 -42.609603142045245 213 170 149 255
-31.728064366539748 -4.811765319482049 -44.356356618952191 213 167 151 255
-31.306145064498089 -5.367354169222381 -45.791600196477447 215 167 153 255
-30.930771061021481 -5.765715245166803 -47.100228468108611 220 171 156 255
-30.739003534559139 -5.513356530600106 -47.919375601952993 219 170 155 255
-30.547503676169391 -5.263186544952021 -48.736819580679594 217 168 153 255
-30.424728663434969 -4.767824255594292 -49.371622077049551 211 162 147 255
-30.142517453518145 -4.852072872617271 -50.426755936656122 207 158 143 255
-29.883544022613115 -4.857310509741296 -51.418892577396349 201 152 137 255
-29.761458641546660 -4.367433160915709 -52.049428957092942 192 145 127 255
-29.753098450767929 -3.461939471356345 -52.380984422531668 181 136 117 255
-29.835399504684496 -2.221173727389498 -52.475519813965519 165 120 99 255
-29.804031089609843 -1.396142931624524 -52.868948151113358 144 105 83 255
-38.738516078137401 -15.123253034961635 -10.453898998886558 175 129 110 255
-38.301645049299459 -15.510035930260358 -12.021095991533087 140 95 73 255
-38.101127305998311 -15.165654225755475 -12.912113388622174 200 157 132 255
-37.900829577574207 -14.823509787002479 -13.801384237629719 203 161 135 255
-37.677238304346353 -14.557793464417756 -14.755689453428857 194 149 126 255
-37.547879441975319 -13.997126915051922 -15.441455518823034 191 143 123 255
-37.395130799829595 -13.512038585374881 -16.192918104622123 186 138 118 255
-37.336271424372576 -12.729025156195092 -16.678158600112823 179 130 113 255
-37.183677704482541 -12.245862590773868 -17.428114198697926 164 116 96 255
-37.218343461986429 -11.162063562105914 -17.649356994282670 153 105 84 255
-37.112543906311394 -10.529047066156238 -18.266890822852048 157 109 89 255
-37.100144276175108 -9.593858228993980 -18.621510699787336 160 112 93 255
-36.947677079200652 -9.112850170802886 -19.369775398934564 141 93 78 255
-36.935098288877235 -8.176615955083690 -19.725203349480665 96 54 38 255
-36.922357515988843 -7.239222495178893 -20.081531242158206 71 40 24 255
-37.211615200834494 -5.305821723898191 -19.594257979889846 36 17 3 255
-37.592943276227608 -3.058789812516750 -18.852994943824484 10 3 0 255
-37.611200015584863 -1.008837025523917 -19.452929550616460 0 4 0 255
-36.416528247323420 -4.005001324952218 -23.098387086318155 5 9 0 255
-36.033401721650684 -4.306079592169851 -24.483150754156327 9 9 0 255
-35.812575558132501 -4.068186761441439 -25.415738265771864 8 0 0 255
-35.661252052773413 -3.598914653572081 -26.154840060965626 78 55 42 255
-35.602254795327802 -2.818131358276105 -26.638302088538325 161 123 108 255
-35.405084815293641 -2.507643974070618 -27.502861010297522 149 106 89 255
-35.208162287488769 -2.199383548789172 -28.365684416028131 153 105 85 255
-35.149313405951382 -1.420195825086694 -28.847899946033124 87 39 16 255
-33.037286747714980 -0.974933224549602 -37.166108048128393 200 172 142 255
-32.433884591950068 -2.146409617408835 -39.118607340979651 210 172 148 255
-31.627122347424354 -4.056486835996907 -41.616934591122003 212 171 149 255
-31.071642781918776 -5.087132443457790 -43.429993389845038 214 170 151 255
-30.630587039206596 -5.719753806648214 -44.930229551484246 218 171 155 255
-30.348883961035121 -5.787955693292304 -45.998109425138608 219 172 156 255
-30.090268161000019 -5.778222800815968 -47.002125028778750 222 170 157 255
-29.990265963783806 -5.197721745621322 -47.578728481309241 219 166 153 255
-29.822607875574398 -4.864451853273579 -48.336472899937263 213 161 148 255
-29.745370877503809 -4.203124725396378 -48.851465243656946 205 156 141 255
-29.510475700893558 -4.120536430857442 -49.787665347082765 197 148 133 255
-29.343453338334761 -3.792340993886398 -50.541462678292561 186 137 121 255
-29.221606364022357 -3.299723208709452 -51.174191716328721 179 132 112 255
-29.257047257012964 -2.224909303064749 -51.388408785037655 169 121 101 255
-29.292269137002116 -1.148043554040953 -51.604225841086844 148 110 84 255
-38.323942369995585 -13.597220168634237 -8.930876548961322 173 137 114 255
-37.540805242597578 -15.082672014492914 -11.511689909018003 164 119 98 255
-37.294917954642592 -14.884484677910507 -12.538173239608227 205 160 137 255
-36.909723910047667 -15.133229966892969 -13.964114402786805 201 157 132 255
-36.711116158770317 -14.794122767440854 -14.851160209972591 194 149 126 255
-36.559174401433644 -14.308455716124143 -15.603165236556492 194 146 126 255
-36.500145660046918 -13.525730505302363 -16.088159981481169 187 136 115 255
-36.464218204334692 -12.667869808158258 -16.507077734321342 172 121 102 255
-36.428171542926584 -11.809273347909453 -16.926564952489542 156 105 84 255
-36.415129650854773 -10.874692707266860 -17.280636351573293 153 103 80 255
-36.309528789056579 -10.240797993865783 -17.898885687726477 169 118 97 255
-36.273180685324327 -9.380421987194609 -18.319748860156693 168 117 97 255
-36.098425512726472 -8.974628031942586 -19.134113723314613 135 88 71 255
-36.177117643359800 -7.733566431647148 -19.228504378061501 92 50 33 255
-36.255450266865928 -6.489648616079592 -19.325116519635316 84 49 32 255
-36.471271960304072 -4.783738745931544 -19.033991811392866 57 34 18 255
-36.732339376413115 -2.918957920100638 -18.617415136125345 19 8 0 255
-36.992654991124788 -1.047928523933535 -18.205702070820024 2 1 0 255
-34.857459387558386 -6.262192813896604 -24.859401940331821 2 4 0 255
-34.821333790437528 -5.405603803884958 -25.277293015861886 4 6 0 255
-34.807930494329632 -4.470483522171548 -25.631753332596588 6 6 0 255
-34.885580815418471 -3.222173876988734 -25.731767728228164 35 22 15 255
-34.689561865660416 -2.909638288963322 -26.598067543563303 145 115 99 255
-34.562044925960457 -2.364038787318179 -27.272109143468668 144 102 84 255
-34.457354123952165 -1.740753109606771 -27.882062426143790 142 95 75 255
-34.375416470534368 -1.039144602757460 -28.428423312994710 79 33 9 255
-32.157347813037426 -1.995405512575587 -36.778312467098687 212 172 147 255
-31.469644255042390 -3.484871528962287 -38.982169398572893 213 170 146 255
-31.008086683365342 -4.178256374743682 -40.560123369615241 213 172 150 255
-30.524927459479422 -4.959896193413954 -42.193934431409303 216 174 152 255
-30.177255039164471 -5.262141428797918 -43.453563605955310 217 173 154 255
-29.740567951236223 -5.895126643576248 -44.953970454486893 220 173 157 255
-29.416593248365196 -6.126933183388985 -46.143870151847295 219 172 156 255
-29.249674180134541 -5.790751721403296 -46.903995131283011 216 166 151 255
-29.239293267782308 -4.882139908141767 -47.237804905313311 209 160 145 255
-29.184170260247107 -4.136817294079208 -47.693624747566190 204 154 140 255
-29.106736788644206 -3.473598457388562 -48.210092780457586 193 144 129 255
-28.962552754133561 -3.058440633612520 -48.907140395942633 186 138 121 255
-28.818540286682243 -2.644620845272527 -49.603147654397731 176 129 111 255
-28.696908846180257 -2.149050973265787 -50.238234362139451 155 117 92 255
-28.730687794488126 -1.071314603996768 -50.454588629083531 144 106 80 255
-37.805631224133286 -12.364716668624737 -7.676519579691018 171 148 119 255
-36.845748229722552 -14.434751436187042 -10.799847212148364 205 160 141 255
-36.394304285689806 -14.898404239737033 -12.432644345547232 200 155 132 255
-36.127641807456577 -14.777215933299829 -13.523974759364705 196 152 127 255
-35.838371329566634 -14.733725028339791 -14.679407504737810 193 147 124 255
-35.710192353049287 -14.173409224223860 -15.365019964888205 191 143 123 255
-35.673803058221417 -13.315627598100150 -15.783826704234315 178 127 106 255
-35.797619560609071 -11.933370536033664 -15.738771646517336 160 108 87 255
-35.715060604242304 -11.222696322482136 -16.292238145154357 151 99 77 255
-35.609628252939537 -10.587382669434874 -16.911627523064141 155 103 81 255
-35.458568111422473 -10.103524304666024 -17.662294434845279 171 119 97 255
-35.444468945659104 -9.167038486777187 -18.017761836035788 166 114 92 255
-35.452986203507542 -8.153513007463630 -18.308607528761826 136 87 67 255
-35.506802412752258 -6.986217171280344 -18.469972355402376 99 53 35 255
-35.560308823635914 -5.816490852014681 -18.633227138976139 91 53 35 255
-35.545388272080878 -4.873890683929801 -18.993444681488569 71 43 28 255
-35.734440858214278 -3.239556274361291 -18.770827948812808 35 18 4 255
-36.149456965123882 -0.830816744397680 -17.905143725541848 9 2 0 255
-34.594398469738458 -5.125357519895374 -22.660635132173809 2 2 0 255
-33.200797237196987 -8.906014928213239 -26.944017939108932 1 1 0 255
-33.571491812427446 -6.660202019533756 -26.200674714754967 2 3 0 255
-34.369789790808944 -2.927986688101441 -24.247212581565066 5 9 0 255
-33.994437971103785 -3.235517516136269 -25.627688335322148 14 6 0 255
-33.799793022559051 -2.922949977162602 -26.494157623750738 129 101 86 255
-33.560427001350696 -2.769467047037949 -27.485964944891492 102 61 43 255
-33.478619008521783 -2.068588004046831 -28.031762446242737 78 33 12 255
-33.284641671056342 -1.762072140018347 -28.893515029841637 81 35 11 255
-33.270189013812463 -0.825281684114827 -29.249186295750320 134 89 66 255
-32.726572461901661 -0.776389576576605 -31.405656457726366 160 119 99 255
-32.176213182635401 -1.753722660792505 -33.261421909958074 213 176 155 255
-31.805383258545881 -2.100772893853446 -34.611113068080442 210 174 152 255
-31.167775418017591 -3.414880697357717 -36.703068171094969 213 175 152 255
-30.754023345451294 -3.936340338033347 -38.166164507165405 209 171 148 255
-30.207605445665131 -4.947510368714347 -39.995579165374835 213 175 152 255
-29.995411363990776 -4.756321168340321 -40.892130844579896 217 175 153 255
-29.561657644408974 -5.377437058784835 -42.402233978132273 217 175 153 255
-29.306006100102501 -5.355979277453969 -43.415834862437805 218 173 154 255
-28.917939875462942 -5.826335511905370 -44.794116494990050 218 171 155 255
-28.663258249488884 -5.813086426952168 -45.801326234778145 215 168 152 255
-28.541517814557501 -5.312423266174903 -46.440430206892188 212 163 148 255
-28.574338802771386 -4.238513429724833 -46.653657215380406 202 153 138 255
-28.408583812916028 -3.902693230381487 -47.413618611513357 194 145 129 255
-28.353117619962980 -3.156402977857113 -47.870167821976480 185 136 119 255
-28.319613620705844 -2.327105206980320 -48.266747134547302 174 128 110 255
-28.286034253709452 -1.497033685549809 -48.663930560623157 161 117 97 255
-28.252380733592538 -0.666185994362252 -49.061720141225322 141 105 79 255
-35.803962319685063 -14.890039069279283 -11.097981835551082 195 151 132 255
-35.356993414657772 -15.354869950526506 -12.730316782031110 202 157 134 255
-35.183591894158845 -14.939031145494397 -13.552769012324489 198 154 129 255
-34.987654100384368 -14.599185511130798 -14.440679118877711 181 135 112 255
-34.928046059761932 -13.815235097054881 -14.926582181328769 170 121 99 255
-34.913686096107504 -12.881767834671678 -15.279634586808669 161 111 88 255
-35.057602735462247 -11.423429933471169 -15.168935326304279 147 92 72 255
-35.020122729176258 -10.561185542659331 -15.591157565885766 152 97 76 255
-34.914767981084246 -9.923930551572454 -16.212090652984585 161 106 85 255
-34.764322797392303 -9.438123869136490 -16.964363189702652 168 113 92 255
-34.659081924966792 -8.802377647888534 -17.584114817143416 176 121 101 255
-34.576386728246042 -8.091295634552836 -18.137889580023426 133 82 62 255
-34.538651260446706 -7.228150780800718 -18.560797259701502 99 52 33 255
-34.590653027735193 -6.059064737864503 -18.723387684509845 103 61 43 255
-34.530158586558123 -5.270122687581818 -19.213146017696914 89 55 38 255
-34.581668294909399 -4.097239730656327 -19.378688094517514 46 23 9 255
-34.476154830549511 -3.460501128640431 -19.999196069640135 18 5 0 255
-34.124684537359236 -3.672966013737152 -21.329441363247213 3 4 0 255
-32.880251164333082 -6.985164506187857 -25.231428176340700 0 4 0 255
-32.932594829719967 -5.820169411855261 -25.390818613573288 0 2 0 255
-33.809340891067372 -1.774616410801229 -23.181704925061837 10 8 0 255
-33.325818675537313 -2.468898219237417 -24.884576565195005 12 0 0 255
-32.865423811463494 -3.092712980584622 -26.517681294199150 24 0 0 255
-32.583589276438182 -3.096460932883758 -27.636529318012094 104 63 45 255
-32.390961337047720 -2.789594227745681 -28.498701029220655 157 115 93 255
-32.132084701575401 -2.721496398995214 -29.548854912747260 193 149 124 255
-32.050733713715111 -2.024427719180551 -30.091686445123088 188 143 120 255
-31.792456248747136 -1.961629590548796 -31.137711240102732 188 146 123 255
-31.159022868785577 -3.253521794904884 -33.247676604179475 206 163 144 255
-30.526831157586976 -4.556104596735850 -35.349316202942816 208 171 150 255
-30.270598001639520 -4.510980590626218 -36.381575621693315 209 171 150 255
-30.036785792454488 -4.389226457310315 -37.348868882345300 214 172 153 255
-29.825321516211524 -4.190205125546129 -38.251692234475911 216 172 152 255
-29.482356254819329 -4.477062252309850 -39.523987149562799 218 175 155 255
-29.315541745402776 -4.123076676359688 -40.298205848353575 220 175 156 255
-28.951670259860272 -4.499547791862994 -41.625355880855039 221 177 158 255
-28.610348587674544 -4.800434350080707 -42.886726252004962 219 173 155 255
-28.182157593970395 -5.432031168431195 -44.389122957103012 214 167 149 255
-27.995062381877268 -5.172904318158942 -45.214113925201161 210 163 145 255
-27.960970104885838 -4.343310841491302 -45.610865396606016 206 157 140 255
-27.948592650612291 -3.430933179843976 -45.947444355878758 196 147 130 255
-27.805463598123588 -3.010759701337122 -46.648569987052184 185 136 118 255
-27.792978304403569 -2.097271515923239 -46.986016033729783 173 126 107 255
-27.867251721533016 -0.851971740133081 -47.083295271108739 158 117 95 255
-35.305595499451677 -13.580436946653521 -9.778769360322627 200 163 139 255
-34.525167364211605 -15.147574655943259 -12.423187247780390 200 154 131 255
-34.397726916480416 -14.583128067271531 -13.112144595085311 194 148 124 255
-34.247920603675603 -14.093821015187160 -13.867252912652219 158 112 89 255
-34.277565256515068 -13.010811384245471 -14.087344346949095 153 103 82 255
-34.194986097349449 -12.298788576355548 -14.641875440096214 143 91 69 255
-34.246584878690932 -11.138011983600251 -14.797850940548670 142 85 66 255
-34.163817396673473 -10.424948262823420 -15.353185613423790 140 83 63 255
-34.125665607212532 -9.561528997125606 -15.776266655540070 168 111 91 255
-33.931350625858748 -9.225521720371944 -16.661311000665364 197 140 120 255
-33.781801659880578 -8.740433669378660 -17.413109169759935 169 112 93 255
-33.699114897885273 -8.029116711073812 -17.967070655262376 123 71 50 255
-33.638632549294705 -7.241832085192470 -18.455519263543977 110 62 40 255
-33.666862794983111 -6.149048023486102 -18.683193662373526 108 62 42 255
-33.561820356356797 -5.513323469300644 -19.302948977028507 97 58 42 255
-33.567538317534492 -4.494527989900746 -19.597669364419517 58 31 17 255
-33.484570842984546 -3.781893119242568 -20.152643835200081 19 3 0 255
-33.246930770381802 -3.609405555718979 -21.159664629490436 7 3 0 255
-33.340682561757056 -2.279618140067726 -21.197884044393589 2 3 0 255
-33.367896676756551 -1.179268447252127 -21.431436084289857 5 0 0 255
-33.240713464794304 -0.621397698967314 -22.115219052377398 25 8 6 255
-32.739692161383111 -1.390409148066794 -23.885076648145741 98 66 55 255
-32.063836488406004 -2.793247193338061 -26.158698232440344 190 149 137 255
-31.411260648063909 -4.129223771092029 -28.359716957362934 178 135 118 255
-31.154564880429142 -4.060974152874564 -29.410219784253314 185 140 119 255
-30.854471167134882 -4.153910267000811 -30.584537552773497 193 149 124 255
-30.817344387273145 -3.302537205135081 -30.998197830186882 193 151 127 255
-30.496100545014578 -3.480887611840842 -32.230667005457377 202 162 138 255
-30.044466199804425 -4.140871991334336 -33.836081602752557 209 167 145 255
-29.571879219593150 -4.887849849739382 -35.498419224593249 215 174 152 255
-29.405020464228365 -4.523930847231838 -36.280490448276822 216 174 152 255
-29.173120342252055 -4.402146051140164 -37.248008634841199 217 172 151 255
-29.028472461906638 -3.962124826902539 -37.964674089452359 216 174 152 255
-28.601888004979408 -4.570444016872045 -39.485651600585129 217 176 154 255
-28.457879248571778 -4.135906657503085 -40.198046488604035 220 175 156 255
-28.119178982041511 -4.431367834519790 -41.463983357030457 220 175 156 255
-27.824335931737245 -4.569655572749355 -42.602979829188854 215 169 150 255
-27.530001240134673 -4.712262990231579 -43.738612861708617 207 160 142 255
-27.322480757153990 -4.532811817388676 -44.626370455151260 201 154 136 255
-27.352340289351908 -3.456125153882283 -44.841483083083460 195 148 130 255
-27.295863756413105 -2.705474704921585 -45.301375098998818 185 138 118 255
-27.196352706176931 -2.118938961602396 -45.882803430908922 172 128 107 255
-27.204299260825358 -1.120708027418345 -46.161491508270757 150 112 89 255
-34.136002256658834 -13.465440233219397 -10.770440392128677 188 149 128 255
-33.830993713097037 -13.487722941323170 -12.000127973975708 149 102 84 255
-33.725999101543003 -12.846844970602490 -12.623964571328855 136 91 72 255
-33.731766376731649 -11.834596296484108 -12.913511724528320 130 83 62 255
-33.538213302401466 -11.492120562773778 -13.803752468744761 130 77 56 255
-33.477472799144060 -10.703042406403654 -14.293592635451603 122 67 47 255
-33.306298099167158 -10.288758204961027 -15.115048904437629 168 111 92 255
-33.289641580652905 -9.349664587382790 -15.472310637699678 191 131 112 255
-33.096629662923441 -9.012975206792191 -16.358031270750871 189 128 109 255
-32.947846652989803 -8.527214305612034 -17.110442039237171 167 109 90 255
-32.821171256241264 -7.966977166299273 -17.796150076513129 134 82 60 255
-32.826279462574057 -6.951216765084780 -18.088405776256735 118 70 48 255
-32.765402357031171 -6.162760318004075 -18.577739845364164 112 65 46 255
-32.660663591709117 -5.527011829174569 -19.197545962204771 108 65 49 255
-32.512212416141956 -5.045244474741878 -19.946832730116313 72 39 22 255
-32.560559464090922 -3.872491668808607 -20.111939940803325 37 11 0 255
-32.390338771344894 -3.468741800376677 -20.925163857089956 14 0 0 255
-32.220308724374426 -3.066807300771586 -21.736971856194003 17 0 0 255
-32.159355248355162 -2.278851738495007 -22.225901719063984 52 25 16 255
-31.424027954936484 -3.901742815515888 -24.703020634090876 190 154 141 255
-31.059547552842425 -4.211620838237820 -26.082780744993926 193 150 137 255
-30.652301362291588 -4.683530917140786 -27.585752714467361 189 144 129 255
-30.224116901328337 -5.240327477212531 -29.147315814785173 190 149 130 255
-29.991603999174750 -5.096375052284827 -30.132303901226777 190 149 128 255
-29.867581885293951 -4.561306090016899 -30.798382806228005 194 153 130 255
-29.765264974541530 -3.948143838197097 -31.400577772437458 201 162 136 255
-29.555104126322711 -3.731825628894740 -32.317219449157193 204 167 141 255
-29.215916244239885 -3.995000534968028 -33.608643024166639 211 169 146 255
-28.812736855738130 -4.502420284576431 -35.083954266705263 214 173 150 255
-28.539336810037632 -4.536910327169380 -36.179371022830338 215 173 151 255
-28.330830950026829 -4.334985481002150 -37.084801488269619 217 173 152 255
-28.144086343791265 -4.055380343482398 -37.926027222965075 219 174 152 255
-27.871873892516582 -4.100119732570874 -39.013461560600859 219 174 152 255
-27.600117015916830 -4.148764707811665 -40.097854459427140 216 171 151 255
-27.328816741696507 -4.201312761492773 -41.179208010857565 214 169 149 255
-27.100688482906328 -4.095427464259899 -42.134545823370672 209 162 144 255
-26.872920176846129 -3.992594143767576 -43.087507351889400 200 153 135 255
-26.688128583206456 -3.729630575986619 -43.915774860240816 193 149 129 255
-26.716432479839121 -2.650855564015785 -44.132376072820193 180 138 116 255
-26.723249182014193 -1.652064059733732 -44.411388974216408 165 126 104 255
-34.063611380913649 -10.677421180212662 -8.106689496474047 105 83 59 255
-33.606894884634421 -11.209223016639896 -9.812960898551950 75 46 24 255
-33.370021071849784 -11.006714999978499 -10.843807770084140 83 55 33 255
-33.242861093977105 -10.435410117613060 -11.538219344104874 44 13 5 255
-33.006509951996556 -10.238029346137239 -12.565065507368303 134 93 71 255
-32.726825433862949 -10.193350479554397 -13.722443949455879 172 120 99 255
-32.425760999594168 -10.227632229298280 -14.943054428506287 189 132 113 255
-32.299409561846282 -9.664455636750517 -15.631121521679205 196 135 117 255
-32.129629749830407 -9.253130301442241 -16.450383771262352 191 130 111 255
-32.068683699061715 -8.465358029501715 -16.939169433923809 161 103 83 255
-31.985967983385571 -7.753146782552506 -17.493835247596934 136 84 62 255
-32.033325465478889 -6.584588574702678 -17.655520749572474 122 74 51 255
-31.885466599306973 -6.100214793200223 -18.406931318630768 117 69 47 255
-31.802639819912265 -5.387727805735778 -18.961803582220824 109 64 44 255
-31.633374552222982 -4.982219521217417 -19.776518646373660 89 51 32 255
-31.680121849528241 -3.809261084186062 -19.941620615012255 36 5 0 255
-31.446314599651238 -3.636682432767202 -20.949115710259861 56 25 10 255
-30.997515679558411 -4.240702649583739 -22.599094567414767 173 137 120 255
-30.312958433494252 -5.705245446285403 -24.950927862182368 193 154 136 255
-29.866099638261396 -6.326253661026072 -26.587673121736117 190 147 129 255
-29.699043828659832 -5.940753951956594 -27.386793630077619 194 151 132 255
-29.425011870322415 -5.948060043008297 -28.503646102576511 193 150 131 255
-29.172832909112579 -5.880883938904446 -29.553773833993546 191 150 130 255
-28.942434005936299 -5.738588244582900 -30.537673337884740 181 143 122 255
-28.861903662585128 -5.047527610669192 -31.075838735998929 191 155 131 255
-28.738704573360572 -4.514670678704363 -31.740254339167592 199 163 137 255
-28.572985974398001 -4.141287110971064 -32.529931528727133 206 169 143 255
-28.279752346350755 -4.246526225968978 -33.695237797554284 213 170 146 255
-28.029541096754890 -4.196743325555985 -34.731814315832395 215 171 149 255
-27.716021093475099 -4.390133221633448 -35.953198126708543 214 172 150 255
-27.509112654447968 -4.187757922029220 -36.859152541211557 215 173 151 255
-27.302509334234735 -3.988024171332881 -37.763049558251566 220 174 151 255
-27.138537786673716 -3.629873269319262 -38.540861324679810 216 169 146 255
-26.763393507366381 -4.080912062408458 -39.935778867929571 212 164 143 255
-26.536746391615033 -3.971310689466861 -40.894211476912858 208 161 141 255
-26.352635486817071 -3.702439094768351 -41.727223570104570 204 156 139 255
-26.337298754309224 -2.784779788663570 -42.067669644587482 187 140 122 255
-26.174553149076608 -2.437042907288287 -42.837372762714750 174 133 111 255
-26.138110441880507 -1.600302483744770 -43.239530669423090 161 124 101 255
-26.164557510565764 -0.516776930697517 -43.459694605001317 134 108 81 255
-35.705313305359219 -1.990848039829757 -0.053899626708670 96 77 52 255
-33.800924072943111 -6.422845774103905 -6.582987817429142 24 7 1 255
-33.046133963399747 -7.995175199293556 -9.225989839964370 20 0 0 255
-32.336018832599443 -9.431632409137109 -11.725288390775717 143 109 86 255
-31.993836646412539 -9.608949650223877 -13.084309642638317 197 141 123 255
-31.587619929229142 -10.016523324988896 -14.638278636708804 195 138 119 255
-31.354212724695351 -9.828797636535285 -15.657796760550582 193 133 115 255
-31.228565843110111 -9.266983221471037 -16.344860337577614 181 123 103 255
-31.167387335465484 -8.479191947356327 -16.833636634446776 164 107 87 255
-31.084708200417957 -7.766958415277884 -17.388323914382283 148 99 76 255
-31.109077935870950 -6.674477217063412 -17.615353595638794 125 79 55 255
-31.004862504002070 -6.037710712008789 -18.236019869165290 117 69 46 255
-30.836596132939128 -5.630984955193071 -19.051802766320520 112 65 43 255
-30.519148221660124 -5.763051628438177 -20.321279953899648 110 66 46 255
-30.436685548814886 -5.053757617015037 -20.873664841429303 164 124 102 255
-30.141324369103081 -5.115932002773548 -22.072811280667707 195 149 128 255
-29.676334769962430 -5.801243664331366 -23.784723136580425 192 146 125 255
-29.063549811168777 -7.037221711414077 -25.941082668326601 196 150 128 255
-28.749005274499574 -7.195125205524619 -27.190428084892034 200 155 133 255
-28.519762045278235 -7.045877185391817 -28.179948045321595 201 158 134 255
-28.375525135821199 -6.586932343753858 -28.911624884857048 193 152 128 255
-28.252576416563237 -6.050966796926332 -29.578525624725756 180 140 120 255
-28.024144772045311 -5.909056412806592 -30.562326817308161 178 141 120 255
-27.943701705907394 -5.218410392235171 -31.100173423126165 188 152 128 255
-27.821127005389492 -4.685960871250302 -31.764332300410473 195 159 133 255
-27.593442797145848 -4.550740239614242 -32.742920457471683 206 170 144 255
-27.240002597502901 -4.895389460469573 -34.096335813856200 211 168 144 255
-26.992174509521313 -4.847262808570463 -35.131852379337147 214 169 146 255
-26.807652867578106 -4.562961210185620 -35.977026231803308 213 168 147 255
-26.707160376617146 -3.960476590153860 -36.570966847637465 214 168 147 255
-26.502131147847003 -3.760081602311516 -37.475552091588128 213 167 144 255
-26.422773885400609 -3.079181609061550 -38.005803712806852 207 159 137 255
-26.176470269345977 -3.044267880550763 -39.031029076824751 202 153 132 255
-25.951418314557181 -2.931889269207659 -39.991825844317816 195 148 128 255
-25.830826580004008 -2.416773375621972 -40.642482233211837 186 140 120 255
-25.814326392061822 -1.495745670899737 -40.985470548881807 169 128 105 255
-25.735380460759309 -0.818286529183808 -41.513043685003282 152 118 91 255
-47.605006739005454 -1.341754117299843 53.578510587495174 209 171 152 255
-47.420149017031143 -0.759375783086853 52.625530792346382 210 175 155 255
-47.057270815792158 -0.708921526578195 51.088518260288453 205 170 147 255
-46.739399105137728 -0.530695502370634 49.701581721905058 198 175 140 255
-35.164852859004206 -1.653578211485524 1.655031585476451 149 119 93 255
-34.863582672322728 -1.637026572225295 0.394234369145778 135 104 80 255
-34.199151399465258 -2.881913899407664 -2.005522481892797 106 74 53 255
-33.664216600251073 -3.693464145918824 -3.994038077454974 92 61 40 255
-32.554094179720941 -6.522059495337203 -7.780913145918277 55 20 6 255
-31.680790120392636 -8.550777635639577 -10.818075588115619 69 32 23 255
-31.128659880992082 -9.473419522435449 -12.844847294595411 184 130 112 255
-30.705195585006059 -9.955487921529254 -14.466014454753775 183 126 109 255
-30.409955367944555 -9.993156447997478 -15.684557299473312 189 130 112 255
-30.327367520880507 -9.280869680152733 -16.239296268587225 171 114 95 255
-30.308343515816453 -8.341769650641623 -16.596314607554035 162 108 88 255
-30.098642915099525 -8.084233183007996 -17.545607515831591 152 104 80 255
-30.121805513752584 -6.992600591913572 -17.771839275398946 141 95 71 255
-29.933519640454755 -6.661786376278201 -18.653408749650282 153 106 82 255
-29.808752668477815 -6.103734222408264 -19.337588789077216 177 129 106 255
-29.262680319551727 -7.080780706065440 -21.321963172385665 190 142 119 255
-29.033360242986696 -6.913505995138280 -22.325733868143544 187 141 118 255
-28.678255563441134 -7.212106136037789 -23.715398563752018 190 144 120 255
-28.365777246862017 -7.361655371132088 -24.971568902922400 197 149 126 255
-28.011894137267113 -7.671099054789607 -26.352784746789723 204 156 134 255
-27.742433866273153 -7.675106172889855 -27.472726445115512 209 163 140 255
-27.598945108722980 -7.215172955336953 -28.205263590900785 200 155 132 255
-27.455602445277457 -6.756627816330365 -28.936718123053623 183 143 119 255
-27.375024249134590 -6.064261288848684 -29.475911438260624 174 138 116 255
-27.148511967315308 -5.922312316801424 -30.459944588970728 181 146 124 255
-26.963992538828599 -5.625789959376505 -31.314785082614492 183 149 124 255
-26.779722176137192 -5.331498384040344 -32.167887205515029 192 156 130 255
-26.616475722831460 -4.960185875868603 -32.956185672730214 201 164 138 255
-26.349685560147527 -4.987987142770407 -34.057586837157487 209 166 141 255
-26.228416121155583 -4.461992585317603 -34.716776936279388 212 167 144 255
-26.148651635032657 -3.777181290843259 -35.250079591233458 210 163 143 255
-26.068894946406964 -3.092475772396426 -35.783299397522427 207 160 140 255
-25.906545152999804 -2.729109073812936 -36.565406970700053 204 158 135 255
-25.765028346761603 -2.287017719934340 -37.284038466018387 192 146 122 255
-25.685474031943222 -1.604101508781866 -37.815864200194454 191 146 123 255
-25.605931798659917 -0.921284611934823 -38.347612646422334 176 133 109 255
-46.737019161946655 -0.767666711680079 54.366902985264261 211 171 153 255
-45.782201752058150 -2.495063551572002 50.844090728395344 213 177 157 255
-45.555192600882812 -2.052467619077959 49.750235506541088 210 173 152 255
-45.306436515160563 -1.678979429759295 48.585393313920605 205 167 143 255
-45.211616853035828 -0.841709364039787 47.933078439727609 201 170 141 255
-33.535883859376902 -5.061460154881843 -0.083997339112074 162 120 96 255
-32.772259922356461 -6.667576652117077 -2.827279593294861 148 111 85 255
-32.221639492197703 -7.550151490907012 -4.885902094646127 134 92 70 255
-32.073375889300657 -7.037336262675694 -5.659766878955935 110 68 48 255
-31.840851579125392 -6.822532339823255 -6.700796076654314 102 61 42 255
-31.587578251432440 -6.685194033931907 -7.806306042296967 102 59 40 255
-30.745355846454082 -8.639576778990516 -10.777596168210124 152 106 87 255
-30.199202339856150 -9.562313049598714 -12.804920472568597 161 110 91 255
-29.738105657215080 -10.194508906411443 -14.559254569483613 170 116 98 255
-29.487612165998947 -10.082316847633564 -15.645166030758645 176 121 104 255
-29.321291936179655 -9.671932562473160 -16.464047006644734 157 105 84 255
-29.197002335069065 -9.112088265154739 -17.149694700251558 150 102 80 255
-28.989199563491844 -8.856628635503455 -18.097544041445502 151 106 82 255
-28.886054293878836 -8.223511950631519 -18.715435683145415 154 110 86 255
-28.928898627828467 -7.056997613752088 -18.875030866884146 171 125 101 255
-28.471622116921274 -7.723820063247274 -20.602376852620182 177 132 108 255
-27.994422373237065 -8.475107227016849 -22.388754106988927 185 139 115 255
-27.684361515830894 -8.619263331846639 -23.649444029465457 193 145 122 255
-27.457842490986927 -8.459700992042940 -24.647408341533151 195 149 124 255
-27.293843612440277 -8.071212097228909 -25.449214066791853 203 157 133 255
-26.985120240705221 -8.227394814279535 -26.700531515331477 206 160 136 255
-26.842357190962609 -7.766258508437971 -27.434096445645594 204 159 136 255
-26.617126875163258 -7.618411461539182 -28.422929412894661 188 146 124 255
-26.536638974851790 -6.926341481747841 -28.961897640494414 174 137 114 255
-26.414942810755399 -6.391185198806824 -29.628289721406077 175 140 118 255
-26.272766487466718 -5.935602580484954 -30.357523357540998 182 147 125 255
-26.069076058020208 -5.717873123808033 -31.275960372338147 182 149 124 255
-25.968333074993701 -5.107627478631287 -31.876013535766333 190 156 129 255
-25.847137755874421 -4.577163785949153 -32.538746422327932 197 161 135 255
-25.644123505729631 -4.365489707655797 -33.452464702168555 205 164 138 255
-25.523234221094192 -3.837787840656972 -34.113045150518531 207 164 140 255
-25.484175195058477 -2.991516045254571 -34.522467626598512 205 159 136 255
-25.506245170824648 -1.904225832365171 -34.745149970174111 200 154 131 255
-25.405785826530568 -1.296752365473253 -35.343040156243916 193 148 124 255
-25.244313692137148 -0.931354818142268 -36.126846205316667 178 134 109 255
-45.202276789643754 -1.060319923692361 52.584607206650816 216 173 157 255
-44.541757364309980 -1.938134423342660 50.022023881651052 216 170 155 255
-44.229733404131032 -1.763552427995990 48.637355989786300 207 165 148 255
-44.026543461883115 -1.259877367461399 47.620620750589268 212 169 150 255
-43.845194406808254 -0.691509702036683 46.678354919861164 210 172 147 255
-43.534179421119013 -0.527611215759123 45.302031607601435 205 165 142 255
-31.191450634465248 -12.034945974977632 -3.916968517028721 194 159 133 255
-30.960549071514656 -11.815862655406477 -4.961552949624121 188 145 124 255
-30.792742470678171 -11.379982938289118 -5.800444377321668 180 135 112 255
-30.625107374735130 -10.945924937080775 -6.637912858582524 166 124 99 255
-30.582904713792963 -10.071347228429858 -7.069394899868229 158 113 90 255
-30.415468482145847 -9.639657964067766 -7.905010621949032 145 95 76 255
-30.352344464352917 -8.839046878690795 -8.403722987732948 135 87 67 255
-29.977106777685897 -9.153557886563078 -9.906621842953200 139 91 71 255
-29.519424455647474 -9.772441748838958 -11.671843831842892 159 111 91 255
-29.145623731659946 -10.099953817387956 -13.164609881304983 162 114 94 255
-28.772494206840527 -10.433539697834703 -14.652642092558438 169 118 99 255
-28.524264295054643 -10.321927487808182 -15.738332464552713 157 104 86 255
-28.214372987249725 -10.440110242179202 -17.019584651790154 156 106 85 255
-28.028940710825189 -10.109269132103918 -17.901474882032517 163 116 94 255
-27.905633461716924 -9.553127560070834 -18.584296881168910 167 122 99 255
-27.823624678969402 -8.845835475408222 -19.135145914723154 165 123 99 255
-27.679860433116410 -8.367487290661160 -19.882220068521605 162 120 96 255
-27.371779283926266 -8.502423035446498 -21.150410905165955 166 124 99 255
-26.982102172542731 -8.948943096781079 -22.675309801386732 182 138 112 255
-26.736708995175270 -8.863578575659261 -23.740536419019264 188 144 117 255
-26.471220151187744 -8.858852390061685 -24.867802807838046 197 148 121 255
-26.308460399253200 -8.471392030278196 -25.668925025143409 201 153 127 255
-26.064158350668997 -8.395935183336235 -26.726429357174140 205 159 134 255
-25.922291896160424 -7.935196860693623 -27.459773586696173 195 152 128 255
-25.719417466805062 -7.709761496047264 -28.384391479945890 178 141 115 255
-25.598276058618204 -7.174256915252329 -29.051117279668091 174 139 115 255
-25.538237943262068 -6.404533222043142 -29.525722116121415 177 145 122 255
-25.396909160763165 -5.948928152149506 -30.255062459861790 177 145 122 255
-25.255729720973001 -5.494709699015630 -30.983321687156263 178 146 121 255
-25.155223036071654 -4.883816151223186 -31.583912129658756 186 152 125 255
-25.196425073931415 -3.718765291302475 -31.742177370651746 192 156 130 255
