ply
format ascii 1.0
element vertex 657
property float x
property float y
property float z
property uchar red
property uchar green
property uchar blue
property uchar alpha
end_header
59.173054113640717 -3.409722610406249 -15.228667965555957 79 73 37 255
59.854883424861015 -2.211538084595574 -14.230850629755707 66 74 35 255
60.645598404608791 -10.585639670659418 -14.279767456375765 150 123 99 255
59.681392213277064 -10.388634331718762 -15.713256290050452 137 104 82 255
59.456145897418963 -9.761557758183471 -16.057142277409810 128 96 72 255
59.458312000154052 -9.000379584608794 -16.065801661720286 123 91 67 255
59.290001700202993 -8.342146874269389 -16.325894017545096 117 88 62 255
59.576488863972003 -7.408702634702777 -15.915591799341740 110 83 56 255
59.806194822008592 -6.507372250541138 -15.589142555731598 102 78 48 255
59.922273590680135 -5.674100407243856 -15.430331659492140 93 76 42 255
59.811029471883899 -4.981323781561343 -15.606722660861323 85 71 35 255
59.756688635087158 -4.253879313587049 -15.699340930634094 78 72 33 255
61.579311474035052 -9.694703631251656 -14.267099669877126 149 141 103 255
61.067647131701705 -9.230799382454208 -15.029104228006929 125 110 74 255
61.012740765547619 -8.499292466469285 -15.121511413755002 113 97 64 255
60.672432203926263 -7.939909289718173 -15.632399609200633 107 91 59 255
60.731809889572702 -7.141558090632714 -15.557449041194559 103 91 56 255
61.133800014136085 -6.133419117947739 -14.980411876840606 94 86 48 255
61.250393515676762 -5.297115590733185 -14.821861120628341 86 85 42 255
61.367050049846881 -4.459665055208632 -14.663350061349092 78 82 36 255
-17.300731597353234 -0.987464257869064 63.539911778543974 140 147 91 255
-17.927730633362188 -0.558195288502134 63.431674915547170 124 87 54 255
-22.706771128446320 -0.521323666069875 62.587404839750107 106 76 48 255
-24.332421113412181 -0.539945179278675 62.300245671361786 181 142 116 255
-18.149781891141913 -1.322589317938622 62.720625095171464 156 132 86 255
-18.076770639916390 -0.603827091730082 62.737626666423544 116 72 41 255
-18.598661695019075 -1.491978930314858 61.975334810695536 153 124 86 255
-17.925911603171187 -0.524336206610059 62.096379977298305 100 61 30 255
-17.521184854950178 -1.718764795943670 61.490111784910475 168 164 112 255
-18.747551185914716 -1.537060896777092 61.283655046269232 160 121 88 255
-18.074928990392749 -0.569811349296373 61.402728094845621 112 67 41 255
-17.870149985848684 -1.845677846525930 60.762131973168955 155 133 90 255
-18.896400155722461 -1.582067672166559 60.592573134875856 134 90 60 255
-18.623559162619358 -0.781918473754402 60.642253393655999 115 71 46 255
-18.518742069089512 -2.095911704980381 59.986073430277408 149 120 81 255
-19.045208735614381 -1.627001585526699 59.902086002087024 132 92 64 255
-19.072097731826318 -0.952263307311753 59.901130192748802 133 93 68 255
-20.197697114045326 -0.738775696216905 59.717854724722351 194 149 128 255
-21.323057551550619 -0.531088115051773 59.534694755913755 148 103 82 255
-17.541712675252228 -2.366347907640161 59.475578203662728 158 165 109 255
-19.666575406731312 -2.551719183752525 59.131744864520080 158 124 88 255
-19.693401139922685 -1.878878865950554 59.130621736034065 132 93 66 255
-19.720225846854049 -1.205875947507536 59.129601515409909 174 133 111 255
-20.745681326765890 -0.952163922674714 58.965556243557259 190 143 125 255
-21.671067195650380 -0.661492290743283 58.817937241718873 149 101 81 255
-22.895782139630711 -0.502999037768404 58.621494865526621 192 147 126 255
-17.990436686097098 -2.532994034376316 58.733927007228992 171 167 118 255
-19.715339510986269 -2.555004103541293 58.459899791922517 157 120 87 255
-19.842030918211407 -1.923667100207027 58.442671019730781 134 92 67 255
-20.068553991628448 -1.334385640401621 58.409502287218487 201 156 134 255
-21.293467774475545 -1.165469186579912 58.216020495184658 189 142 122 255
-22.218623028413390 -0.876250272040963 58.070776875140318 146 98 78 255
-23.043760991213844 -0.549254669201957 57.941686874406599 187 141 119 255
-18.139401448262078 -2.576997645775521 58.041801922983908 179 158 116 255
-19.764103041151088 -2.558227339833067 57.788096296915192 154 115 84 255
-20.190311591125607 -2.051189579629849 57.723763265199580 154 111 86 255
-20.616432570199379 -1.546165412567973 57.659533766391029 194 149 126 255
-21.841056579455966 -1.378694081123285 57.469244383070240 188 142 118 255
-22.366729189987751 -0.922066871775570 57.389459343376679 150 104 80 255
-22.992095135895767 -0.510465452774199 57.294012862636826 183 139 114 255
-14.366862602359106 -1.714451615357760 57.956342893191696 153 162 106 255
-18.687716214695740 -2.784364385788308 57.288250125738038 181 145 108 255
-20.012539321449765 -2.643645734560309 57.085329883528090 147 106 75 255
-20.638299417302818 -2.220041860567505 56.991022813230693 180 139 112 255
-21.064298757593832 -1.716198820954702 56.927819624050649 176 129 107 255
-22.089035467834378 -1.466015874796980 56.771723271385447 179 133 109 255
-22.614588472280843 -1.010028766466874 56.693232099063174 156 110 86 255
-23.040250204317488 -0.514097658494180 56.630346669748292 176 133 108 255
-3.762297938166398 -1.745070321682704 58.881208405096594 183 150 108 255
-4.190429647386168 -1.187462467637360 58.818069384971750 155 120 81 255
-4.318827118950765 -0.513414586894058 58.800725242366688 133 126 74 255
-16.613136314715405 -2.610270861386923 56.935004692679222 176 171 120 255
-19.834800463812314 -3.236791443155468 56.446060790048541 185 145 110 255
-20.660164245503012 -2.893506078379048 56.322764745802040 162 118 88 255
-21.285741572139926 -2.471619865449426 56.230030923090403 175 130 105 255
-21.512006976522969 -1.886161256712597 56.198314835258209 178 132 109 255
-22.037581658336791 -1.427449442196007 56.121013933938897 174 128 104 255
-22.762594695464514 -1.055710033451589 56.013361700410421 162 116 92 255
-23.487455671720681 -0.687599716598541 55.905816809714644 175 131 106 255
-10.706176457768379 -4.435550716436282 57.134265708100820 159 150 100 255
-11.233355151205018 -3.935945616184725 57.057259007632837 172 138 100 255
-9.164006020535226 -2.411994671301073 57.369380852154400 149 116 75 255
-6.496001658574414 -0.637934946293228 57.771327626631361 124 111 61 255
-17.660717254499730 -3.018996927435708 56.105142159245169 182 171 120 255
-20.482411236394597 -3.484870093290752 55.684663197144069 189 146 111 255
-21.107958270416560 -3.061046580780385 55.593403695328696 169 127 96 255
-21.633587965553204 -2.598937352249791 55.517202414772534 169 122 97 255
-21.660230534794550 -1.931052348339989 55.515889673222333 178 133 110 255
-21.986166680182521 -1.388826295014454 55.469802003586800 175 129 105 255
-22.711053052380095 -1.016906553652944 55.363988720699659 164 118 94 255
-23.834759885929799 -0.818545834178025 55.198456379405755 174 131 106 255
-13.979831263413331 -4.997523944774926 55.966189218855398 157 146 98 255
-13.907453676014626 -4.270934249417962 55.978758901060566 161 124 84 255
-11.538966698605350 -2.629028894729558 56.329307917612120 142 107 65 255
-8.172789091674076 -0.573608823845220 56.826809062377500 129 128 76 255
-18.109109287314709 -3.184161670936717 55.368861635986761 191 170 124 255
-20.930208998317966 -3.651177964234847 54.955924014765039 193 143 111 255
-21.056706842803322 -3.022905957153114 54.939680936344622 180 139 109 255
-21.482482305728922 -2.519218113714174 54.879469207575717 165 120 95 255
-21.608902555710102 -1.892552323512064 54.863415073426246 175 130 107 255
-22.134280821170989 -1.434023868114494 54.788712918539638 174 128 104 255
-22.859018790908863 -1.062465450653221 54.684741441817870 165 119 95 255
-23.982498540904629 -0.864461894318666 54.522134309297982 170 127 102 255
-15.854011901073193 -5.023846619857437 55.017413136068605 169 146 102 255
-14.982971774032109 -3.983702448631576 55.145127463931452 160 121 84 255
-11.716896109864109 -1.977655841747506 55.618978096207478 136 106 66 255
-13.441052469718358 -1.969054738504241 55.371926477451780 144 126 83 255
-18.457564451204291 -3.308688514711378 54.649192364152107 190 162 125 255
-21.078543186597301 -3.694873074089585 54.272631923807253 193 144 115 255
-21.604042068524677 -3.231451527912526 54.198944841753963 190 142 116 255
-22.029684678947916 -2.729207464585954 54.139770055487269 165 121 94 255
-22.156031141899632 -2.103991162566089 54.123938147730634 173 128 100 255
-22.581531523360979 -1.604972738545072 54.064955958040606 169 126 99 255
-23.206373936751817 -1.192380660500916 53.977244220390425 163 122 94 255
-24.030493569396953 -0.867837843685194 53.860807128261676 163 127 98 255
-16.302775134043401 -5.184253619980026 54.278630578721398 157 157 105 255
-16.329999734379925 -4.503177874291666 54.276524634303435 184 147 109 255
-15.159844498757025 -3.341548110103375 54.444282296717311 168 125 90 255
-16.184903079949549 -3.060073777595420 54.300853406477209 140 103 68 255
-18.706141865334246 -3.392582980716597 53.945318991502667 197 156 124 255
-21.027340032861844 -3.656817993421313 53.618199129529124 192 140 114 255
-21.951704094625256 -3.357693758073566 53.489236926830280 188 138 113 255
-22.476962809693731 -2.897741824335981 53.416954923713533 170 124 98 255
-22.403813096373057 -2.190374323843329 53.429635683673311 173 130 101 255
-22.629801602313108 -1.608117588670282 53.399975619915686 163 122 94 255
-23.154831032155585 -1.153407214544004 53.327981403825540 154 117 88 255
-23.978804097294955 -0.828679882600454 53.213659021191340 158 124 93 255
-16.579017151227049 -4.585171066576734 53.567643738360808 173 160 113 255
-16.506456406554207 -3.864572939289474 53.579457752600753 186 148 111 255
-17.531177146782483 -3.586694904435319 53.438706857247610 185 139 107 255
-19.154121221291149 -3.557584340256454 53.214798154797954 191 142 115 255
-21.075905783057351 -3.659568531669791 52.949371431761882 188 139 112 255
-22.398966687640893 -3.525002278030243 52.767304801445732 188 138 113 255
-22.924083527880612 -3.066218369396694 52.696334320593586 175 130 101 255
-22.850910039050149 -2.360027962503594 52.708698887367682 171 130 100 255
-22.877443645480014 -1.695079002606903 52.707279809622882 157 116 86 255
-23.203002477010557 -1.156589050178709 52.664336163187450 146 110 78 255
-23.927153655686510 -0.789470704819436 52.566002582021255 152 118 86 255
-16.855135504220129 -3.987181491527863 52.857759181797412 186 153 116 255
-18.079089279043558 -3.790800165650424 52.692468816641984 192 144 115 255
-19.203061441670599 -3.560226864623800 52.540883982715798 188 141 113 255
-20.426503983838387 -3.376339803641400 52.375794392701955 185 139 112 255
-21.450287982065674 -3.116590472351305 52.238013732600798 186 140 114 255
-22.473854601735695 -2.862127811069897 52.100332616433271 179 133 104 255
-22.799463521355278 -2.321317401500608 52.057968073267823 171 128 96 255
-23.025340517267352 -1.740053648234394 52.029297901403588 153 113 82 255
-23.151518204237902 -1.117516368280619 52.014321905623845 143 108 76 255
-23.676252862215108 -0.665261575121221 51.945036903253616 147 114 81 255
-16.904529651222049 -3.989643716130502 52.177706231339336 174 165 119 255
-18.826228454143433 -4.075465470656653 51.922285208317341 186 147 116 255
-19.850207092037380 -3.806283787745116 51.786981667467806 189 139 112 255
-20.574898083309563 -3.419859250489239 51.691775022978113 185 135 110 255
-21.399115730375087 -3.078219170252481 51.583329032119337 184 137 111 255
-22.223159334558915 -2.740782501087807 51.474978759820395 178 134 104 255
-22.947371503737230 -2.365883843326174 51.380056443754448 169 126 94 255
-23.372491444224806 -1.868841473098968 51.325222517627452 153 113 81 255
-23.598252605407254 -1.289411039806254 51.297142700774721 144 110 75 255
-24.023220300890046 -0.795854496420176 51.242496893590037 144 111 76 255
-19.174324762286119 -4.198863525011163 51.208163353707178 192 160 125 255
-20.497117083921268 -4.052289513512335 51.036345417363556 195 141 116 255
-20.723253227874380 -3.463336566244621 51.008313929798597 188 133 110 255
-21.447642658151977 -3.080925653277788 50.915058841313837 181 131 104 255
-22.371177085304652 -2.784953064411425 50.795775054542169 174 131 99 255
-22.995602431878524 -2.368745121138332 50.715768940169134 161 123 87 255
-23.420643294938174 -1.871786257692719 50.661975981813939 151 114 80 255
-23.646364767745183 -1.292443328296727 50.634393718083871 143 110 75 255
-23.971648076460411 -0.756500643530330 50.593844714884312 140 110 74 255
-18.226563675571924 -3.798282013781119 50.661986982990825 169 165 112 255
-20.446161135394533 -4.014229525162463 50.378518540774806 193 146 117 255
-20.871569481891896 -3.506773680435430 50.325409174989048 194 141 117 255
-22.094008922723731 -3.330287162930190 50.170060959985463 184 134 107 255
-22.718413782078386 -2.911854323014126 50.091551508630452 171 124 94 255
-23.342688105749573 -2.496538081793318 50.013133534383087 157 120 84 255
-23.568402637162478 -1.916616794749984 49.985962527245114 151 115 81 255
-23.794073516930325 -1.337631164901680 49.958880301647000 143 113 75 255
-24.019700889862207 -0.759574731199280 49.931888396597159 137 109 73 255
-19.099901777030396 -3.448690116985205 49.882936517462539 174 155 112 255
-20.222799127879000 -3.223422812611346 49.743222370273770 190 145 117 255
-21.644317876467539 -3.127337100676229 49.566045535016102 183 137 108 255
-22.667095488575768 -2.873167591814521 49.439045794567498 170 123 92 255
-23.291262011255554 -2.457657309817634 49.362215054876451 157 116 84 255
-23.815710501705865 -2.003331464142079 49.297993314386105 149 114 79 255
-23.842166192358036 -1.340574791803093 49.296447505597058 140 111 73 255
-23.868621709683993 -0.677664106390708 49.294988194589635 133 106 70 255
-20.171972625344949 -3.185107984845118 49.083756004054663 183 154 117 255
-21.792426928972105 -3.171043669119911 48.885840699922085 179 134 103 255
-22.715406619318571 -2.875830784000570 48.773764441250499 168 120 89 255
-23.638190890540244 -2.585363087438751 48.661781726280523 152 112 79 255
-24.361643901220191 -2.215782100891502 48.574386436372016 143 110 75 255
-24.288487733177305 -1.512268859865472 48.585050836498894 135 107 68 255
-24.016260386651965 -0.723123178217776 48.620289478151591 127 102 65 255
-20.519552575090046 -3.310129246710076 48.375842719512534 171 157 113 255
-21.840916393137633 -3.173601780340661 48.218166318974767 186 137 107 255
-22.863288193354578 -2.919842467012558 48.096518668296810 172 124 92 255
-23.487206404201970 -2.504753412829075 48.022869838212713 154 114 81 255
-24.409639268512109 -2.218555971594853 47.913383432791903 141 107 72 255
-24.336502136492470 -1.515127867393019 47.923739766856798 134 105 67 255
-24.163859881597602 -0.768539352887245 47.946152577376168 124 99 63 255
-20.767443201439931 -3.394272975487596 47.681270126204936 159 153 106 255
-22.586334229463944 -3.463908725262115 47.468553789190288 187 138 106 255
-23.508882363471542 -3.170731089629129 47.361295822463276 175 129 96 255
-23.833998389151759 -2.632380714369830 47.324360388809865 155 112 80 255
-24.457635013710501 -2.221294104040069 47.252394755423794 142 106 72 255
-24.284999030892862 -1.475754213956336 47.274148664130699 135 105 67 255
-24.211913261754489 -0.771447874521755 47.284278897459089 127 101 64 255
-20.417942318994335 -3.233345456927637 47.056406770329048 147 157 99 255
-22.833770058352769 -3.548618587979277 46.779921211998953 184 134 102 255
-23.457526722480679 -3.131905872666152 46.709378923264993 176 125 97 255
-23.981633240226103 -2.676664176242824 46.650356316744165 152 107 78 255
-24.406122228788263 -2.182074962407327 46.602852264425756 140 98 73 255
-24.532030038981702 -1.562930574422708 46.589731483307531 134 100 70 255
-24.458941544755874 -0.859250517722046 46.599557108994887 111 85 52 255
-22.683040865619631 -3.468857913805451 46.137037729125872 182 133 100 255
-23.605232912866938 -3.175813869377862 46.034599666965519 174 123 94 255
-24.029729177955062 -2.679263327459452 45.988066834222323 153 106 78 255
-24.255159996386482 -2.100903596156215 45.963941367493277 143 98 75 255
-24.381068912652324 -1.481295886550129 45.951058437105324 131 97 67 255
-24.407488548565340 -0.819620590559950 45.949417437018347 110 83 53 255
-22.731395266891553 -3.471291631198511 45.471287140710004 179 129 98 255
-23.255444174992306 -3.012795139388302 45.414833775901087 172 118 90 255
-23.779384435594807 -2.556882643209832 45.358462017909247 153 106 78 255
-24.303216196710082 -2.103548387228301 45.302172976367103 141 98 73 255
-24.628022054904221 -1.568402316282786 45.267749377810695 126 91 61 255
-24.753867100948554 -0.949812345668477 45.255188215545047 107 79 48 255
-22.879232827602095 -3.514807930595978 44.794916699845423 170 125 91 255
-23.602114536614124 -3.139406744011282 44.718550246851294 166 117 87 255
-24.125922857158542 -2.684375849902167 44.663509934338705 151 104 76 255
-24.450722874056737 -2.148084481422941 44.629792117604119 137 95 70 255
-24.477140575658893 -1.486710150223360 44.628013320543090 120 86 56 255
-24.503558346034879 -0.825193673854116 44.626311212845053 107 79 47 255
-23.524345368052792 -3.763831939640397 44.067330145465121 164 123 88 255
-24.048119433302986 -3.307365152703866 44.013544754113425 162 115 85 255
-24.372902797638460 -2.770188923666879 43.980539032231647 152 106 77 255
-24.896481508064312 -2.318348416833601 43.926911244389963 133 91 64 255
-24.823435431615223 -1.615943583078931 43.935457542882844 119 84 53 255
-24.750411103400381 -0.912856464126193 43.944077644873580 107 78 47 255
-23.473121379745294 -3.725083351232371 43.413562399875119 162 124 88 255
-24.593399850036150 -3.516669134910288 43.300628875129135 160 115 84 255
-24.719226092430688 -2.897620945321606 43.288576349439367 149 104 75 255
-25.143262205478379 -2.404742635038616 43.246360674192566 131 89 60 255
-24.970813289631479 -1.660766109160420 43.264690308374732 120 85 53 255
-24.997185636305261 -1.000486707976350 43.262936708248226 108 79 48 255
-23.322514264447136 -3.645212024450331 42.769061926789448 165 131 94 255
-24.144359006579862 -3.312188351385117 42.688515257163118 161 112 85 255
-24.170816701250402 -2.650209341783764 42.686517181616210 151 103 77 255
-24.694228665432206 -2.197690527159693 42.635551063482374 137 87 58 255
-25.018772315497529 -1.663373671646610 42.604277491279561 120 78 49 255
-25.243881975254453 -1.088086136017225 42.582887038614125 103 75 44 255
-23.171986754059560 -3.565326104887717 42.123475599729268 168 130 95 255
-23.993694311898849 -3.231820966169082 42.045076891307929 165 114 87 255
-23.920790288252249 -2.527724317449938 42.052595296438689 154 104 79 255
-24.543506209375408 -2.116374331977028 41.993424581469085 138 90 61 255
-24.868011194506494 -1.581584395839329 41.962940669873390 121 79 49 255
-25.093101908057690 -1.005826075753617 41.942067675392657 103 74 43 255
-23.419074792105874 -3.649838286837877 41.439729864047976 170 133 97 255
-23.942482334602516 -3.192812878835326 41.391285835079763 167 118 90 255
-24.167694431050535 -2.613446623538138 41.370715478398601 155 106 79 255
-24.392863177479882 -2.035041708271919 41.350215731710307 138 91 61 255
-24.717329431904176 -1.499777521819880 41.320523023320860 120 78 49 255
-24.743741373567701 -0.838634194627573 41.318697205892413 102 72 41 255
-23.367992118743047 -3.611025894023811 40.784055205435337 173 134 98 255
-24.288724482826950 -3.319280152818706 40.700965068676354 166 121 90 255
-24.613205951697751 -2.782433537330704 40.671927567145275 154 109 80 255
-25.036954307942722 -2.289005015815050 40.633966365003474 139 91 61 255
-24.864690110678708 -1.544508440949144 40.650041875211734 124 80 51 255
-24.791779677520566 -0.841251103619115 40.657189950856647 105 73 43 255
-23.217605121624388 -3.531100699388759 40.136559583905878 173 132 97 255
-24.634849398396511 -3.445726776563347 40.012266434699811 168 121 91 255
-25.157883795472117 -2.993038602518624 39.966580835531822 157 110 80 255
-25.482185686455608 -2.459113115317678 39.938415441958071 139 91 61 255
-25.111313445958302 -1.631402177429294 39.971380746439550 124 80 51 255
-24.939109120391322 -0.886302374458012 39.986963040588833 105 73 42 255
-23.067297793218870 -3.451166969931677 39.487973923082052 173 130 96 255
-24.881542975764745 -3.530783740253682 39.333643309690054 171 121 94 255
-25.106545858687895 -2.953772193804525 39.314661631238877 157 105 81 255
-25.827967886982407 -2.587285504730559 39.253483390345423 139 91 64 255
-25.357858750547621 -1.718274646540493 39.293803426284718 125 80 51 255
-25.582754038785197 -1.143599663689528 39.275024026406513 105 72 41 255
-23.512901628069272 -3.617820688728429 38.789191857362567 176 133 99 255
-25.426041989400574 -3.739933923185646 38.631548424317913 173 123 96 255
-25.551666168723756 -3.122695705012674 38.621283840065047 158 107 82 255
-25.975087166758158 -2.631615891570348 38.586537979497905 137 89 62 255
-25.604326034759623 -1.805127397508912 38.617308926910333 125 80 51 255
-25.928409959396333 -1.273510604617528 38.590877612531870 108 74 41 255
-25.954708518181491 -0.615214120203603 38.589054911913820 89 61 29 255
-24.057634499389337 -3.825555968806484 38.084656379959995 180 135 103 255
-26.168894544055945 -4.031801670741842 37.916332105693911 176 126 99 255
-26.294421631276862 -3.416517621764754 37.906334337070383 160 108 84 255
-26.320674075369965 -2.759751177475096 37.904309632217455 141 92 65 255
-25.850715306029002 -1.891961950443672 37.941896315934301 127 82 53 255
-26.472411409868130 -1.488302332789203 37.892538372946007 109 75 42 255
-26.399433680841156 -0.788704157208429 37.898612641319019 94 66 35 255
-23.907310319201599 -3.745593462947966 37.436317990336022 185 141 109 255
-26.514452156975608 -4.158176335252662 37.235467885933325 180 130 103 255
-26.540681124308037 -3.502124466105968 37.233375493120157 160 108 84 255
-26.368443369542717 -2.762142540257670 37.246621933964889 143 94 65 255
-25.997803954710747 -1.936600289642612 37.275203604502451 129 84 53 255
-26.520157724244086 -1.490818808762867 37.235098100133364 111 75 43 255
-26.447198085948514 -0.791286736276845 37.240887686887270 96 67 36 255
-24.451789177849889 -3.953302645378827 36.735287068225325 186 141 109 255
-26.760657166212440 -4.243171048020898 36.563592008581040 180 130 103 255
-26.985311835991723 -3.670993424152357 36.546754901289319 160 108 84 255
-26.813068427876516 -2.932155525326678 36.559454198236907 143 94 65 255
-26.244056893308880 -2.023403897014276 36.601681195702028 130 84 53 255
-26.667096822727189 -1.535771983151960 36.570288355947710 113 76 45 255
-26.494963106953577 -0.793855557220269 36.583161783786139 98 68 38 255
-24.499939578871306 -3.955520498795494 36.072457474683070 186 141 109 255
-26.312274455623054 -4.038594650600075 35.942487431436639 180 130 103 255
-26.636146866134709 -3.506756369550928 35.919083429242235 160 108 84 255
-26.761566470855200 -2.892617557305158 35.909937055751186 143 94 65 255
-26.589415074903400 -2.152371186324814 35.922141299522202 130 85 54 255
-27.012342097700270 -1.665608317183342 35.891825231619734 115 78 46 255
-26.741051986760368 -0.881849675960382 35.911243438381881 100 70 39 255
42.468212889495078 -2.682825784933755 40.064017925232356 141 118 86 255
41.140586295200819 -2.271176844376484 39.970547877571946 128 104 70 255
38.220915082716260 -2.398773950933759 39.767332982095610 115 95 60 255
38.983739739215139 -1.301459701133268 39.818101658834777 102 89 49 255
37.358419294428472 -1.011086041885861 39.704232165019420 90 88 45 255
-21.743546570359257 -3.476017990744495 35.603101805015953 166 159 109 255
-25.143331845215499 -4.204301935817170 35.368641105502249 186 140 108 255
-26.260873499646920 -3.999482606618471 35.291349844200170 180 130 103 255
-26.783066163456624 -3.550698116311892 35.255098169918213 158 111 85 255
-26.710104649069194 -2.853074371354424 35.259871278483281 146 97 67 255
-26.438838044884022 -2.070441571390873 35.278351594649521 134 88 58 255
-26.663400680494817 -1.498299104970613 35.262759895887669 118 79 48 255
-26.788778886363758 -0.884393123370316 35.254055206569170 101 69 39 255
36.203027436745629 -6.392688795437067 38.813324245867733 166 128 105 255
35.672320551929204 -5.731337179894425 38.776177748257282 162 124 101 255
32.820032380942052 -5.010741530073616 38.583319209814732 140 105 81 255
31.294848550447057 -4.695134987720579 38.480391958221468 134 99 74 255
29.968973903424626 -4.320623113495458 38.390711949320959 121 92 64 255
30.135573884621408 -3.446177735214803 38.399930555860770 107 87 55 255
31.694692489243607 -2.093709666189255 38.501401619242841 95 85 50 255
33.651298630244924 -0.595274775608672 38.629206647245852 83 84 41 255
-22.089845935632269 -3.600671332233361 34.912985540507762 170 163 113 255
-24.893804567982244 -4.083227471192316 34.727090370714734 187 140 110 255
-26.011160129665853 -3.877640881938518 34.652775195241574 181 131 104 255
-26.533284861482940 -3.428095412779712 34.617872569476880 159 112 86 255
-26.559528260374236 -2.771622339113193 34.615811923633615 147 98 68 255
-26.288340462049945 -1.988508891892508 34.633471906772300 135 89 59 255
-26.413750457810266 -1.373435861144685 34.624967801844548 119 80 49 255
-26.737384148645191 -0.844210288149938 34.603417002388291 103 71 41 255
40.688591619869385 -6.617675828987956 38.279858891737703 133 96 74 255
37.768531680433455 -6.707145945595457 38.092126163467618 173 130 111 255
36.242448882629844 -6.361858937239745 37.993056865244810 172 125 107 255
33.821071893974704 -6.316787449282330 37.837127676553735 171 125 107 255
30.803201895967902 -6.481064166878255 37.643345811434024 159 116 99 255
28.780906775136884 -6.331717407110403 37.512887392616918 144 109 88 255
27.853342530719772 -5.827377817451563 37.452033498803992 138 103 81 255
27.323858749996873 -5.193833432427439 37.416505992120662 128 96 73 255
27.590163587666723 -4.292639589606196 37.431561957273288 120 94 67 255
28.453099542906784 -3.185449223787415 37.484537733603489 110 89 60 255
29.813033709222964 -1.901736582032299 37.569095882499859 101 85 53 255
30.576105797847788 -0.818156062560547 37.615763591480523 93 86 49 255
-22.237671619194828 -3.643674717614886 34.237058433894276 175 164 114 255
-25.140233564719495 -4.167621085784035 34.052465054575428 187 142 109 255
-26.356505553764435 -4.003981237645860 33.974845328090268 182 132 105 255
-26.680205774464326 -3.472029220414441 33.953869445978398 160 113 87 255
-26.607301390419821 -2.773977684627951 33.958091189238282 147 98 68 255
-26.137922321622625 -1.906574465880723 33.987501581682039 135 90 59 255
-26.659785933556378 -1.460797115253044 33.954128910404066 119 81 50 255
-26.785131965432186 -0.846737004906700 33.945950492324748 105 73 43 255
43.880207066257640 -7.295878511767569 37.643322873128540 170 134 111 255
39.466676924788487 -7.831386052785163 37.372447705673920 163 123 103 255
36.746056488100919 -7.852915148838065 37.204687847240493 129 88 68 255
36.016339730609502 -7.250952315577209 37.158142792333095 176 133 114 255
34.391235350716158 -6.942450671224748 37.057142998351850 173 128 109 255
31.871035878228440 -6.934701401307919 36.901725845800868 169 123 107 255
29.351382391572542 -6.940526119904632 36.746397295419158 164 118 102 255
28.224887563504524 -6.498075497309188 36.675868820658692 152 111 93 255
27.198096555085158 -6.028365458747757 36.611442520367284 146 109 90 255
26.469878113161656 -5.463522886891809 36.565211615453109 139 105 83 255
25.841254946199911 -4.868710743617214 36.525071594649127 132 103 79 255
26.405913666898130 -3.868352050890891 36.557520400134649 125 95 71 255
26.871027866336419 -2.899131480583435 36.583937492133444 113 89 63 255
26.938407871675054 -2.065683349744745 36.586199168836664 107 87 59 255
27.900338501597957 -0.917810713924297 36.642864059310398 100 84 57 255
-22.087983152968008 -3.564213230078622 33.579711277512700 178 164 116 255
-25.089141415090097 -4.128735879055341 33.396960374348566 190 147 115 255
-26.503459797725782 -4.047590807160688 33.310561301633136 182 132 105 255
-26.628835827509135 -3.432693942098823 33.302427696552435 168 120 95 255
-26.853305924658599 -2.860135885023709 33.288334517346883 152 103 73 255
-26.681315239033495 -2.119854213675708 33.298349774911074 138 92 61 255
-27.103930745145931 -1.633036772106422 33.272343957241205 118 78 48 255
-26.931963285671259 -0.891971470621229 33.282468061563812 105 72 42 255
43.752913104814013 -8.172820098784740 36.794049406812086 157 117 94 255
37.846855915482706 -9.163068715522826 36.448237752948309 161 121 97 255
36.420377052942854 -8.773775526264401 36.363044606788975 154 110 94 255
35.491740246607037 -8.233944022876486 36.306837356650092 124 78 63 255
32.871871414598729 -8.241484669547702 36.152328826203671 182 135 119 255
32.142788014375697 -7.651770806239355 36.107796590106780 174 127 111 255
30.518591871821855 -7.357941917667603 36.011262867589537 172 123 107 255
28.894746602893463 -7.072824346274814 35.914792585487390 169 121 103 255
26.873441563919982 -6.928366811722654 35.795268233308462 158 115 96 255
25.946433542029297 -6.428928567854086 35.739380272811445 152 111 91 255
25.317917240605993 -5.833819846391194 35.700870634910174 145 109 87 255
24.888374943873316 -5.174404030472232 35.673952902193669 140 106 84 255
24.657741575987075 -4.449056249288773 35.658620333113689 132 102 78 255
24.427155116597419 -3.724829398303271 35.643320107695843 124 94 72 255
24.296003121590161 -2.967110170718414 35.633825146981060 116 90 67 255
23.966122536392504 -2.279720715126857 35.612821077665487 107 88 60 255
25.226166251031827 -1.031595364390341 35.684164231830039 97 84 55 255
-22.533207687193169 -3.729681710372432 32.886788385511061 183 167 119 255
-25.831114120961104 -4.418581415917956 32.694938214289394 196 152 119 255
-26.650375492140768 -4.091198930123795 32.646807761434154 185 135 108 255
-26.874825394315280 -3.518254727138455 32.633202972926014 173 125 100 255
-27.099232453389618 -2.946288285524943 32.619652860294579 159 109 80 255
-27.125427175065738 -2.290948395624397 32.617642169035307 142 96 65 255
-27.349770693080615 -1.720377889177215 32.604202745055957 120 81 50 255
-27.078755843522572 -0.937198266555555 32.619522440537459 104 72 42 255
37.620588205895842 -10.054613101095029 35.609806346205488 157 112 96 255
36.094745440474867 -9.693096328246270 35.522899340027671 159 114 97 255
35.066722060448001 -9.182940366322114 35.463629487098004 150 104 89 255
34.038919918971203 -8.678271670802602 35.404402658721288 116 70 55 255
31.618671439422997 -8.625786733131562 35.268028878088373 187 140 124 255
30.392532375569658 -8.200217728527463 35.197884914521893 180 133 117 255
29.663930453987234 -7.618965871953165 35.155346881951871 174 125 109 255
28.139934402956669 -7.303304882274006 35.068770241118514 169 120 103 255
26.417401568136597 -7.061786652617926 34.971237527145490 163 116 98 255
24.794663039860893 -6.796253179086847 34.879278492170286 157 112 93 255
23.768742423771698 -6.338248810009688 34.820418759200429 153 112 92 255
22.941842985291260 -5.818099909728843 34.772618007492987 150 112 91 255
22.612068412353608 -5.131976750774015 34.752379012856167 144 108 87 255
21.785468546797176 -4.619206970765291 34.704664392061311 142 107 87 255
20.959045363942835 -4.110795057582990 34.656997404759437 132 101 80 255
20.430870089029270 -3.502101216640966 34.625877196182032 122 96 71 255
21.989078458274491 -2.158019511212274 34.710260707521186 108 86 59 255
24.043621047895726 -0.628228883506310 34.822120322738400 97 81 51 255
-23.771229206155112 -4.221704944414995 32.152217178786884 185 171 124 255
-25.779944946824344 -4.379696909797971 32.040491518977518 190 148 116 255
-26.499959881037199 -4.010725837059937 32.000004556513119 184 136 112 255
-26.922563440149816 -3.520550834729505 31.975996672274821 175 126 102 255
-27.345080959818148 -3.032436139970102 31.952045764051665 161 111 84 255
-27.371252014627714 -2.377689717071178 31.950036141737012 146 99 68 255
-27.298369522487434 -1.680385789809989 31.953548760046779 126 83 52 255
-27.027422570705767 -0.896993525819440 31.968051632014841 107 73 39 255
42.901232215982645 -10.107094098121365 35.065221433363014 151 120 101 255
40.379672257189839 -10.028515225842270 34.929794773684947 151 115 96 255
37.062660095538831 -10.210153087670406 34.752466688551721 152 111 93 255
34.840747541977976 -10.067666611331518 34.632950532458828 153 110 93 255
33.614098477460232 -9.623496845805548 34.565957861242850 152 106 91 255
32.586648701000456 -9.122623054416081 34.509500126413712 114 68 53 255
31.261050460609340 -8.722953128420329 34.437358511414935 185 138 122 255
31.029640817811526 -7.976437969811613 34.422920240490512 181 134 118 255
29.605060474337563 -7.620440197863218 34.345629290891139 178 129 113 255
27.484819451013777 -7.501095368049889 34.231725781113369 175 126 109 255
24.867971465336325 -7.558096862281914 34.091712012731570 170 119 102 255
23.444518920922803 -7.230114109309014 34.014617013747696 163 114 97 255
22.418939553385314 -6.775638952440119 33.958518737720439 165 118 100 255
21.691722593968109 -6.225223404608471 33.918169363865637 162 119 100 255
21.858989738909258 -5.372026130886965 33.924950322675755 155 114 94 255
21.330703783354750 -4.758155436756581 33.895136692118683 151 113 94 255
20.305788402604890 -4.320062212110145 33.839214835714600 144 108 89 255
18.188381406574877 -4.271058985100737 33.725834785718590 137 105 82 255
19.647189129193180 -2.968104170006882 33.800708025544694 128 97 73 255
21.502938407203430 -1.515402485718965 33.896477611185688 117 90 64 255
-21.342097241706853 -3.203414573519751 31.616691046659458 183 171 123 255
-26.224259480729273 -4.546263758985589 31.359472744000705 189 147 116 255
-26.845013262164173 -4.137056351850404 31.326092927256255 185 137 114 255
-27.366570560902062 -3.689367639139533 31.297973115718964 176 128 105 255
-27.590851424993872 -3.118580673615284 31.285512819819107 163 113 86 255
-27.616998775416192 -2.464426447865478 31.283505475554790 149 101 71 255
-27.445077648107826 -1.725275909643869 31.291947173450843 130 86 55 255
-27.075153087498279 -0.899499315523585 31.310834264863391 110 75 38 255
39.987672852257845 -11.821503501906378 34.079330006145923 150 118 95 255
38.760172191558809 -11.350209913187513 34.015449856428724 149 114 95 255
37.731918474826045 -10.824393261699441 33.961568306480132 146 110 91 255
36.703886249443258 -10.304077830520981 33.907725633621794 149 108 87 255
34.382974370877207 -10.193500841422804 33.789247829828199 153 109 90 255
32.360941033226595 -10.001346959848021 33.685766129212865 147 101 86 255
30.836583815660219 -9.661906819582470 33.607214102107484 114 68 53 255
30.008613632410004 -9.107309771534375 33.563514897074811 176 129 113 255
29.180821079842133 -8.557112024245015 33.519853721749612 176 129 113 255
28.552036323805510 -7.946416323307432 33.486168363941331 181 132 116 255
26.034703985610690 -7.960648797845849 33.358141924191827 179 130 113 255
24.611245376637498 -7.625597016769987 33.284824432197624 175 126 109 255
22.790563363982699 -7.431196459092192 33.191705513514606 171 122 105 255
21.566505867901526 -7.045413075052323 33.128434250909706 171 125 106 255
20.442072933361487 -6.632366223242201 33.070178317016385 169 124 105 255
20.609433873202647 -5.782435234888609 33.076464157075250 161 118 99 255
20.578076382105678 -5.000141906397673 33.072850814047875 159 118 100 255
19.752094236377388 -4.494745463442072 33.029597031155596 154 116 97 255
17.833793989965159 -4.377353441215703 32.931862161122233 148 112 90 255
17.107590616454956 -3.848484988636471 32.893671911157881 140 105 83 255
17.275206293644203 -3.004666984707299 32.900119327645321 131 97 74 255
18.832774954201795 -1.660169075168895 32.975940134538789 118 93 65 255
18.702335300326354 -0.918319850135418 32.967565610834683 106 91 58 255
-19.805668969456150 -2.552536683268968 31.023199725457900 181 167 120 255
-25.479589166560970 -4.219770093114235 30.739795481716971 191 149 119 255
-26.991832872556301 -4.180668384283962 30.663657509732097 188 140 117 255
-27.513278720545941 -3.733293374566188 30.636897772214166 180 131 108 255
-27.935580416808051 -3.246622238359720 30.615124002472992 166 115 88 255
-27.862667438014029 -2.551159794140048 30.618049778546883 152 103 73 255
-27.591747007819947 -1.770163380685105 30.630879702688315 133 88 57 255
-27.221888331071170 -0.944713756834915 30.648682927476941 114 77 40 255
38.965195448885254 -12.955204848857377 33.198452319299172 153 122 101 255
36.643486201363771 -12.813423120093930 33.086060998405095 152 117 94 255
36.510886830816503 -12.017932885827804 33.077307249961777 148 112 93 255
35.184658672260355 -11.589733565090611 33.012091829160852 140 105 84 255
33.958177430509181 -11.137833029138619 32.951627410388227 144 104 82 255
32.334162571369120 -10.816891095428275 32.872392770050610 147 106 83 255
30.312744045899251 -10.630146814719296 32.774404473403109 146 101 85 255
29.385470387324688 -10.106306116171055 32.728194195159745 132 86 71 255
29.154315606262571 -9.364069843740253 32.714920925510555 115 68 52 255
29.022614662495528 -8.590815322195482 32.706367841522862 174 127 111 255
26.803636022951025 -8.499541692476711 32.599195063942531 182 133 116 255
24.684522639321472 -8.387507745896784 32.496793137465367 182 133 116 255
23.162110598819766 -8.088966377013037 32.422631751765067 183 132 115 255
22.136841918334369 -7.632307145803878 32.371995380357262 183 132 115 255
21.012441503829052 -7.214633077932902 32.316713505079505 180 131 114 255
19.788941711137227 -6.836749841643268 32.256790690657233 176 129 111 255
19.956331531219121 -5.988464072471231 32.262574807265324 171 125 107 255
20.024361965449600 -5.173479211100059 32.263689860809677 174 128 112 255
19.794447796836948 -4.461814398740515 32.250766439935703 163 120 103 255
17.479322719480422 -4.483674712167414 32.139470815671075 153 113 93 255
16.256857315621232 -4.131373050376425 32.079789489804583 147 109 88 255
14.538272961821065 -3.962660487714231 31.996747785801787 136 103 79 255
14.904635354862819 -3.053730700061820 32.012103499944317 127 98 71 255
15.866442310574826 -1.926918864083490 32.055566406108916 117 97 65 255
16.431060142177841 -0.939625933733936 32.080317339033805 108 95 61 255
-18.666112118059203 -2.064963213163139 30.402371127393803 180 168 120 255
-25.527629237894899 -4.221995663778372 30.078477676017435 192 151 120 255
-27.237652361880265 -4.265641313386126 29.997090827814514 192 144 121 255
-28.155086754673306 -3.985360515201265 29.953055271059156 182 133 110 255
-28.280191951750339 -3.374660906727797 29.946350701949694 169 117 91 255
-28.108257981001202 -2.637890933340159 29.953668701963661 153 103 73 255
-27.738377582550157 -1.815049390879224 29.970345961031306 135 89 58 255
-27.368584755388923 -0.989925475327979 29.987066479373965 114 77 40 255
38.937839259825751 -13.788896334467182 32.367229205119337 147 119 98 255
37.213237575857249 -13.462331056081496 32.287718647105052 146 114 94 255
35.588482616355691 -13.115052197379001 32.212698780121997 148 112 92 255
33.964079366850342 -12.776527674667207 32.137730350577755 144 109 89 255
32.936736890799068 -12.263429952023372 32.089423246992610 138 106 85 255
32.207937887633022 -11.663361332471126 32.054454193664910 139 104 82 255
30.982145908015411 -11.222641085206163 31.997354437072314 139 103 81 255
29.557780465172414 -10.851225230285067 31.931437142657796 142 99 82 255
28.829580080822154 -10.266016160594319 31.896577778034253 137 91 76 255
28.996111818782992 -9.397524685740024 31.901606878714595 80 33 17 255
28.665671922999877 -8.688907115268933 31.884511513092878 175 126 110 255
26.645914607519728 -8.533558796860547 31.792202040786758 175 126 108 255
24.328500041803750 -8.487233496591116 31.686687760653509 180 131 114 255
23.104481874945691 -8.090556361341541 31.629906665893539 188 135 119 255
22.377443463347333 -7.534144341124062 31.595285705229859 188 137 120 255
21.451895688433240 -7.048623325856724 31.551861433500818 187 136 119 255
20.029938740108719 -6.736997227989335 31.486383520145374 183 134 117 255
19.502084998112252 -6.126387793858115 31.460727611194287 179 130 113 255
18.974342999613157 -5.518524032152868 31.435107548328009 178 131 113 255
18.645290798464600 -4.844189402842929 31.418355965986237 171 125 107 255
16.926411145017084 -4.659775938629267 31.339831893557946 164 121 102 255
15.505704866350356 -4.379136045973738 31.274615503415415 156 115 95 255
13.688278050040481 -4.247746826541416 31.191810700808070 146 111 88 255
13.657668197460396 -3.483752029499030 31.188476432747983 136 106 80 255
13.825531174888681 -2.647863383173430 31.193991199966561 124 101 70 255
14.886371257408086 -1.484875380191497 31.239210513374552 118 98 69 255
14.954842358480221 -0.680914768439337 31.240359588422344 102 86 55 255
-19.507837443625135 -2.393743418700936 29.687199662850539 181 167 120 255
-25.476640427091837 -4.183142351992331 29.421535632301040 193 152 121 255
-27.285356151480016 -4.267903626810849 29.340373687541877 194 146 123 255
-28.301619100367304 -4.029286974507883 29.294395331891419 185 137 114 255
-28.426691569820889 -3.418903387376176 29.287967862921082 171 120 93 255
-28.650729612949533 -2.851123741357029 29.277201602164670 153 103 73 255
-28.181896162563874 -1.987249054199594 29.297187685947232 133 87 56 255
-28.109031119480704 -1.291386291217847 29.299673432815805 113 76 39 255
35.826411103687235 -15.527965194739792 31.406586271714513 149 125 103 255
34.002820385941391 -15.234549268753298 31.327578306409976 154 118 100 255
35.064090174776368 -14.088453739733922 31.369476032398307 144 111 90 255
33.340428800198595 -13.776866660544783 31.294705415258321 146 110 91 255
31.119927587484710 -13.625989850827665 31.199164499197984 142 107 87 255
30.987975702575795 -12.845487052983415 31.191122055006378 136 104 83 255
31.353154861077996 -11.911501821709848 31.203903689400153 135 100 80 255
30.326510173803626 -11.410761975578922 31.158435255393389 135 99 80 255
29.001888828283427 -11.009609304059069 31.100526640585969 145 99 83 255
28.671438088151092 -10.299223995559345 31.084247738666246 142 95 79 255
29.036700006241801 -9.367209549445292 31.097090175477334 98 49 32 255
28.905045610462992 -8.593986601625247 31.089159447180656 126 75 58 255
27.084365811053374 -8.372944040568314 31.010621803046067 165 117 97 255
24.668009195048967 -8.357988506785034 30.907227642853023 173 123 103 255
23.245519329131696 -8.026213520624125 30.845431657240926 180 127 111 255
22.518600841272701 -7.469277139751014 30.812744914019717 190 137 121 255
21.692525069168937 -6.949706214101980 30.775946213809068 188 136 120 255
19.873607910565283 -6.772465170253625 30.697705671516246 188 137 120 255
18.650830013284974 -6.400603425369567 30.644413463653706 187 137 120 255
18.023996448711500 -5.829255768612583 30.616048338094036 183 136 116 255
17.695104228059506 -5.157373824696194 30.600155428568975 180 135 114 255
16.075919085827877 -4.940529917501138 30.530429847627293 174 130 109 255
14.556331020569246 -4.697212900454574 30.464910275438612 164 121 100 255
13.632492003523623 -4.249531106606796 30.424299100789845 156 116 94 255
13.304207207160744 -3.592620385106073 30.408575881623303 148 112 88 255
13.372851265021836 -2.793527319451258 30.409443025955351 133 104 78 255
12.647840611567972 -2.283710088059095 30.377236474118011 128 103 75 255
13.311695170218513 -1.266749405454775 30.402986763892176 117 98 68 255
-19.359041003981758 -2.314366487926023 29.017549290818440 181 167 120 255
-25.623711608706060 -4.226470396359844 28.755798563801601 196 154 124 255
-27.630058045270289 -4.394240432499174 28.671288290389871 197 149 126 255
-28.547101050608688 -4.114843783318847 28.632147766515512 192 143 120 255
-28.474174891981221 -3.421252868106350 28.634232483242716 183 129 104 255
-28.698171338162211 -2.853517739439255 28.624013478289051 161 110 81 255
-28.328390048968515 -2.032132559694872 28.638533500059236 140 92 62 255
-28.453421969277002 -1.422004666745906 28.632523552527040 117 77 42 255
-27.885893524915730 -0.511449328709816 28.655357030452290 97 65 28 255
33.578022435185460 -16.171943011068876 30.493733522241566 151 115 96 255
33.744137715738248 -15.295050223272511 30.497628705365258 150 112 93 255
32.716879433692839 -14.774083632303416 30.454776163756250 144 109 89 255
30.397204133615730 -14.648787943694259 30.361328566118271 141 106 84 255
28.376300896541522 -14.445184769584870 30.279628367395635 138 103 81 255
29.835257964947175 -13.183145586818895 30.334207132963577 132 100 77 255
31.194493244412115 -11.943915405630008 30.384867463569417 132 97 75 255
30.665012285255727 -11.287985205368912 30.361605019826101 132 97 75 255
28.744330418061111 -11.073939354217515 30.283933805154998 139 93 77 255
28.016489273821946 -10.490642161153517 30.252966441414632 139 91 74 255
28.083667223490522 -9.655978031880338 30.253115872613566 123 72 55 255
28.051480721750011 -8.853027416670884 30.249393611569705 61 10 0 255
26.628591191024100 -8.504374879177306 30.191323853325926 146 97 80 255
24.610056526786991 -8.359645593632010 30.110014698436423 164 116 96 255
23.386475549274280 -7.961911656929104 30.059818059111080 172 119 103 255
22.262462038831245 -7.537469187531485 30.013549148053276 179 126 110 255
21.337276326501524 -7.051978640823350 29.975083214379296 185 132 116 255
19.717314375936155 -6.807968535990440 29.909520932649329 187 136 119 255
18.594058750750321 -6.402326747642604 29.863397638251783 188 137 120 255
17.967347008391926 -5.830998305546728 29.836695935992822 187 139 119 255
17.142269187015017 -5.332162434736702 29.802285027998593 185 138 118 255
15.225740566743184 -5.221307591441786 29.725323108285341 180 135 114 255
13.210398116212161 -5.155890221713022 29.644559882298203 174 127 107 255
12.485314947150073 -4.640909105796553 29.614177238217120 166 124 102 255
12.554037203114149 -3.844254606143437 29.614787022791472 158 123 98 255
12.622740632689272 -3.047080152858427 29.615422099531347 141 111 87 255
11.798762242853059 -2.575401675887349 29.581285756397506 130 104 79 255
11.768351013349104 -1.816096694091001 29.578119299270607 127 103 77 255
11.737942209625714 -1.056796940507070 29.574983318516178 117 95 69 255
-17.923310290894193 -1.704417510637981 28.396835391820471 188 167 128 255
-24.186900001121813 -3.612453779088000 28.152158460897279 203 155 132 255
-26.786889028647295 -4.024323292764166 28.049982299282441 197 149 127 255
-27.802818379255257 -3.784154368968828 28.009435596611976 194 142 120 255
-28.323743105618234 -3.339818106539539 27.988176764331676 183 131 107 255
-28.844560649580671 -2.898082453479020 27.966970333658892 165 114 90 255
-28.870590019596790 -2.246761827954714 27.965036511856912 139 92 66 255
-28.698769770498075 -1.509913231814991 27.970834842146115 120 80 52 255
-28.131335688987775 -0.599953497266384 27.992046415938667 99 65 34 255
35.241894993661390 -16.499790695436602 29.738085417903687 150 115 100 255
34.015555486107758 -16.027538752377822 29.690683695866980 154 113 96 255
33.584966580230741 -15.326124729341316 29.672322708514788 145 108 87 255
32.359070494524246 -14.864912420908539 29.624984460861430 140 105 85 255
29.045745331323872 -15.040539012077488 29.501601298138937 139 104 82 255
27.621800356706785 -14.658757012236279 29.447123114218108 133 98 76 255
29.478110176614507 -13.276418717253961 29.512165071019876 128 96 73 255
30.837105338135586 -12.038017558192436 29.559073241824134 126 91 69 255
30.407129892134719 -11.351814033809845 29.540834194071778 127 91 69 255
28.288128653296155 -11.201036821142864 29.461133329988968 133 89 70 255
27.560472630522497 -10.618829857401991 29.432114214977886 130 83 65 255
27.727016007863710 -9.753357675498805 29.435654223847344 122 73 56 255
28.092175000177008 -8.822537828871120 29.446429947115693 83 33 17 255
27.066820527486925 -8.343847806140403 29.406647126314166 73 24 9 255
25.644463995609215 -8.001489533481774 29.352463432578453 141 93 76 255
24.321709445767453 -7.633779435294812 29.301940742950052 147 96 79 255
22.701388151490335 -7.372919115238020 29.240643797111215 165 113 96 255
21.279963414195436 -7.053713434113419 29.186618498636420 173 120 104 255
20.355157323282754 -6.573154684341503 29.150675251218953 177 124 108 255
