ply
format ascii 1.0
element vertex 664
property float x
property float y
property float z
property uchar red
property uchar green
property uchar blue
property uchar alpha
end_header
26.732623004977398 -2.078436443202008 40.802093085190478 87 61 31 255
26.655864880405133 -1.527445532591329 40.976204286259872 77 56 26 255
26.697053893675118 -0.843016342632794 40.865632603294699 66 50 23 255
46.849027830895054 -10.543222428260705 -8.947275169695672 178 160 131 255
45.754072260364325 -10.701079249279402 -6.316284279087313 147 107 89 255
44.893315867053261 -10.672722677101206 -4.253003795135783 139 103 83 255
44.773891999498588 -10.013716348940179 -3.988568623457297 132 101 79 255
44.693561937946114 -9.322129806351029 -3.818777364146285 128 97 75 255
44.379255767917485 -8.837620536373166 -3.080702117901296 125 90 70 255
44.260088872716864 -8.184185018759692 -2.816070401082811 118 86 65 255
44.336051272016235 -7.357756325126815 -3.024986655484440 113 85 64 255
44.685149195805550 -6.283934136251005 -3.897010880199787 110 83 62 255
44.410209876108951 -5.772067105869624 -3.253388226381730 110 82 61 255
29.896574105480809 -17.639515075352406 31.954233658592813 172 140 119 255
28.725019137866056 -18.069267629900011 34.780059092208063 164 129 109 255
28.372674945994618 -17.748187841231655 35.616300055581092 164 119 103 255
28.059425955849633 -17.395027477347185 36.357909974980288 164 115 101 255
27.863278628021234 -16.934841648342967 36.815315210780852 160 110 99 255
27.823232923980328 -16.327848885703389 36.893670172734005 156 108 94 255
27.783273915513874 -15.721208913451946 36.972053061717389 153 105 91 255
27.626395827937117 -15.228545652629194 37.334855533187920 150 104 89 255
27.391605192159687 -14.814146918513401 37.887335748127100 148 102 87 255
27.390919290761431 -14.172273604314782 37.871047435585467 144 101 85 255
27.351323681690133 -13.568872318789545 37.949591631841258 138 96 80 255
27.311821958097198 -12.965786661942758 38.028164401317440 133 95 78 255
27.194413303788096 -12.441480249425538 38.296429089774080 130 93 74 255
27.116103123098227 -11.879053933980259 38.469911616857502 127 92 70 255
27.037891483191942 -11.317463756883200 38.643436826786626 127 95 72 255
26.998780690305480 -10.716649680980311 38.722152641157692 128 96 73 255
27.037773042020035 -10.035462127300491 38.611179587152805 127 92 70 255
27.076868462522114 -9.353451773095941 38.500208503438245 132 96 74 255
27.077067760766667 -8.711478920616926 38.484112272913990 130 93 73 255
26.882367795433979 -8.274921580422642 38.942429719091308 127 89 70 255
26.804778245794708 -7.716541983281346 39.116172395066030 114 74 53 255
26.571291318496932 -7.325693030082775 39.669531263543689 95 52 33 255
26.571923400842365 -6.686030704829719 39.653588257286032 82 37 17 255
26.299653351559456 -6.341678383466643 40.302009209678317 165 118 98 255
26.027492740024414 -6.000812242469806 40.950541865821577 151 103 83 255
25.833448136666490 -5.577862500137442 41.409345486508300 141 94 74 255
25.756526455714933 -5.028124854296024 41.583452243344198 134 89 68 255
25.952749003771245 -4.175810167654731 41.093065556516166 122 84 61 255
26.032084507613817 -3.451186071381059 40.887450279003929 113 79 54 255
26.072540163688373 -2.768952798406218 40.776772597733014 100 70 44 255
26.035110326326631 -2.174073676114020 40.856007132186789 86 59 32 255
26.075818646558545 -1.490479543671327 40.745350777744619 75 53 24 255
26.194671546486319 -0.716511651100475 40.444763242960931 64 46 20 255
44.928203983681300 -11.537372229495730 -6.271964295336829 142 106 87 255
44.305654950004211 -11.304136011555912 -4.775982433681463 146 102 89 255
43.605713699431803 -11.146530048273775 -3.090274678413948 141 104 85 255
43.487074388066233 -10.491384894672677 -2.825569970636764 129 101 77 255
43.678480966455012 -9.565092396242861 -3.318875202973686 124 94 68 255
43.559999562622409 -8.910786021741501 -3.054114695962994 121 91 65 255
43.441602735918295 -8.257970725824109 -2.789298109539232 119 89 63 255
43.284548715879154 -7.641532966485940 -2.429646164909911 118 90 68 255
43.088841114683589 -7.062277852598427 -1.975137826552213 116 88 66 255
28.361969882757123 -18.471309584343103 33.993432675795646 170 133 115 255
27.856932273183062 -18.291111284703021 35.209324131247996 161 119 103 255
27.661903646282127 -17.825648950313550 35.666842621557350 166 119 104 255
27.428221685741804 -17.399520158792896 36.219271636388982 163 114 100 255
27.272104087471305 -16.902349169479862 36.582127948368395 158 109 98 255
27.232286994938832 -16.295170123585336 36.660528480286104 154 108 93 255
27.115080141354284 -15.763552612974067 36.928653717964096 150 104 89 255
26.997961564635020 -15.233367711646238 37.196834378336092 146 100 84 255
26.803458910923396 -14.780901603945509 37.654795230244787 142 99 82 255
26.841467192396806 -14.100431593796898 37.543623897955911 139 98 80 255
26.763356587951606 -13.535269345401858 37.717081510933355 135 97 78 255
26.724074846712938 -12.932006070190482 37.795698171360556 131 94 75 255
26.646151169976790 -12.368285563156661 37.969233122047939 127 92 72 255
26.490851861606757 -11.884421292650146 38.332603858850632 125 92 70 255
26.529327720119582 -11.203594911127880 38.221526349678584 124 92 69 255
26.451695112342989 -10.642114490445422 38.395181601841330 124 92 69 255
26.606575021779449 -9.839522918582517 37.999375484128308 124 89 67 255
26.490408192465409 -9.318637318571504 38.267999154209178 127 91 69 255
26.451815216781725 -8.717367115358101 38.346817327492005 124 86 67 255
26.374591136694704 -8.157487604420368 38.520602631163200 120 82 63 255
26.336208607754642 -7.556983240186398 38.599486319035833 111 70 50 255
25.988045918853018 -7.290196351068090 39.438011454945723 72 29 10 255
25.794933373900832 -6.860168569879349 39.896842009475279 150 105 86 255
25.640665395386335 -6.390310929152847 40.260791598213956 160 113 93 255
25.525244011471514 -5.879795807956228 40.529839859515619 148 100 80 255
25.332459859038337 -5.456130708548315 40.988902567444427 141 94 74 255
25.294737613096189 -4.862634895670254 41.068107602873482 131 89 67 255
25.257131524233600 -4.269319487905562 41.147342707567276 121 85 61 255
25.335859284143353 -3.545374240137335 40.941610902957194 112 79 54 255
25.375970721772532 -2.863819201088745 40.830874607296465 100 70 44 255
25.532425717282209 -2.048871208144462 40.435104068277127 85 58 31 255
25.534048193871328 -1.409010593518886 40.419373785176532 74 52 22 255
25.419573005280583 -0.902822692730851 40.688738831087676 62 44 18 255
43.449249521601374 -12.928684917486379 -4.616138934868218 154 118 100 255
43.292663307447768 -12.300428498973062 -4.256681293779423 152 110 94 255
42.943739638021285 -11.840582059488369 -3.423177207102754 144 102 86 255
42.364011079544113 -11.586734675560947 -2.020719143991755 137 101 83 255
42.284638828114666 -10.901368577229334 -1.850560948773818 128 97 76 255
42.513188342647908 -9.944328685866594 -2.438892854052597 125 94 69 255
42.549406238410469 -9.155672037995728 -2.553177702930384 119 93 66 255
42.431785312797174 -8.504828394106013 -2.288140988048099 118 91 64 255
41.890989628599314 -8.239280661956869 -0.979837266061395 119 89 66 255
41.542682717009697 -7.805354803762398 -0.145545926267800 116 85 64 255
28.572504001061532 -18.341264039400983 31.783237927310438 179 145 125 255
27.532130933720822 -18.655442762700574 34.327738877371331 160 119 102 255
27.222888379413149 -18.295426274093742 35.070057119316402 164 118 103 255
27.029155265355158 -17.830035961181579 35.527862199907389 164 116 101 255
26.950927487081913 -17.256826639288278 35.701091741748485 164 112 99 255
26.641942919003696 -16.906883946936233 36.443719962675459 157 107 96 255
26.486938427687519 -16.411779475661547 36.806872912745121 152 106 91 255
26.370492674161497 -15.881056964962980 37.075187956871872 150 104 89 255
26.369549334599768 -15.238149595514869 37.058817056779873 142 99 82 255
26.330220304953755 -14.633185244316863 37.137380554988454 138 97 79 255
26.290979307229762 -14.028554719973897 37.215971797214991 135 96 77 255
26.213356889543704 -13.462938082312306 37.389525299438247 132 95 76 255
26.174296569481285 -12.859223895231665 37.468179296140875 129 94 74 255
26.019917288792911 -12.373514235456170 37.831705877872935 127 92 72 255
25.827162607247161 -11.929242139031572 38.290256977134135 122 90 67 255
25.788384751740736 -11.328340162706638 38.369043767851110 121 89 66 255
25.826643536786563 -10.647630403536439 38.257921473639698 122 90 67 255
25.903470162839639 -9.925790646812828 38.051824696690886 124 88 66 255
25.826516373277897 -9.364955149605279 38.225645380861835 127 89 68 255
25.865073876141722 -8.682332066218947 38.114540647303443 119 81 62 255
25.903734440461292 -7.998871145132370 38.003437504369316 109 71 52 255
25.750148653268710 -7.521612881897511 38.367350991004685 89 47 28 255
25.442786185782438 -7.212958053723739 39.111373813106781 96 51 32 255
25.327881245304269 -6.698571769517429 39.380438272858498 163 117 97 255
25.213083898907868 -6.185495779919307 39.649559326462310 161 114 94 255
25.098395429541441 -5.673721683033733 39.918737044701118 148 101 81 255
24.906874005163942 -5.248792744622719 40.378045550875186 140 95 74 255
24.869350275602869 -4.654045089408498 40.457262751205320 129 87 65 255
24.678051333891872 -4.232771852668506 40.916712072646817 120 82 59 255
24.602283208080109 -3.683070081970257 41.091073305863006 108 76 51 255
24.680525403651345 -2.958593692676956 40.885221410929574 98 68 42 255
24.835838506013800 -2.144333105355116 40.489217143296486 85 58 31 255
24.875854800916940 -1.460730036640413 40.378408443212265 74 53 23 255
24.723619351014989 -0.999632425274854 40.743025060924793 62 44 18 255
42.018639913787510 -14.276967879804488 -3.053186636239161 167 139 114 255
41.863045019902287 -13.652648441241823 -2.693412102335287 155 114 96 255
41.707524846126219 -13.030404506607155 -2.333568962567540 149 108 90 255
41.666734644063396 -12.310428452207191 -2.258218204404045 139 101 83 255
41.396713939687928 -11.792118065970200 -1.613676335241337 133 97 79 255
41.508939293356505 -10.939407017059253 -1.917700443225783 125 94 73 255
41.506586720311489 -10.187194561772017 -1.937129194297313 123 93 71 255
41.618952726870091 -9.331814058948140 -2.241189497546316 120 92 69 255
41.349253088857566 -8.820877273649700 -1.596391669584762 120 91 68 255
40.812151582155934 -8.557824510096111 -0.287213166903314 121 89 67 255
28.886170774038717 -18.116587529256108 29.286079442676623 183 151 130 255
27.661767838621003 -18.595371235435366 32.306357349121470 165 129 110 255
26.819583363055457 -18.731610169843080 34.377858458192208 163 121 103 255
26.588855139755253 -18.299711436699411 34.930791699486662 163 116 100 255
26.434628195280837 -17.797876701528878 35.293946362194049 162 112 98 255
26.395108625431916 -17.187687676528242 35.372336620706875 162 110 97 255
26.241045084883723 -16.689041348854943 35.735607363607016 156 105 94 255
26.010650803390163 -16.267042847279754 36.288862916790492 148 103 87 255
25.856757714714163 -15.772914474491756 36.652284715729223 145 102 86 255
25.741157606719938 -15.242893055093802 36.920803275969320 139 97 78 255
25.816675424377991 -14.523587759615850 36.714482516508667 135 94 74 255
25.701248215938804 -13.995058626576551 36.983076601558224 130 93 72 255
25.662321504149205 -13.390572191915766 37.061740552706624 128 92 71 255
25.585278903887641 -12.825362926093845 37.235431752229402 125 92 70 255
25.508327649409480 -12.261009268276339 37.409164542486138 123 91 69 255
25.355059249441027 -11.776505546956543 37.772965636837284 119 88 65 255
25.278294999293834 -11.214383991185656 37.946795652352108 119 88 65 255
25.316239995728480 -10.532959545737143 37.835586412992939 122 89 66 255
25.354281214480892 -9.850726248112480 37.724377989613174 122 86 64 255
25.163193049898055 -9.411213190787223 38.183415071038610 121 83 62 255
25.277840970537710 -8.647245143022005 37.882154607147584 114 76 57 255
25.354385689617999 -7.922485586493380 37.675922453822380 104 63 45 255
25.278214746958994 -7.361964767135163 37.849923134773803 67 25 5 255
24.896508816875141 -7.135668011857533 38.784511173684905 155 110 91 255
24.744135632035963 -6.662792063010329 39.148801391644383 162 115 97 255
24.477252037486309 -6.318453103537664 39.798406730177220 162 115 95 255
24.325090116359959 -5.850104434664885 40.162857209876989 147 100 80 255
24.173035796976649 -5.383597915300854 40.527377656643324 136 91 70 255
24.403153120478279 -4.488458798299433 39.940946653779093 123 82 60 255
24.251321645073503 -4.022874943968489 40.305539283107578 116 80 56 255
24.176016032492598 -3.471918521122845 40.479970642356619 108 75 50 255
24.139032856354746 -2.877805166039053 40.559322614250647 97 67 41 255
24.331416776938468 -2.018990083562969 40.067928692042557 85 58 31 255
24.294673611294357 -1.423527158187923 40.147299493062377 73 51 22 255
24.219841697887901 -0.872887700539195 40.321842949760878 62 44 18 255
41.394704439583094 -14.939368460736020 -3.480941684584877 169 153 122 255
40.898484841920308 -14.605390604977217 -2.266978074116651 152 117 93 255
40.933721884133249 -13.820210735354948 -2.381391123402466 151 113 92 255
40.817207384193409 -13.166386331133310 -2.116186134312670 146 107 88 255
40.814624410934940 -12.414295132845425 -2.135662483387307 137 101 82 255
40.622350265850869 -11.829785644161575 -1.680531504762030 132 98 78 255
40.733764202894037 -10.977423303135950 -1.984725211333739 126 95 74 255
40.617543327706485 -10.327787555547843 -1.719350369339509 122 94 72 255
40.463451538425247 -9.714002836890714 -1.358980566370406 121 93 71 255
39.929954891954210 -9.448435540135762 -0.049072862162348 118 87 66 255
27.363544528948566 -18.935607131224103 31.327590280380008 172 137 116 255
26.451184171769498 -19.135033765478255 33.590090755355192 166 129 108 255
26.070159083836472 -18.843715200012738 34.523193723288387 167 122 104 255
26.030720095515065 -18.231483804460609 34.601550347351719 163 116 98 255
25.953413223369594 -17.656151769476821 34.774928954937224 162 112 98 255
25.800298233186865 -17.155309457065812 35.138352998191323 158 106 93 255
25.647265096696529 -16.656465807605116 35.501845283530230 150 100 87 255
25.418430370607794 -16.234267355519790 36.055438631084968 142 98 82 255
25.379390526325679 -15.627150786019598 36.134011588412108 140 98 82 255
25.226609029938899 -15.133992676522240 36.497702131204051 135 94 74 255
25.187736702976537 -14.528385498656263 36.576349860266959 130 92 71 255
25.073068289692785 -13.999938771701096 36.845112815426091 127 90 69 255
24.996428035169330 -13.434223801275664 37.018879744490960 127 92 70 255
25.033696321858812 -12.752508080209068 36.907514427778636 124 92 69 255
24.957233597657677 -12.187699710591289 37.081343174684349 124 92 69 255
24.842922524613172 -11.663239318648607 37.350284902051868 119 89 65 255
24.766643723698124 -11.100393523772524 37.524203420670375 116 86 62 255
24.728398012315054 -10.498338545658910 37.603078199302900 117 84 61 255
24.728186451529908 -9.856249848236970 37.586888741273725 118 82 60 255
24.576314713220043 -9.376238688278690 37.951109798609735 117 79 58 255
24.765993044203597 -8.530388621562651 37.459447091349432 113 72 54 255
24.804014460562826 -7.846053072405923 37.348181461645396 87 46 28 255
24.652441050407305 -7.367897983848664 37.712514761532645 91 48 29 255
24.349212105572931 -7.058327914559285 38.457423204010382 153 108 89 255
24.159903387313094 -6.626955428656075 38.917056107887930 163 116 97 255
23.856878976078221 -6.324659186184661 39.662192384485991 158 110 90 255
23.553957496455951 -6.026399651715366 40.407452775644146 146 99 79 255
23.327020078031737 -5.646629850153317 40.962529901244920 138 93 72 255
23.517535109602207 -4.796307650275722 40.470938682166604 125 83 61 255
23.480518907002576 -4.202792706031289 40.550298439019571 115 80 55 255
23.519497716553815 -3.522270517522543 40.439339136330887 105 75 49 255
23.482708156432594 -2.928548706186248 40.518743512811653 96 67 40 255
23.446033868579036 -2.334982228734745 40.598177133734225 84 57 30 255
23.637135146111419 -1.475077811073220 40.106473873679334 72 51 21 255
40.389463169284255 -15.168454425080242 -2.979225437380023 159 124 102 255
40.085140869956831 -14.674148094270507 -2.239201848156426 154 113 93 255
39.893966367237596 -14.085917763642527 -1.783922693053512 145 108 86 255
39.665177074837814 -13.533300651769366 -1.233598254580272 139 104 81 255
39.737967290133497 -12.717723723615208 -1.442938990678385 131 99 76 255
39.471638998229494 -12.202779952014922 -0.797500814482817 129 97 76 255
39.657624159947389 -11.285858877732807 -1.291762172450831 125 95 74 255
39.579874884672776 -10.604651108367918 -1.121142668848222 121 93 71 255
39.426832263282549 -9.993099598899875 -0.760486092036160 120 91 69 255
38.746300316738896 -9.868216890265941 0.930310921033197 119 87 66 255
27.550546075376701 -18.823391536295219 29.112670871493151 180 146 125 255
26.192249433451693 -19.435672768247400 32.516546179045179 166 128 109 255
25.550004434591656 -19.389029618725999 34.115308070776791 168 125 108 255
25.322332193241778 -18.955784645343883 34.668879231621020 166 121 105 255
25.245456751346865 -18.380680110002118 34.842358395821833 163 116 100 255
25.319371747561064 -17.660459261275292 34.635662286022495 160 111 96 255
25.129612476852330 -17.196470517313003 35.094376133939363 153 106 90 255
25.128322630881271 -16.549756358553452 35.077833357145494 145 99 83 255
24.901048005878195 -16.126814387098889 35.631750952988455 139 96 79 255
24.862240943039524 -15.518964871254994 35.710356653087331 136 94 76 255
24.635134348995280 -15.100803280279294 36.264431370527689 131 93 74 255
24.483465791876213 -14.609423525718341 36.628411269750387 129 91 72 255
24.482584607125702 -13.966370934928904 36.612050381470681 126 89 70 255
24.406437710992293 -13.400468735941956 36.785921053379951 123 88 68 255
24.405727277700407 -12.757526517969836 36.769600474594654 123 90 69 255
24.480453015192325 -12.035906372760081 36.563047401751135 121 89 68 255
24.592940856698817 -11.273465680671322 36.261350509101874 119 88 66 255
24.667843911872779 -10.548916676391130 36.054762778860294 116 84 62 255
24.441447263669602 -10.143349817628973 36.609310204660773 113 81 59 255
24.441188297055774 -9.498909531911821 36.593051203867986 113 78 56 255
24.214982033024540 -9.097707849036837 37.147750226159502 115 77 56 255
24.403283216461745 -8.250063996251157 36.655739696259161 110 67 49 255
24.064250636045031 -7.975224434399109 37.496069357387569 68 22 6 255
23.951359279754158 -7.456579219250074 37.765469367997952 141 95 79 255
23.499503577919384 -7.314341152379285 38.891587236332725 162 116 100 255
23.499834791266395 -6.674959824739886 38.875585157716046 164 118 102 255
23.123527692789807 -6.457466571335942 39.811581299109804 155 109 93 255
23.048716359896716 -5.905149379061200 39.986087099364823 147 100 84 255
22.785636776095359 -5.567422305969188 40.636694866849837 138 93 74 255
22.937085589397654 -4.759720972113911 40.240006059635135 126 85 65 255
22.900269623176897 -4.166044411510825 40.319405769191292 116 80 58 255
22.938915410581004 -3.485367848533741 40.208369380414410 106 73 48 255
22.902322239527521 -2.891487521427635 40.287812941835483 92 65 40 255
22.978872725188637 -2.165354401864519 40.081547522941975 80 61 33 255
23.168573499725326 -1.304489814370157 39.589512264459870 68 53 25 255
39.989613826483094 -15.638837524261803 -3.977059864004218 156 121 101 255
39.612474014202391 -15.204423012305682 -3.046700454917527 156 114 96 255
39.422542807209524 -14.613083213969446 -2.591226174711551 147 108 87 255
39.120409374725213 -14.122536700938042 -1.850626902135275 143 107 84 255
38.855778179925451 -13.603239918554408 -1.204925110546185 133 99 74 255
38.666070109132207 -13.021113395310181 -0.749170146721724 129 97 74 255
38.513858913159936 -12.408062266400592 -0.388368508418012 127 96 75 255
38.548826779941393 -11.628055394013245 -0.502710671892146 123 95 73 255
38.546441667406313 -10.881473378018583 -0.522005019157632 121 93 71 255
38.282192418492997 -10.375186149605184 0.124107809021723 125 94 73 255
25.741054380657260 -19.917239440226112 31.917379716572583 169 132 113 255
25.290293247498894 -19.687684805446978 33.041542939796955 174 131 114 255
24.839617561139548 -19.464493295749321 34.165884923250019 172 126 110 255
24.725760476235692 -18.923948280853466 34.434522057731556 168 121 105 255
24.574563851443244 -18.421121082671860 34.798317893334115 163 116 100 255
24.647925143581702 -17.701250178557601 34.591508866399948 158 109 92 255
24.496879944536914 -17.200819686330235 34.955398244736585 150 103 85 255
24.495563414128000 -16.554183900807644 34.938851572577022 143 99 80 255
24.307263787614360 -16.093987757452553 35.397981630364484 137 94 75 255
24.268692004676794 -15.485946342881121 35.476634225093363 130 89 69 255
24.155378164290440 -14.953989084358525 35.745606683025727 128 90 69 255
24.042147101544387 -14.423463610761104 36.014633334087392 126 90 68 255
24.078640343330747 -13.740731504071874 35.903072093775165 125 89 67 255
24.002986634203268 -13.173283103686146 36.077012304493962 124 89 67 255
23.964828104981891 -12.567750674889623 36.155818819829733 123 90 67 255
24.001574334144593 -11.884088959119808 36.044289819596997 120 88 65 255
24.188043059602208 -11.041670454452515 35.552007850988161 117 87 63 255
24.337189940259648 -10.236055273106103 35.154865481669333 113 81 58 255
24.149749307200992 -9.788355590383418 35.614498540779238 111 79 56 255
24.037219060941410 -9.262493890047153 35.883796498667351 114 79 57 255
23.962191303939676 -8.697412353462525 36.057933812213633 107 69 48 255
23.999483610351334 -8.010576188617563 35.946445040836977 102 57 40 255
23.737606384605570 -7.651926413760521 36.596791086420097 88 42 27 255
23.401010268261160 -7.379595505794612 37.437719401808636 154 108 93 255
22.989695507259896 -7.195213111434285 38.469271012523251 174 128 113 255
22.802929700674753 -6.764846074338053 38.929488177418449 163 117 102 255
22.466629458628319 -6.505760976369928 39.770814548931781 153 107 92 255
22.467108312280757 -5.868836283948895 39.754906687633820 148 101 85 255
22.318055100649900 -5.402631869428774 40.120094433065788 138 93 74 255
22.281333663234662 -4.809150491806577 40.199519829095493 128 87 67 255
22.244718931337488 -4.215857558084465 40.278973418853809 116 80 58 255
22.245622524851328 -3.579157740195498 40.263164577491494 105 72 47 255
22.396278942854465 -2.766640918798032 39.866180518304191 92 65 40 255
22.434818328381880 -2.083943120740074 39.755069923768929 79 61 33 255
22.510884462287436 -1.355888439354345 39.548649724110419 68 53 26 255
39.176259448563144 -16.461959846843726 -3.930320203287749 157 131 107 255
39.099000326105326 -15.770210832728850 -3.759857975048817 159 116 99 255
38.835995498248437 -15.240382862404132 -3.114063443450732 157 112 96 255
38.350100920437043 -14.908973148490375 -1.897765621187489 149 109 91 255
37.975771149533088 -14.486352408210692 -0.966491998046308 141 104 83 255
37.638681016415674 -14.036065231065635 -0.130146331616970 134 98 76 255
37.636089538920160 -13.291204709455911 -0.149442761388912 129 97 74 255
37.484935599501156 -12.680377859381892 0.211647204286351 124 96 74 255
37.482477963744756 -11.936406376916224 0.192402547209895 121 94 72 255
37.294312893579757 -11.362690242898054 0.648708141579732 120 93 71 255
36.734684040093327 -11.134992444981791 2.056241955737846 118 87 66 255
25.250164809336795 -20.436129156735589 31.412844358846030 175 136 118 255
24.691034835582215 -20.307882409514974 32.822988166689186 172 131 113 255
24.577804953465105 -19.762529809923578 33.091642303864944 173 127 111 255
24.241744646772588 -19.432843006279555 33.931246398393256 174 127 111 255
24.091512914927762 -18.928059755167780 34.295205158975961 169 122 106 255
23.978504778368901 -18.389061243562736 34.564067790362287 162 115 99 255
23.939867725204053 -17.778520800413716 34.642643208534139 154 108 89 255
23.789860661165520 -17.278700472555428 35.006776129988197 146 101 82 255
23.788520139941753 -16.632683580859350 34.990239743972154 140 97 78 255
23.675814352897831 -16.098456895003878 35.259288807776983 133 92 72 255
23.600333762398492 -15.528085268418167 35.433193579679738 127 87 67 255
23.487786752874840 -14.996474575943751 35.702343315458734 125 89 67 255
23.486756812014548 -14.351893664618061 35.685911303633986 124 88 66 255
23.560096635690897 -13.630298989719535 35.479054219643160 123 88 66 255
23.484938630976345 -13.062117654630129 35.653084969140224 121 86 64 255
23.372720857101555 -12.533753183105617 35.922388691738831 120 86 64 255
23.409164691592068 -11.849910452176260 35.810788668165998 117 85 62 255
23.594268174713150 -11.007321108194347 35.318202296931617 114 83 57 255
23.779456761328007 -10.161770635098122 34.825560186469801 110 78 53 255
23.667587038852830 -9.633537316535623 35.094943715067018 107 75 50 255
23.592951926497960 -9.066367364625478 35.269114834236717 110 75 53 255
23.518409340423602 -8.500016731771936 35.443326891285324 111 73 52 255
23.443960569697012 -7.934477172323881 35.617579962269076 80 37 20 255
23.109607090315066 -7.657615351996355 36.458887340915766 130 84 69 255
22.886778382862374 -7.261170732204121 37.014448416333039 158 112 97 255
22.404046401422235 -7.159385541426388 38.237214502318267 171 125 110 255
22.032839867848537 -6.938551428523795 39.174247856035691 162 116 101 255
21.698873668635656 -6.680639624979804 40.016116794887836 152 106 91 255
21.847868343627695 -5.874957134018914 39.618939275475384 148 101 85 255
21.959823559126775 -5.109513936473277 39.317049814075546 134 91 72 255
21.960453012238332 -4.471189756503748 39.301139872588891 127 87 67 255
21.961188231691935 -3.832507483113105 39.285244177715470 113 78 56 255
21.924886346780582 -3.237039774670947 39.364711860790862 103 71 46 255
22.074417087026788 -2.422457776046457 38.967428433909873 90 63 38 255
22.075480681652579 -1.781817541118272 38.951555696726729 76 59 31 255
22.113802550914642 -1.096372224218925 38.840328211546648 65 51 24 255
38.806792734577030 -16.907398872534515 -5.024521450197540 163 142 113 255
38.434805936673840 -16.465628386770589 -4.093214244590854 159 120 102 255
38.284280311330278 -15.837752488575788 -3.732414798398281 162 116 100 255
37.949337425835722 -15.372872856384575 -2.895963997581816 158 111 95 255
37.429993626449985 -15.075035929329715 -1.583756516115670 149 106 89 255
37.021420115393269 -14.686533605205867 -0.556734166968397 140 100 82 255
36.834289177087939 -14.105959823965804 -0.100373660039395 135 98 79 255
36.794799517486922 -13.394964362262442 -0.024511232808663 129 97 76 255
36.570916753723779 -12.852069013606638 0.527136176428940 125 98 75 255
36.384000019430474 -12.278519095943196 0.983720358823746 121 95 72 255
35.938929043044155 -11.946063827097845 2.106547334997799 115 88 66 255
24.978580767748511 -20.749258868755064 30.336833246163110 181 145 125 255
24.165118461495993 -20.858583919396409 32.413971410660281 173 132 114 255
23.941939389812049 -20.417251913133939 32.968326941208772 173 130 113 255
23.940148858912025 -19.766503987611628 32.951572689687623 175 128 112 255
23.717113167554899 -19.329789365780272 33.506075825198309 173 126 110 255
23.641690558399944 -18.752328148599247 33.679815100942903 164 117 101 255
23.529455013934680 -18.212042028852125 33.948815191324940 154 108 92 255
23.343526466098311 -17.746242946777500 34.408325594271815 149 104 85 255
23.157674740980397 -17.282995654224749 34.867917039723238 140 97 78 255
23.119428688178274 -16.674102152984403 34.946619813856444 137 95 75 255
23.044375536418471 -16.102898810513736 35.120597634891965 130 92 71 255
23.043160899024400 -15.457421508152137 35.104102486637174 126 90 68 255
22.968261308201775 -14.887481091099744 35.278145815032985 124 89 67 255
23.004080868898086 -14.204034955110160 35.166418534543936 123 88 66 255
22.966219118718598 -13.596652941888522 35.245243786853024 121 86 64 255
23.039075921009882 -12.873579153671940 35.038243338275493 120 85 63 255
22.853860812062251 -12.421829946157231 35.498263801612865 117 84 61 255
22.779367536398865 -11.854916572031982 35.672472550019165 115 83 60 255
22.778716256967982 -11.209876928629001 35.656112242403907 111 81 55 255
22.962540922533265 -10.365786633483552 35.163207025676968 110 78 53 255
23.035817214745904 -9.638829036579338 34.956201145303709 109 77 54 255
23.072304006412551 -8.950830386661693 34.844506079316119 104 69 47 255
23.035125836093059 -8.343175618494783 34.923474738697848 108 70 51 255
22.776774975554488 -7.980889951705493 35.574504538605026 72 27 12 255
22.518518198567548 -7.622131694891095 36.225643703671039 139 93 78 255
22.223478777013327 -7.308289359544034 36.972244956361976 163 117 102 255
21.891657289672580 -7.040174189744491 37.814328819646562 172 126 111 255
21.338666485118367 -7.028300698300953 39.228747915768565 160 114 99 255
21.080791525825632 -6.686587574079539 39.880399548989885 151 105 90 255
21.118035822721353 -6.008478663150953 39.769119638783934 144 98 82 255
21.266014887787080 -5.201209032194171 39.371678965266227 131 88 69 255
21.266584975976272 -4.563538990534283 39.355772420081195 123 86 64 255
21.267258805404239 -3.925512818951219 39.339879725716173 112 77 55 255
21.378674521960576 -3.156380223226364 39.037778915372854 99 67 42 255
21.637716371314482 -2.209812881974443 38.353994725787118 88 61 36 255
21.638715216939957 -1.567917177535321 38.338076191330401 77 59 32 255
21.529184266523913 -1.058827951747759 38.608455136306077 64 50 23 255
37.769586853815369 -17.161964069688025 -4.426772679224541 162 121 99 255
37.473527360736810 -16.659121572574534 -3.685147370778850 160 118 100 255
37.067641722364201 -16.256270829621755 -2.657894911680160 158 116 98 255
36.844990843631919 -15.698415615551141 -2.106352820192740 152 111 92 255
36.219475145759688 -15.500663896439221 -0.507712562175868 144 105 83 255
36.106861733341233 -14.853975012431349 -0.241470639880674 139 103 80 255
35.847799687851122 -14.340783496567255 0.405608856240917 136 101 79 255
36.028340388772506 -13.432191008054275 -0.089639911242614 131 97 77 255
35.696162552853579 -12.990208052000284 0.747994355126195 128 96 76 255
35.144310583416015 -12.755787801329618 2.157068672252706 123 91 72 255
23.674324767018447 -21.376047482198018 31.909421273200053 173 136 117 255
23.489275776165172 -20.897300946835060 32.368799504345873 174 131 114 255
23.340918049992254 -20.385992658483303 32.733006160758009 174 131 114 255
23.302491697433325 -19.770461967477360 32.811502433744238 172 126 110 255
23.044411273605320 -19.369497088195558 33.461619234857608 169 123 107 255
22.932883526402705 -18.828334804476825 33.730752885285426 158 112 96 255
22.821426673963558 -18.288655099604028 33.999939393775009 150 106 88 255
22.636805825446729 -17.823460264085824 34.459752446671331 144 99 78 255
22.562112618121446 -17.250492827563818 34.633765039033847 134 92 70 255
22.450875546540559 -16.715492859841603 34.903117514475724 131 91 69 255
22.449562419475498 -16.069997975862762 34.886600274201555 128 90 67 255
22.448322469576595 -15.424326395998378 34.870094677361777 126 90 66 255
22.410541834201595 -14.816329908142151 34.948922311624131 123 91 66 255
22.409452819979848 -14.170553439993611 34.932447256428077 121 89 64 255
22.298598034490482 -13.639782935377028 35.201990100233786 119 87 62 255
22.370894084138854 -12.917067129439928 34.994875387183271 119 87 62 255
22.150359870425120 -12.504607932508705 35.550538210605112 117 84 59 255
22.112977402973812 -11.899102636419684 35.629516001951458 114 81 56 255
21.892613250572069 -11.491349309890452 36.185334520001760 109 78 52 255
22.075076304694605 -10.649260609906392 35.692180316646784 108 76 51 255
22.111172407143826 -9.964332241368894 35.580476560279664 107 75 53 255
22.367029087657912 -9.036781729317525 34.896470315092103 104 69 49 255
22.366686821478069 -8.389186400903270 34.880113681477809 87 48 31 255
22.110150095053797 -8.027251437429243 35.531551081395264 90 45 32 255
21.707257863157864 -7.833326025263219 36.564714208033621 145 99 86 255
21.487519053548098 -7.438138626651991 37.120986112828263 165 119 106 255
21.267874011575259 -7.045921858078543 37.677353315158797 172 126 113 255
20.901875294565585 -6.824420733070113 38.615514681288118 159 113 100 255
20.682419734558493 -6.439215469948749 39.172099813986080 149 103 90 255
20.682733774748755 -5.802057030292772 39.156149846688919 140 95 79 255
20.829596440472088 -4.993535836720085 38.758432300397487 128 86 66 255
20.793497792703462 -4.397635075775995 38.837933771542879 121 83 62 255
20.684274768091285 -3.888533320015242 39.108380089733117 110 75 53 255
20.758219689157968 -3.162821382993656 38.901552504845228 98 68 42 255
21.051952611423530 -2.172533115765887 38.121876502215144 87 61 36 255
21.162728547272494 -1.398101117744190 37.819501821378765 77 59 32 255
21.090543527915983 -0.843621983633597 37.994530583685759 64 50 23 255
36.521405557531452 -18.356770402262754 -3.237251208200234 159 132 105 255
36.081946939463265 -17.981101302966678 -2.114276976132601 162 121 101 255
35.933511820627004 -17.358779257311866 -1.752878363762477 155 115 98 255
35.639668635674170 -16.866192257640250 -1.010508029908976 158 117 99 255
35.527726962974569 -16.216988452285605 -0.744181674247102 154 113 93 255
35.343116048328469 -15.634235745251502 -0.287321996900516 145 107 84 255
35.122207279025545 -15.086832332002729 0.264865816986060 142 106 83 255
35.046820964254650 -14.410648826278546 0.436131063029677 138 103 81 255
34.935135199813899 -13.768721789043099 0.702696619935011 132 100 79 255
34.568985709653916 -13.363018797114250 1.636193766374731 129 96 77 255
23.399644736036166 -21.689413169220558 30.832735533007536 186 148 131 255
22.924975613934450 -21.483641214199096 32.054659632561282 175 131 116 255
22.923029745134002 -20.831365807042275 32.037832831777308 177 130 113 255
22.739362960866529 -20.354723231417751 32.497567795814177 176 129 111 255
22.628476937684269 -19.809825214638195 32.766748588750289 171 124 106 255
22.408593967240662 -19.373495012463778 33.321954420026373 167 120 102 255
22.334200457578817 -18.796433952503804 33.495929972846966 155 110 91 255
22.223521775581005 -18.256547142409843 33.765282331826114 146 102 83 255
22.076561013874183 -17.754640234303665 34.130032431936968 138 97 77 255
22.075082113989637 -17.107652035605042 34.113441207597674 131 92 71 255
21.928266071188929 -16.608680027885001 34.478296907059558 127 89 68 255
21.854227263367903 -16.037076761054990 34.652487646504682 127 91 69 255
21.889314012811070 -15.353623202113397 34.540599092860504 126 90 68 255
21.851772873532283 -14.745159364766465 34.619467623362823 122 90 65 255
21.923355878064982 -14.022661492438743 34.412201647908319 121 89 64 255
21.740569187466960 -13.567679326526658 34.872674645225459 118 87 61 255
21.848653563180548 -12.805834545402746 34.570024764933777 113 83 57 255
21.702375844816316 -12.314745866690956 34.935196996085892 111 80 55 255
21.665224863285360 -11.707964512904070 35.014193590889846 108 77 52 255
21.410069560427374 -11.338411323395377 35.665743123062043 104 74 48 255
21.482127571466620 -10.614605622146215 35.458548682977664 107 75 52 255
21.554268470286459 -9.889466256728014 35.251338933213134 106 72 49 255
21.917269913758602 -8.840572906856266 34.280579321772422 104 67 46 255
21.844192853899969 -8.272855567536965 34.455079169924460 58 15 3 255
21.662164761142307 -7.828489645322620 34.915985828483116 123 77 64 255
21.153107842761145 -7.756624912640206 36.236135809216648 153 106 93 255
21.007609387409801 -7.278193005463280 36.601797545776009 169 123 110 255
20.753163479947929 -6.926630974890557 37.253955338561354 170 124 111 255
20.535157270787053 -6.536642868939694 37.810738820541189 156 111 98 255
20.317244932762421 -6.149611923582171 38.367617284168659 146 100 87 255
20.135774011349852 -5.723049700207042 38.829094028464482 140 95 79 255
20.208827391722011 -4.999603400679561 38.622127426247260 126 86 66 255
20.136591504069401 -4.446831301721858 38.797187923792677 119 83 61 255
19.991760012709761 -3.981401126245729 39.163323152945537 106 74 51 255
19.956070803337710 -3.387072122446241 39.242954142856348 97 67 41 255
20.211267768549618 -2.442131273689768 38.558365663190898 87 62 36 255
20.575619427107526 -1.360606476004321 37.587082458526993 77 59 32 255
20.540249157656248 -0.761563635160030 37.666665045743571 64 50 23 255
35.244521705022393 -19.574668533671158 -1.951040172035562 169 148 117 255
35.349784263601165 -18.733460577287602 -2.256305638435208 164 128 106 255
34.949629427132564 -18.329702785336025 -1.227816239156482 163 127 105 255
34.766167345862883 -17.742033379473341 -0.770827637578520 160 123 105 255
34.474460617118595 -17.252730346492783 -0.027905104796503 158 117 97 255
34.399429613473771 -16.574643626655273 0.143390396419591 154 114 93 255
34.180056018571477 -16.027356845144666 0.695918604539656 147 110 87 255
34.069046769153474 -15.385098833404740 0.962624551809313 142 107 83 255
33.849805277171455 -14.843344594415910 1.515320894168383 137 105 84 255
33.738924462587946 -14.204986254264213 1.782153116839822 133 101 80 255
33.267145446446051 -13.903420739268441 3.002304143488630 128 95 76 255
22.939272642931527 -22.178317648265974 30.231736256103773 188 152 133 255
22.576250633678555 -21.864810260418281 31.168238803752502 179 138 121 255
22.393766747584067 -21.383574399888815 31.628118311193248 180 136 120 255
22.319625402808796 -20.800303669155397 31.801993175611358 176 129 111 255
21.992908446575242 -20.464036344313698 32.643485682020156 173 126 108 255
21.846718223478021 -19.955426943104399 33.008236652413700 169 122 104 255
21.664506080470019 -19.484545091146586 33.468436207773465 161 116 97 255
21.590631086499272 -18.908358630111863 33.642547729251874 150 105 86 255
21.480734742172217 -18.369346117225859 33.912094042637563 141 97 78 255
21.443083112362132 -17.758810544471828 33.990886198969093 136 95 75 255
21.477673485576602 -17.075120668336197 33.878882590603155 130 92 71 255
21.440157759114967 -16.464814402429909 33.957710386277000 127 89 68 255
21.294454881188969 -15.966823238613173 34.322835441288277 126 90 68 255
21.401424186716113 -15.207734603983354 34.020009739466047 124 89 67 255
21.400207789554528 -14.560404409171383 34.003467620230680 121 89 64 255
21.507317627312659 -13.798504680300397 33.700602135596796 119 87 62 255
21.397996011473751 -13.265167663953562 33.970417475202879 116 86 60 255
21.397003323528949 -12.617245437087476 33.953909647253141 110 80 54 255
21.360004821925742 -12.008050628572107 34.032879082766897 106 78 51 255
21.359168405061325 -11.359965304429608 34.016401505838445 102 75 48 255
21.214082283232656 -10.869585438794530 34.381853494171565 101 71 45 255
21.213408355646564 -10.222119408158576 34.365427205479705 104 71 48 255
21.212817054124073 -9.574407302340816 34.349012892991880 103 67 45 255
21.428799853753716 -8.684645434019828 33.759610030900888 99 58 38 255
21.284050944162388 -8.197067754790751 34.125206595855616 50 7 0 255
21.067227510073451 -7.793080741738848 34.681898124490061 131 84 70 255
20.670087386588051 -7.597657040282527 35.716288010346602 154 106 94 255
20.597769014064639 -7.035443792320905 35.891093013192148 163 117 104 255
20.272973198590776 -6.765645766147657 36.734678950090199 166 120 107 255
20.128675030024326 -6.290782410792971 37.100694251706841 152 107 94 255
19.912307077087505 -5.902197386996690 37.657873130413634 142 98 85 255
19.804276364730356 -5.389126275658938 37.928481747813095 134 91 75 255
19.696340469982417 -4.877359910734953 38.199144011052198 123 87 67 255
19.660663744580674 -4.280839700804535 38.278722655390112 113 81 60 255
19.625084916041217 -3.684513638323523 38.358327700533067 104 73 52 255
19.697851639084632 -2.957656472111339 38.151212331650413 96 68 44 255
19.770720815968232 -2.229332006253614 37.944082594326460 85 62 36 255
20.132356153683119 -1.146574133703780 36.972171287032381 76 56 29 255
34.226457199746804 -20.570432843542477 -1.330449026183487 173 169 130 255
34.617628288041303 -19.485689157330881 -2.398336113703408 165 129 107 255
34.363697607961868 -18.954659063379211 -1.750577126369194 169 129 110 255
33.823116805655772 -18.678281308020004 -0.340080048605159 165 126 105 255
33.605159517990430 -18.125260408163882 0.212615328836989 165 123 105 255
33.315590795767193 -17.639239761272762 0.956090361598797 158 117 97 255
33.205269749775113 -16.996618521084514 1.222938457670466 152 113 91 255
32.987502268193140 -16.452889744888296 1.775909174463095 147 111 87 255
32.841468390597996 -15.846909226502547 2.138246475008259 141 106 84 255
32.480499089648433 -15.440921984772530 3.072875183963163 137 105 84 255
23.945354445387707 -21.284149257191956 25.719166072743747 190 155 136 255
22.223358266431589 -22.250104310362175 30.281005608156391 178 139 122 255
21.862983850088924 -21.937180010145497 31.218104809132257 179 137 121 255
21.753476088664954 -21.387325096705652 31.487463948608706 181 137 121 255
21.715684178875378 -20.769235454558782 31.566035349381252 175 128 111 255
21.462995928364407 -20.362452145176462 32.217191174787644 170 123 105 255
21.317853941187551 -19.853087169095886 32.582153572203651 164 119 100 255
21.208603176768477 -19.310074623511213 32.851741230858750 154 109 90 255
21.063594760688133 -18.804512233316373 33.216828591867397 145 100 81 255
20.990301249185549 -18.228520287209506 33.391072825153003 133 90 71 255
20.917074639215897 -17.653466594018852 33.565355353640200 132 93 72 255
20.915559764825900 -17.005804685602399 33.548739283440227 129 91 70 255
20.878290342168597 -16.395024944679434 33.627609317820344 127 91 69 255
20.733628034065219 -15.896555985182559 33.992951098426403 124 89 67 255
20.839780287114607 -15.137003528963049 33.689934131086432 122 87 65 255
20.838541042135404 -14.489205254541375 33.673375221309101 118 86 61 255
20.873192768920134 -13.803093927225547 33.561324221220445 117 85 60 255
20.693004752777739 -13.346619846081595 34.022330950316558 114 84 58 255
20.763623201179442 -12.621983886884991 33.814799191871913 108 78 52 255
20.870133615419221 -11.857112137072775 33.511727221482801 104 76 49 255
20.940901479390490 -11.129601693250606 33.304156039244020 100 73 46 255
21.047563732020294 -10.361294796055333 33.001031081847486 100 69 44 255
20.975219914111776 -9.789887453001427 33.175599339669674 103 68 46 255
21.046224974133466 -9.059220802892767 32.968000946685379 101 64 42 255
20.902413701825211 -8.568994091435343 33.333737022872185 90 49 29 255
20.758688200044034 -8.080679798734820 33.699540033849956 66 23 6 255
20.543417409066151 -7.675952470487999 34.256554251918089 133 85 71 255
20.292418918803648 -7.315324466054420 34.909241925292520 155 107 93 255
20.113141164309795 -6.875448930295377 35.370866057278391 162 116 101 255
19.754874146007637 -6.646290998905457 36.310534502859923 160 114 99 255
19.575776410656303 -6.212625310544823 36.772354330360059 151 106 91 255
19.396769752216514 -5.781372452286362 37.234254840098401 140 97 81 255
19.253670877145424 -5.310048579336538 37.600622757584176 131 90 73 255
19.146480962344370 -4.797827039579701 37.871437558404409 121 86 66 255
19.182649781554218 -4.114812980048683 37.759797914873360 111 79 58 255
19.254731797083593 -3.387605302106408 37.552523221294848 101 70 49 255
19.434362394039212 -2.528234678902137 37.058311897113299 95 67 43 255
19.363377599265846 -1.972655248141024 37.233576829824813 83 61 35 255
19.507395657970946 -1.153088036639829 36.834956270772267 77 57 30 255
19.508249336007751 -0.508497536993929 36.818938074894561 68 52 23 255
33.992201579069032 -20.146144588277110 -2.826467868823954 172 149 119 255
33.775655634162106 -19.581660196857243 -2.273750457314975 172 130 111 255
33.594743429894081 -18.989294249017263 -1.816319419135084 174 128 112 255
32.880278844206387 -18.870027131120352 0.071996509151859 168 125 106 255
32.592779852430112 -18.381932851533193 0.815874376106990 166 123 104 255
32.305346467251979 -17.898112958862981 1.559874128399372 160 119 97 255
32.231404723166818 -17.225528173371643 1.731547396448434 153 115 92 255
31.801819702780051 -16.878389496729227 2.857409334533884 148 112 88 255
31.621292954843781 -16.308681987726942 3.315494766602001 141 107 85 255
31.191854201598744 -15.972483572802872 4.441663909664442 136 103 84 255
30.726926065092243 -15.675945082687718 5.663447282330367 125 93 74 255
22.399766295717697 -22.132640759643593 27.961207190921897 190 153 137 255
21.650749762172708 -22.185627620449694 29.948677004391527 180 138 122 255
21.435274389585075 -21.734869919010464 30.504488987332735 181 137 120 255
21.184301727844087 -21.321861497118931 31.155865425874680 178 132 116 255
21.075643595606110 -20.773036795919893 31.425437231683645 174 127 109 255
20.860364767016122 -20.331157755303053 31.981515640104874 164 119 100 255
20.787394232751069 -19.750746905503433 32.155719773190668 159 114 95 255
20.750045633004916 -19.135609173218597 32.234462837243399 151 106 87 255
20.641641828991752 -18.592794791813276 32.504241656799394 140 97 78 255
20.462188142924020 -18.123920731091900 32.965098054530642 133 91 71 255
20.353918910628536 -17.584615007470831 33.234994667897411 129 91 70 255
20.352387839876727 -16.936478948682051 33.218363116651204 127 89 68 255
20.315366117816225 -16.325224462233862 33.297275664838168 124 88 66 255
20.242856763314236 -15.751656854623121 33.471753222528065 122 87 65 255
20.312637326995727 -15.028678082552830 33.264078944166641 122 87 65 255
20.346930531374070 -14.342287620975981 33.151942115899118 118 86 61 255
20.416847161244291 -13.617044951505349 32.944240830247878 115 83 58 255
20.237959625250653 -13.159280651216648 33.405500993021036 109 79 53 255
20.272467714593105 -12.472034187514922 33.293389879738243 106 76 50 255
20.307049346232944 -11.784034326058304 33.181275991110880 101 73 46 255
20.483914851624405 -10.938440406106466 32.686803209047554 100 73 46 255
20.589750224936338 -10.168863033036985 32.383464545650128 101 69 44 255
20.624559149693411 -9.476922121100870 32.271301537401627 102 67 45 255
20.623896231564672 -8.824215646501457 32.254745917167554 100 64 42 255
20.374457296244387 -8.453318935518311 32.907518243067159 75 35 15 255
20.196205743769838 -8.004833333029666 33.369151486348272 85 42 25 255
20.089141179746548 -7.477119875261764 33.639604354614448 129 82 67 255
19.946612001784317 -6.991871149834623 34.005747413818682 155 107 93 255
19.519766481198204 -6.839579018949209 35.137110246553817 158 112 97 255
19.199661268194106 -6.568560945776028 35.981696597864612 156 110 95 255
18.986296181971781 -6.176359139867316 36.539444635929442 150 105 90 255
18.915222069206138 -5.618312516986151 36.714627906315769 138 95 79 255
18.844238596259871 -5.061035157662914 36.889850441438313 128 86 70 255
18.631144941083491 -4.675505137811811 37.447825882921535 120 83 64 255
18.631447050824860 -4.034792198793170 37.431783928293612 110 79 58 255
18.631843884767008 -3.393729034470311 37.415753990810771 99 70 49 255
18.916744964754955 -2.403773306610518 36.634144933537414 94 68 43 255
19.095093914811955 -1.540590080381705 36.139556023954896 83 62 35 255
19.202442126006659 -0.762514774229288 35.836336263310528 77 57 30 255
32.941420159505256 -21.171498589361121 -2.109906228272052 172 170 128 255
32.867685318819682 -20.485679577430616 -1.938520204554038 168 139 114 255
32.829309051697393 -19.770097329558482 -1.862528349270917 172 131 113 255
32.579119810401167 -19.241573258940164 -1.213883914337600 172 129 110 255
31.693432054734572 -19.281292418745480 1.152882876432841 168 127 105 255
31.090306326231698 -19.081424505631773 2.756391692480747 163 127 103 255
30.840331091795846 -18.571683040717943 3.405555389755193 158 122 98 255
30.908170286949286 -17.776133429494863 3.195629833700025 153 117 93 255
30.623008077544128 -17.303857568904789 3.940419067855885 148 114 89 255
30.408520194824931 -16.770418605519197 4.494369405305463 141 107 86 255
29.841068527067577 -16.569963846013749 6.003286936029042 135 102 83 255
22.352257024171593 -22.228605887908415 26.212063569899271 195 159 143 255
21.326320822047293 -22.541766294717476 28.964549232025973 182 143 128 255
21.041769415646840 -22.155215843344649 29.711627982190095 181 136 121 255
