ply
format ascii 1.0
element vertex 656
property float x
property float y
property float z
property uchar red
property uchar green
property uchar blue
property uchar alpha
end_header
38.181988543074169 -18.412862678434621 -8.165569662409240 196 149 133 255
39.042535737036218 -18.186935058702176 -7.481544720995856 196 149 133 255
39.249936195684114 -17.668916991928555 -7.302991699901412 192 145 129 255
39.784286562209587 -17.302255200114502 -6.871710099073340 189 142 126 255
39.991994210841540 -16.788049373792504 -6.693225311679498 186 139 123 255
40.853739976704588 -16.579521448097367 -6.009164834174754 183 136 120 255
40.816552150909388 -15.955247599865473 -6.020354750512951 177 130 114 255
41.024704368545656 -15.446432192525265 -5.841983851693271 173 128 109 255
40.987613275091690 -14.822374008856698 -5.853312930372198 169 124 105 255
41.604981159633752 -14.511035144242399 -5.358942499879987 166 121 102 255
42.304452373421611 -14.243133165702304 -4.801344814745505 164 119 100 255
42.349545442200366 -13.662411804397706 -4.749596419565563 165 120 101 255
42.067284076751037 -12.922107439206471 -4.950869911219797 165 120 101 255
42.194294935856618 -12.380914306342547 -4.836044969363058 166 121 102 255
42.812704895596084 -12.083409427679058 -4.341798248687439 168 123 104 255
43.513298258985202 -11.830670956182146 -3.784301934349145 167 122 103 255
43.476951145623531 -11.213118284766239 -3.796122164055731 164 118 102 255
43.358695428613714 -10.553863723121026 -3.871294343034123 162 116 100 255
43.158482985762504 -9.852075527144095 -4.009835809012486 159 116 99 255
43.859850580434085 -9.609248082548049 -3.452475287745273 156 113 96 255
44.479550496582732 -9.328797942269716 -2.958390065615760 148 106 89 255
44.689544470368077 -8.840260430084768 -2.780736361233465 139 101 82 255
44.079524411143240 -7.926094587353404 -3.236048647139597 128 91 72 255
44.125541251218834 -7.351297199513908 -3.185167445128485 116 83 63 255
44.335706196297139 -6.863051597880883 -3.007770372850871 102 76 51 255
44.053623119426589 -6.114932348655969 -3.210281683835149 86 66 39 255
43.032771873801323 -4.970623638003403 -3.982742389848795 74 59 30 255
42.175749520083343 -3.907320874632646 -4.628805646068116 57 43 14 255
41.318433417956413 -2.837988868991658 -5.275088504828148 55 41 12 255
41.117826837192496 -2.119494256658726 -5.414954259929289 58 43 17 255
41.163606100210302 -1.534012083434362 -5.364944743185816 61 47 21 255
40.634342432348859 -0.632381827233331 -5.758425696896211 59 44 18 255
33.593092720137321 -21.540327614560510 -11.057078103113980 190 154 128 255
34.452611897507239 -21.277165320743066 -10.375749657379032 202 150 135 255
35.067418945376886 -20.914604019589689 -9.883133646451256 203 154 140 255
36.091080114792817 -20.732795512313672 -9.075900035835019 203 156 140 255
36.869996248721122 -20.451035996153777 -8.457388714580190 203 156 140 255
37.649260729734493 -20.174480426760908 -7.838849501548736 202 155 139 255
37.529480168255247 -19.505618444774626 -7.912569779866686 200 153 137 255
37.818586158059475 -19.018025407609983 -7.671666075835958 195 148 132 255
38.107845016765083 -18.532364893279961 -7.430792095693420 194 147 131 255
39.133563044557633 -18.381182628350885 -6.623405875918792 194 147 131 255
39.177789718487503 -17.790142502908211 -6.571413266765006 191 144 126 255
39.467604669418677 -17.311864476903708 -6.330605287447668 185 138 120 255
39.348269939705204 -16.646665857513497 -6.404647979772079 184 137 119 255
40.211446568978232 -16.437084849854941 -5.723153024016597 179 132 114 255
40.337966633445319 -15.888421771582799 -5.608383867165060 177 130 112 255
40.546483858817027 -15.379132169768440 -5.430691985852491 175 129 109 255
40.673196244867626 -14.832318770220169 -5.316029720798383 171 126 105 255
41.127762629477417 -14.442780593897041 -4.949473113343714 168 123 102 255
41.828419361225741 -14.174380473904122 -4.393956313271730 166 121 100 255
41.709652550711752 -13.513857475614714 -4.468408625529406 166 121 100 255
41.426897159415546 -12.772564545488976 -4.668957908661781 166 121 100 255
41.308080735690368 -12.109715360516660 -4.743603592879282 164 121 102 255
42.009477570427265 -11.850842756790186 -4.188210222742470 166 123 104 255
42.547111665467781 -11.514993537868335 -3.758845615005782 165 122 103 255
42.838831834290005 -11.059487045048172 -3.518565061138474 161 118 101 255
43.130704544624507 -10.605779731196662 -3.278329606699288 158 115 98 255
43.176470086595288 -10.029117191994303 -3.227242804209567 157 114 95 255
43.714907352254187 -9.703728621761016 -2.797997656040792 151 108 89 255
43.760881293870568 -9.128977988359338 -2.747037723407743 143 102 82 255
43.560507073061899 -8.427134360276625 -2.885309974637039 134 97 76 255
42.949338871506086 -7.510360186572882 -3.338976306477292 119 86 63 255
42.830971039056664 -6.847008529787814 -3.414446900780462 105 76 52 255
42.876960916652507 -6.269098630563263 -3.363891652075893 90 67 43 255
42.018820179960869 -5.212728507110498 -4.007219609270180 75 58 32 255
40.667095035478155 -3.887694915641930 -5.029227681274449 59 47 19 255
39.561575151403844 -2.685504948710118 -5.862267688177013 50 39 11 255
39.936106052147039 -2.273560167842902 -5.559951116452567 57 43 16 255
40.310821297581441 -1.863841310651452 -5.257682876669236 59 47 22 255
40.356606110552747 -1.276812531660767 -5.207867632495834 58 46 22 255
33.020525571054577 -21.445906708550183 -10.686188449737131 197 155 133 255
33.799681493472946 -21.147177261422982 -10.070113778356728 205 156 139 255
34.988360063306942 -21.028916418831301 -9.140595332152969 205 159 143 255
35.686442493311773 -20.706655821563047 -8.587125222371441 204 158 142 255
36.712310223646170 -20.531427903444211 -7.782867556238159 203 156 139 255
37.411088188612638 -20.219582103669921 -7.229338861422264 201 154 136 255
37.454980368608688 -19.623331196959683 -7.177398580957430 199 152 134 255
37.580843367277254 -19.063799282435099 -7.062807855530394 195 148 130 255
37.788726080139867 -18.541791668393770 -6.885553824884056 192 145 127 255
38.652319581970914 -18.316737965817694 -6.206618544847203 191 144 126 255
38.532711062635627 -17.650790799827718 -6.280283860425186 189 142 126 255
39.068943289874539 -17.283953819973462 -5.852231848797373 183 136 118 255
38.867446617921502 -16.580804576920215 -5.988746284201284 180 133 115 255
39.404031835137573 -16.218583142579959 -5.560744607378638 177 130 112 255
39.530716323323901 -15.668360332628978 -5.446442178323480 175 128 108 255
40.067719266014763 -15.311811701161190 -5.018474877578115 174 127 108 255
40.522909036011129 -14.919920600523000 -4.653262329288111 170 123 107 255
40.814158387793185 -14.452743290921774 -4.413573600800277 169 123 107 255
41.351844026969729 -14.105602593240036 -3.985646138730317 169 123 107 255
41.397113059348726 -13.523955242452701 -3.934308419147840 165 120 104 255
41.360310022821324 -12.902576617836175 -3.945808457120876 161 118 101 255
41.241386544868362 -12.240638828767416 -4.020162703094485 165 119 104 255
41.368931656743683 -11.699247884222430 -3.906272322972001 167 121 105 255
41.825265978579495 -11.321608092602517 -3.541308344203088 164 121 104 255
42.117433430175623 -10.864808642573351 -3.301944927397898 159 118 100 255
42.738583273420772 -10.575023076576471 -2.811447419394057 156 114 95 255
42.619999736624663 -9.915022147778330 -2.886149837387649 152 110 92 255
42.830366296246666 -9.421470377918425 -2.709730580487133 143 103 84 255
42.547316871015425 -8.676393552719276 -2.910230674467186 134 96 76 255
42.511009968240302 -8.056440388266338 -2.922406308803261 123 90 67 255
41.980998119725058 -7.180004460960092 -3.311601017836750 106 78 54 255
41.862337132035691 -6.514562678725397 -3.386821526391458 93 67 42 255
41.332066950876538 -5.631991260775138 -3.776308919415499 80 61 34 255
40.142939124932980 -4.397658669063716 -4.668661157081772 66 51 23 255
38.706330158186120 -3.023810291316451 -5.749798245997397 49 36 9 255
38.998930645123238 -2.565115049144779 -5.511399708734785 51 39 13 255
39.785987142921215 -2.374050374861255 -4.895930603317453 54 44 17 255
40.078986505368590 -1.920369293558267 -4.657613005687182 56 44 18 255
39.960057066312430 -1.243972202578234 -4.733684883292995 50 39 14 255
31.912772498593597 -21.758940298069007 -10.740281264627868 198 159 136 255
33.102645233043091 -21.627533344983249 -9.814369799111546 203 157 136 255
33.883250699339044 -21.330182210940720 -9.200601964094062 206 159 141 255
35.156035417294646 -21.248327193913582 -8.212111325049221 205 159 143 255
35.445503886084452 -20.751139611602909 -7.972972151400114 204 158 142 255
36.145146758767453 -20.433850073880777 -7.421568654726570 203 155 138 255
36.681062334966782 -20.049508325601366 -6.995068448797838 200 153 135 255
37.217227106596482 -19.668740848459180 -6.568566029138907 197 150 132 255
37.507480666263007 -19.182341767232529 -6.329476312004687 196 149 131 255
37.879955373483682 -18.734548630714073 -6.027937492717427 194 147 129 255
38.170528059852984 -18.252283430239672 -5.788897927922932 190 143 125 255
38.214945493302110 -17.660298149047875 -5.737343512307746 187 140 124 255
38.423653820495872 -17.143567175628434 -5.560866665084490 181 134 116 255
38.632481107801652 -16.628198301573221 -5.384429887786098 179 132 114 255
38.841427364541062 -16.114183605732109 -5.208034142833839 177 130 112 255
39.296993994351936 -15.716414948052289 -4.844166488186914 175 128 108 255
39.917143494536845 -15.398759638550374 -4.355293610187204 173 126 108 255
40.208775755964723 -14.929779435820919 -4.116473193878306 170 123 107 255
40.089480694579066 -14.267085780525179 -4.190284195003699 168 122 106 255
40.299102658656835 -13.761081822488563 -4.014083328049054 169 123 107 255
40.508843507089040 -13.256383449262032 -3.837929154982731 166 121 105 255
40.883231643879270 -12.832849203691069 -3.536754032526972 162 119 102 255
41.093242484735214 -12.331281950512604 -3.360686059285428 163 117 102 255
41.056482623931259 -11.709557183192246 -3.372301075641587 161 118 101 255
41.266682622802819 -11.209722181055398 -3.196348632043822 160 117 100 255
41.477001364498619 -10.711149212758315 -3.020447845086096 156 115 97 255
42.428542446880357 -10.585520133482873 -2.281559833844426 151 110 90 255
42.474521530449664 -10.008761516340485 -2.230848609886635 146 105 87 255
42.273423667403307 -9.306605249468703 -2.367924377622785 137 99 80 255
41.495531695157297 -8.308094117608775 -2.943139614735259 124 91 69 255
41.211827634602002 -7.558586887860017 -3.143052932138971 110 81 57 255
41.092899869211664 -6.892330127911748 -3.217915957680788 95 70 45 255
40.809079636428464 -6.139184523120178 -3.418065959242114 80 60 30 255
39.947984086914261 -5.081398892456562 -4.056524974743326 70 55 26 255
38.921643500979087 -3.930650847005850 -4.820395573938441 55 44 16 255
37.977430204504628 -2.816575746494095 -5.521888020107383 47 36 8 255
38.352973459490300 -2.400634270689324 -5.221775136808333 52 41 15 255
38.563656554466178 -1.898289809766325 -5.046946257859275 51 45 18 255
38.691920777632902 -1.352473269137832 -4.934810825013358 50 42 14 255
38.820271454193829 -0.807216998558587 -4.822755850264315 41 35 8 255
31.869190581601913 -22.518630425068366 -9.981114160397283 195 159 135 255
31.830001004981369 -21.870699770253125 -9.991717842983888 205 157 138 255
32.857824476853779 -21.671106967598391 -9.193706252595859 206 159 139 255
34.132371030022853 -21.582678683988249 -8.209005084109975 200 155 136 255
35.243242222567545 -21.432635561088418 -7.348646027649465 203 160 143 255
35.286961064361094 -20.830912440417450 -7.297064093048874 204 158 142 255
35.495016145550295 -20.300695407692899 -7.121084931849708 202 154 137 255
36.031821246216595 -19.915309367365410 -6.696226190609991 198 151 133 255
36.897571871086512 -19.677997557897271 -6.022433666907943 196 149 131 255
37.352748618050924 -19.264442710350309 -5.659787595185321 196 149 131 255
37.725934393579166 -18.817241216214427 -5.359390481113564 195 148 130 255
37.605965066724991 -18.150882225223341 -5.432489814489429 189 142 124 255
37.650462504820297 -17.558150801710426 -5.381160969628127 186 139 123 255
37.941779849160952 -17.078147115857220 -5.143120842681270 180 133 115 255
38.233247908799825 -16.600049282981061 -4.905109954514700 178 131 113 255
38.689442692965883 -16.199897682033892 -4.542598077409536 177 130 112 255
39.145853004970775 -15.802723754110403 -4.180097871568847 175 128 108 255
39.849440090020522 -15.524223411225208 -3.630784365900325 172 125 108 255
40.141656488102484 -15.056120710671507 -3.392855072305593 169 122 106 255
39.857553482260613 -14.316103998930146 -3.590954113267969 168 122 106 255
39.820481385627858 -13.692288092309454 -3.602286631780714 165 119 103 255
39.948200697576141 -13.147457420566326 -3.489104296200196 162 117 101 255
40.735216569401729 -12.922812195265720 -2.877578586211882 158 115 98 255
41.028071584261482 -12.462063408630442 -2.639859415897348 159 115 99 255
41.238643163056395 -11.962667225526161 -2.464488096308713 156 115 97 255
41.284433038851773 -11.383048478243253 -2.413796032320789 153 112 94 255
41.330276233181024 -10.803601003145332 -2.363174412831370 147 109 90 255
41.871064934595353 -10.472081006490029 -1.938671232973945 140 103 81 255
41.752115137771739 -9.811451652525605 -2.012824254354825 137 100 79 255
41.138068782761621 -8.898819586536334 -2.461088252093049 131 96 74 255
40.276227290914989 -7.855589550002847 -3.096536101200968 121 91 66 255
39.826817400994202 -7.018397046039397 -3.420444744964271 106 80 53 255
40.037767887381875 -6.519331576257997 -3.245679961335242 89 68 39 255
40.001100451165655 -5.892643439476473 -3.258045657093334 76 58 28 255
38.642940886556005 -4.574079012044024 -4.268309735232464 64 51 23 255
37.614731784552191 -3.420192824891586 -5.029369420484898 46 38 10 255
37.081919312446075 -2.521790724355156 -5.416413762500042 47 39 13 255
37.292720287977289 -2.015924689348651 -5.242206681024669 50 43 19 255
36.759710603535837 -1.112363911913263 -5.629531196751344 47 43 17 255
32.198090049350725 -22.799270781877155 -8.924154593347680 200 158 136 255
32.159031005578981 -22.153561534657285 -8.934715395959159 207 158 141 255
32.284418319215860 -21.576674590556948 -8.821387423425989 205 158 140 255
33.561107396127738 -21.487434981064951 -7.840436300544894 203 158 139 255
34.509354172876300 -21.266512306446984 -7.107318338116755 204 159 140 255
35.046700148440095 -20.875346811505210 -6.684072420831825 203 158 139 255
35.090621781758585 -20.274294083097161 -6.632756147049435 200 154 136 255
35.546070860349005 -19.852824729072964 -6.271520146445994 198 151 133 255
36.413291829006511 -19.614993675458322 -5.600296670015155 197 150 132 255
37.033908089735974 -19.273723654315575 -5.115041448701447 196 149 131 255
37.490116853227789 -18.863232950924115 -4.753788864632554 192 145 127 255
37.122939295569807 -18.086415959274220 -5.012666150346064 189 142 124 255
37.085157163457495 -17.456002864094287 -5.023576349631327 186 139 123 255
37.212180331971126 -16.900286659375922 -4.910507811539418 183 136 118 255
37.668924083097039 -16.496383790845726 -4.549380200126109 179 132 114 255
38.043457628852622 -16.057446206474751 -4.250293608397584 176 129 111 255
38.665497563505738 -15.735817917164468 -3.765118750441445 172 125 105 255
39.370274635492024 -15.456811488494438 -3.217894698934003 171 124 106 255
39.910416030638117 -15.104730546155182 -2.794744737007221 169 122 106 255
39.543414790588230 -14.325969219538351 -3.054154987793282 165 119 103 255
39.588834861506996 -13.741612245796347 -3.003398578457450 163 117 101 255
39.881874431623118 -13.276429955541289 -2.766523858756159 159 115 98 255
40.670294517243349 -13.052639920480161 -2.157290205232215 156 113 96 255
40.963730115311250 -12.592774024475631 -1.920455454963815 156 113 97 255
40.761890246116337 -11.891915543322753 -2.056110992337381 150 110 92 255
40.642592885121786 -11.230344695257955 -2.129783904130846 145 108 89 255
40.440680343413391 -10.526836900755299 -2.265632107942139 139 103 84 255
40.817057959804828 -10.110879242697365 -1.966943781235301 130 96 74 255
40.615169690149770 -9.406318087208007 -2.102959239973956 124 91 66 255
40.165282877018370 -8.574745613080836 -2.425383150480542 115 84 59 255
39.219250085731403 -7.487352345707521 -3.120584966791171 106 79 52 255
38.686301682832777 -6.605425346818535 -3.505428869866080 94 71 43 255
38.980177701436304 -6.146356878486515 -3.269249768404563 82 64 36 255
38.447044921027242 -5.259692816163366 -3.654345348976705 70 56 27 255
36.920957632141807 -3.850767460560689 -4.785136048681608 56 49 21 255
35.725304336666284 -2.605400813754770 -5.667680573766035 41 37 8 255
35.108569866216413 -1.658145198907604 -6.115498512560208 41 36 11 255
35.236651300690482 -1.102827717598188 -6.004186719564245 41 38 15 255
-34.439994755897345 -1.352913393212745 -58.267545982086602 121 94 62 255
31.333600147024555 -23.217934756030203 -8.786319823579817 200 162 139 255
31.541361640115042 -22.672412887271221 -8.611668913334057 207 161 141 255
31.502237508447848 -22.025680133892394 -8.622241040763782 207 160 142 255
31.792534285931396 -21.516749535158809 -8.385917386444333 205 158 140 255
32.824282298992955 -21.322676697166983 -7.593937710456231 204 157 139 255
33.691707493661994 -21.065381824410906 -6.925388252250059 203 158 139 255
34.229912779181490 -20.672627242124435 -6.503797382191976 201 156 137 255
34.685949657228321 -20.247886076925496 -6.143954566372628 198 153 134 255
35.224633337963553 -19.862032098202818 -5.722354802514957 198 151 133 255
35.681115859696860 -19.443637292300181 -5.362513478799002 197 150 132 255
36.220277627844524 -19.064658324138392 -4.940907354526217 195 148 130 255
36.512243592071769 -18.579265965815495 -4.704617065475361 190 143 125 255
36.474370011933161 -17.948083655777040 -4.715463258185792 187 140 122 255
36.766569584302289 -17.465459401362651 -4.479240510301878 186 139 123 255
37.141448196792993 -17.022222723040343 -4.181255987212069 183 136 118 255
37.516508562442965 -16.581436405292294 -3.883288558590550 179 132 114 255
37.644063970877085 -16.029046290400714 -3.770730066184569 174 127 109 255
38.019438945235123 -15.592323863994281 -3.472813449817068 169 122 102 255
38.807968768786054 -15.350825362389102 -2.865882954593957 167 120 104 255
39.431620425345756 -15.036804879132333 -2.382547068474139 166 119 103 255
39.477161129312634 -14.453108503561040 -2.331917406470268 162 116 100 255
39.605396768176803 -13.909016646284485 -2.219527147324612 159 113 97 255
39.485738098744861 -13.246746061931120 -2.292667626414669 156 111 95 255
40.027471401968398 -12.902958403414573 -1.871240942594511 152 109 92 255
40.073299626155972 -12.321485893008074 -1.820835777329080 150 108 92 255
40.367303328868360 -11.861602904629379 -1.584971712911425 144 106 87 255
40.247835006454551 -11.199846620200404 -1.658375286440076 138 101 82 255
40.045613418444049 -10.496159114172102 -1.793718027102130 130 98 77 255
39.677833806089382 -9.708424334769646 -2.052873389985933 122 92 68 255
39.392716991492790 -8.959665756536111 -2.250288440433422 111 81 55 255
38.941945541754308 -8.125194503081872 -2.571550392479935 103 75 50 255
38.573837076423047 -7.329673450725579 -2.831075457180020 94 70 44 255
38.205619172720247 -6.531530591948254 -3.090727214006876 81 60 33 255
37.920128841276721 -5.773406761911176 -3.288624490441066 71 56 28 255
36.888884290232909 -4.626823081987752 -4.043635997844518 58 46 18 255
34.531367926574205 -2.781927153421634 -5.789165372164121 44 39 10 255
33.084707973524615 -1.399421527345439 -6.854199573805630 35 35 7 255
32.881039875562152 -0.663365973356136 -6.990943729358293 32 32 7 255
-32.633521583433406 -3.909824690049689 -55.893435580865457 162 120 100 255
-32.520960367961123 -3.117533609970309 -55.783977985074671 144 108 86 255
-31.420227899577611 -2.710889883480860 -54.936994114896351 131 93 71 255
-31.719076115207514 -1.762062174858542 -55.134903524201235 109 73 50 255
-32.265118781600592 -0.713661984978813 -55.517313630361485 195 164 139 255
28.901406839749711 -23.005398285381261 -9.813411821809552 203 168 144 255
30.428104989615946 -22.991102573727758 -8.655702017485964 205 163 144 255
30.883529367772695 -22.545580309081856 -8.297298072993073 208 159 142 255
31.009283188800481 -21.966261214537667 -8.184885638361123 205 160 141 255
31.712533706588744 -21.629279663203675 -7.641986407045295 205 160 141 255
32.333592665223193 -21.262227373602499 -7.160566823955804 205 160 141 255
33.119971691922501 -20.969378207390193 -6.556105206683355 203 158 139 255
33.576549245298310 -20.540544145068182 -6.197673341540337 199 156 137 255
34.363552402869971 -20.257044172139999 -5.593158725115359 198 152 134 255
34.903192530139762 -19.871224795083137 -5.173185610008431 198 151 133 255
34.947566409834138 -19.272304237091546 -5.122385655253510 197 150 132 255
35.239796565069355 -18.782855214700461 -4.887030569322206 195 148 130 255
35.614793482036220 -18.331998744237850 -4.590158277774378 189 142 124 255
35.989971634466741 -17.883614787612970 -4.293299550825509 186 139 121 255
36.365330958271926 -17.437696268622560 -3.996455124762747 185 138 122 255
36.988871854053656 -17.106641629713536 -3.514965861034312 182 135 117 255
37.364642051221011 -16.666446824174457 -3.218138044401485 178 131 113 255
37.327096625202188 -16.038638794425864 -3.229140549069484 175 128 110 255
37.537716352607134 -15.525400562063624 -3.055505362748022 169 122 102 255
37.996647275985026 -15.129169027326043 -2.697190300169012 165 118 100 255
38.621287308893443 -14.813556414109428 -2.215729888729214 162 116 100 255
38.749620076695322 -14.267396638052489 -2.103752341976190 159 113 97 255
38.960816524215772 -13.761381764231658 -1.930237342947606 155 111 94 255
38.840942304303837 -13.098102786248333 -2.003130795675759 152 109 92 255
39.052305241946783 -12.593608788539626 -1.829717934509461 149 107 89 255
39.098125854656729 -12.010029685933247 -1.779551515849306 144 105 87 255
39.392532581694894 -11.548026695308437 -1.544627952568845 141 103 84 255
39.272780736620945 -10.884172501194413 -1.617798794488522 132 97 77 255
39.070137601815532 -10.178391616416917 -1.752672924899514 122 90 69 255
38.535874098342106 -9.306011371389772 -2.134133746618488 114 86 62 255
38.250164467462866 -8.554617291407268 -2.330852945087628 103 75 51 255
38.379005604491113 -8.010313374034510 -2.219520426804991 97 70 45 255
38.590871597879953 -7.508788082789295 -2.046610556085426 88 65 39 255
37.973272208815871 -6.584723050355677 -2.490182641936315 74 57 32 255
36.857620845632482 -5.400481945504112 -3.303803255045409 65 51 24 255
34.330735276843143 -3.478945906086608 -5.165761911323102 47 37 10 255
31.802902939512109 -1.540468471332304 -7.028130675690761 34 29 2 255
31.183639861389281 -0.584907674131955 -7.472629644145940 28 27 1 255
-32.521844086793038 -4.964272856300482 -54.769691049921136 178 131 113 255
-30.595177081795015 -4.866593753820453 -53.313776487327090 166 122 103 255
-29.987075078312756 -4.273160809327052 -52.837315788984199 150 112 91 255
-29.956029977830582 -3.459518797994647 -52.789447541384902 129 91 70 255
-30.254904995153510 -2.516969814081591 -52.986560984537533 162 124 103 255
26.958198093375159 -23.005651099255701 -10.460657377124164 199 163 139 255
28.899643757015269 -23.147978919701416 -9.001261761132042 206 165 145 255
29.603258386290008 -22.797995521716061 -8.460536994769029 205 163 144 255
30.224593057133262 -22.418774288394999 -7.981041625315413 204 160 141 255
30.267948739196527 -21.804206319944569 -7.930375365860584 204 159 140 255
31.633349237398335 -21.741780855029489 -6.899450389066743 204 159 140 255
32.172912935623970 -21.340809960959362 -6.481157469999658 204 159 140 255
33.043352150456656 -21.083547593782043 -5.817743164599335 201 158 139 255
33.252779024822075 -20.549669551386017 -5.644540438748919 199 156 137 255
34.206530970079967 -20.337325571575420 -4.919783930859353 199 154 135 255
34.499041961160628 -19.844565798006272 -4.685303296332137 198 151 133 255
34.295365765890665 -19.137104764252868 -4.818616780417102 197 150 132 255
34.505336321771324 -18.610239008342845 -4.645503131374511 195 148 130 255
35.046442827965251 -18.231373140949501 -4.227199356223281 190 143 125 255
35.505023603835497 -17.819142438722693 -3.870199076555252 187 140 122 255
36.046605042265895 -17.447113231548556 -3.451888143899652 184 137 119 255
36.505627993256610 -17.041163668372576 -3.094891235686134 181 134 116 255
36.882043577303278 -16.600473043865492 -2.799223079330432 178 131 113 255
36.927293737649080 -16.010197864608415 -2.748884153301901 173 126 108 255
37.221152049648452 -15.535024165723755 -2.514599334990208 169 122 104 255
37.515157951139230 -15.061736699533640 -2.280340770320862 166 121 102 255
37.809311364872315 -14.590327675696713 -2.046109258477429 158 115 96 255
37.689105702893613 -13.925315960569620 -2.118644639079122 155 113 94 255
37.817637856935193 -13.377545770434494 -2.007199488986060 149 111 90 255
37.697451407527126 -12.711623017918228 -2.079876491100322 145 108 86 255
37.909049845599384 -12.204467616522365 -1.907183189520197 140 104 82 255
38.203729144616489 -11.738787830029324 -1.673163727424509 137 102 80 255
38.664519991779741 -11.355850061720645 -1.316431395328863 131 96 74 255
38.461535144082148 -10.649985469676537 -1.450732892712352 126 92 69 255
38.092474069501947 -9.860650170319886 -1.707894558169215 116 86 62 255
37.640270606308036 -9.027469362654102 -2.026560664105091 106 78 54 255
37.686204444767355 -8.440456632864610 -1.976997597168491 98 74 46 255
37.898314099997037 -7.937230684988720 -1.804706398374321 88 69 39 255
37.778221504622735 -7.266842569148039 -1.878077008560126 79 62 33 255
36.993352107036827 -6.256512202102257 -2.442807752627999 69 55 28 255
34.629094197624710 -4.430553903998728 -4.174579567108708 54 44 18 255
31.100167268090161 -1.987910014354526 -6.766602030327391 35 28 3 255
-34.472452955662305 -5.240893787645803 -55.173268210422890 193 150 129 255
-31.634995591114119 -5.475381171731186 -53.052306781598531 186 139 119 255
-30.447999940925143 -5.098376453641336 -52.150837147998317 175 130 109 255
-30.251667048138387 -4.347950076070106 -51.981184770482827 156 115 93 255
-30.137829019858572 -3.566954713034988 -51.872554429623250 149 108 86 255
-29.941273339282446 -2.819215891428954 -51.702960769069875 210 169 147 255
26.580769624074208 -23.640973290571793 -9.939234833682065 202 163 141 255
27.780963247434642 -23.478472961261645 -9.034636400719023 210 163 145 255
29.064361244440931 -23.357333046409778 -8.068936167559144 209 164 145 255
29.107609462866463 -22.739617668928588 -8.018462773443133 204 162 143 255
29.812739680905764 -22.393820432479941 -7.479821932663583 202 161 139 255
29.938963440998066 -21.813243796047630 -7.368361033158465 204 157 137 255
31.058410370402044 -21.647362883214356 -6.524516501656507 203 158 137 255
31.847219466393909 -21.349866447219469 -5.924753578959098 203 158 137 255
32.636372144158145 -21.057595549007956 -5.324952059426693 199 157 135 255
33.343057540397609 -20.735251495680117 -4.786160358142610 198 156 134 255
33.801572516728783 -20.310889581928748 -4.430497490791510 197 153 133 255
34.343143495034496 -19.925405635236132 -4.013776479854869 197 150 132 255
34.056363420119169 -19.182448790833448 -4.207662327585069 196 149 131 255
34.349634019598625 -18.692279093360085 -3.974167361013912 192 145 127 255
34.725944155384070 -18.240695486235666 -3.679621053597714 189 142 124 255
35.185342600763363 -17.828503765184607 -3.324010278420900 184 137 119 255
35.479103857159316 -17.344942929526667 -3.090562186092313 179 134 115 255
35.773012255843611 -16.863299374581302 -2.857135874862337 175 130 111 255
36.067067729059460 -16.383565573104661 -2.623732128661061 172 127 108 255
36.278296702257961 -15.867730701041836 -2.451446015330504 169 124 105 255
36.738609345922043 -15.468071613900463 -2.095896417585465 165 120 101 255
37.033121821387880 -14.994292955391032 -1.862560278227193 162 118 99 255
37.078714455152920 -14.405938129860758 -1.812575814265614 155 112 93 255
36.792202789158551 -13.661460965631406 -2.007100979668820 152 110 90 255
37.003938516554257 -13.151212124788458 -1.835011408971496 146 108 87 255
37.465000855052011 -12.761177024365935 -1.479590068067807 140 104 82 255
38.009361435050749 -12.413984388000586 -1.063049880191585 134 99 77 255
38.138449413269740 -11.869365994381212 -0.952175814934179 131 96 74 255
38.018260683241522 -11.204129240453213 -1.024766955977015 125 90 68 255
37.066700675313541 -10.130731586428595 -1.708872236966130 116 84 61 255
37.112622424891299 -9.542935629859159 -1.659382148625241 108 79 55 255
36.992257424119373 -8.872758410466957 -1.732263094821860 100 74 49 255
37.454165043973092 -8.492454102689763 -1.377120227350360 89 69 39 255
37.167481364354245 -7.738659828997584 -1.572465437895460 79 62 32 255
36.547852101460165 -6.814438329388750 -2.012595196379550 70 55 28 255
35.095689008267442 -5.462292974909602 -3.064618440521997 60 49 23 255
32.144519916153968 -3.332863314609952 -5.218130045460612 40 33 6 255
29.358768629693969 -1.269606628976334 -7.249725815338849 29 23 0 255
-35.240024310941379 -5.128268510468985 -54.670089721298496 196 151 132 255
-32.067013312022453 -5.486564282898343 -52.314361244109961 191 147 126 255
-30.298919522987006 -5.330122815828290 -50.991147321947409 177 135 113 255
-30.350255840895414 -4.486294039903086 -51.004448868636359 176 134 112 255
-29.987814211929930 -3.802572378644328 -50.713995183232157 212 171 149 255
26.120312394431636 -24.244027581027851 -9.478127020699560 204 163 142 255
27.736275963733846 -24.241353280888276 -8.273203389664474 201 158 139 255
28.027838097650061 -23.719301700159804 -8.040605098516181 208 161 143 255
28.982214722292497 -23.466451783651067 -7.321753900969895 205 160 141 255
29.357051915759513 -22.984263642627340 -7.028353211264829 202 160 138 255
29.980667329165129 -22.606437133666461 -6.552579947466342 201 159 137 255
30.107265810316278 -22.027526259444031 -6.441558915756843 202 155 135 255
30.897136492526329 -21.725354545242880 -5.844164710599728 202 155 135 255
31.604435091390570 -21.393666237412575 -5.307535126379122 202 157 136 255
32.312043946406732 -21.066663446375429 -4.770874652783675 200 155 134 255
32.937015131995281 -20.709051095922348 -4.294997575501640 198 153 132 255
33.396335468302681 -20.284451906895711 -3.940736235253752 198 152 133 255
33.855867809666080 -19.862896986723271 -3.586472601987907 196 149 131 255
33.817631837767550 -19.227772485455205 -3.597171967840637 193 146 128 255
33.862425185358546 -18.628801227698730 -3.547093282611939 190 143 125 255
34.322413853804193 -18.213359339517524 -3.192877238253772 185 138 120 255
34.782614214985387 -17.800934024692097 -2.838661677795272 181 134 116 255
35.159964331107830 -17.354333414120703 -2.545293145893822 175 130 111 255
35.205181021635610 -16.760368055031549 -2.495338105617549 171 126 107 255
35.250446504894597 -16.166685282013631 -2.445432491838261 169 124 105 255
35.628203154430309 -15.725272907744213 -2.152137155712182 166 121 102 255
36.089265335648179 -15.324569031265113 -1.797990398231633 162 117 98 255
36.550538567400906 -14.926838979172459 -1.443848137903160 157 113 94 255
36.346748275939888 -14.221561981248229 -1.576706104425426 151 108 89 255
36.309260263509429 -13.593065669674758 -1.587888747134429 146 106 85 255
36.438171838735258 -13.042972225156447 -1.477368141134662 139 102 80 255
37.232827911997873 -12.810688346572135 -0.879782081813005 133 97 75 255
37.611703290656834 -12.384004687027954 -0.586634239363235 127 92 70 255
37.574554825768757 -11.758827811642334 -0.597999173841686 121 89 66 255
37.121139571751570 -10.931059732263392 -0.913952336132212 116 84 61 255
36.251214785514094 -9.896597686530342 -1.534570092862396 109 79 55 255
36.297160047371136 -9.307236683697610 -1.485307107170826 99 73 48 255
36.426458506182200 -8.759304789723345 -1.375187863023768 91 70 43 255
36.805800977622738 -8.336692668300202 -1.082349911141705 81 64 36 255
35.851922875057880 -7.247387312303545 -1.764403609028733 72 57 29 255
34.147523575650098 -5.772856585413152 -2.995057132021856 61 50 23 255
31.942276410632473 -4.032773054430635 -4.591634549837494 47 37 11 255
29.069119764737053 -1.936909574452841 -6.676123251756508 31 25 1 255
27.946322269838362 -0.723042394117499 -7.481099525371008 25 21 0 255
-34.600719487723126 -5.542112422064207 -53.136334910743301 199 153 134 255
-31.753493227082885 -5.778884602575985 -51.031756860865642 193 152 134 255
-29.816512436157922 -5.687855205875465 -49.592633159169765 196 155 135 255
-29.867657714255046 -4.847047170973568 -49.605899477603487 216 173 154 255
27.277701364405715 -24.839450658528378 -7.815897864101629 198 155 136 255
27.901454507671872 -24.447358873433345 -7.342064046492766 202 159 140 255
28.027760414101920 -23.860711405282757 -7.231468636290771 201 158 139 255
28.900881907151216 -23.575551227342146 -6.575961346094601 201 156 136 255
29.276457838023333 -23.094203514074664 -6.283719810347776 200 156 133 255
29.818219388344573 -22.683273237523622 -5.870364409350032 200 156 132 255
29.945127709353045 -22.104945898467037 -5.759801939452700 199 152 131 255
30.736404240235458 -21.803328518437553 -5.164738528704987 198 151 130 255
31.611075385154805 -21.541688358749155 -4.509062968990662 199 152 131 255
32.070778660220412 -21.110740974219823 -4.156213125586419 199 154 132 255
32.447608577860734 -20.647566158438309 -3.863938145589572 197 152 131 255
32.824617295695617 -20.186901785048320 -3.571668045727193 196 150 131 255
33.118687253485888 -19.692914458388060 -3.339992202914374 194 147 129 255
33.412903263609621 -19.200882490867585 -3.108331732646690 190 143 125 255
33.374664946579884 -18.565326362181182 -3.119078676707460 185 138 120 255
33.835440457242129 -18.149377829476009 -2.766264773787412 180 133 115 255
34.296426962465205 -17.736446425135583 -2.413450098028193 176 129 111 255
34.757624345809432 -17.326525355760126 -2.060635262663681 173 128 109 255
34.969386939006341 -16.807251005047348 -1.889669990965132 169 124 105 255
34.848336842918229 -16.138451102317376 -1.961218238825751 167 122 103 255
35.393251284657168 -15.772800611837482 -1.547828006988595 162 117 98 255
35.688616831152672 -15.295875152983413 -1.316322414113358 159 114 95 255
36.233968243537930 -14.936452378452501 -0.902933063597771 154 110 91 255
36.029894574170271 -14.231250391737618 -1.035298894951097 147 106 86 255
36.325647113848504 -13.759149669382239 -0.803876616836959 140 101 80 255
36.121571537376155 -13.052788806900139 -0.936377674853503 134 98 76 255
36.584206866721729 -12.662027175350786 -0.583725168465406 127 92 70 255
36.713606741190063 -12.114607616434597 -0.473717621662104 121 87 64 255
36.509576599725534 -11.407252867955009 -0.606414911487803 115 85 61 255
36.305496705127240 -10.698456818976538 -0.739199596369502 110 80 56 255
35.851137475352374 -9.866058752323752 -1.054096492790649 104 76 52 255
36.147465679465114 -9.399464414584102 -0.822997769564921 92 69 42 255
35.859842704909966 -8.645833513731674 -1.016721918881615 81 62 34 255
35.405220767190087 -7.807097619369884 -1.331928217218206 71 56 29 255
33.865282984396117 -6.421700092196531 -2.436291787866423 63 49 22 255
31.406380725842524 -4.563120667857774 -4.208615450941409 46 36 9 255
28.278501871123922 -2.349372053337220 -6.466957937759929 32 25 0 255
27.153994846546055 -1.138039285281408 -7.268716541722966 27 21 0 255
-32.962345865190315 -6.327433845641252 -50.885327828881231 203 160 141 255
-30.026921003598915 -6.602103956459970 -48.728577101208998 204 163 145 255
25.406920186382479 -24.889153545450270 -8.382700028646667 200 158 136 255
26.446611816385172 -24.652818105782401 -7.609314684031546 200 153 135 255
26.988295150004177 -24.226272675449891 -7.197691832713900 201 156 136 255
27.447131503903506 -23.770255420004659 -6.846359542361796 200 155 134 255
28.571040026066385 -23.584462000957615 -6.012501642025171 198 153 131 255
29.362925857149463 -23.271444113724783 -5.419839403792281 198 154 129 255
29.905732876785663 -22.861886437612114 -5.008102556871336 197 153 126 255
30.116157204511040 -22.319151924397175 -4.837658825417549 197 151 128 255
31.158424387148926 -22.122579862826001 -4.063913437965880 196 150 127 255
31.535616773548526 -21.654936410852685 -3.772790457055379 198 152 129 255
31.996193054990613 -21.224828975331903 -3.421328759321653 198 153 130 255
31.874426493469798 -20.550809388314960 -3.492279121510762 197 152 129 255
32.668263209028936 -20.267128286769832 -2.899437665910853 194 147 128 255
33.129422764711364 -19.845366499784731 -2.547973223950322 191 144 126 255
33.340980255378298 -19.318363703400806 -2.377581744029129 186 139 121 255
32.969640276946905 -18.538219777173595 -2.629759466890249 182 135 117 255
33.347915960658980 -18.085399025903882 -2.338712336126548 177 130 112 255
33.726369370502795 -17.635054108183937 -2.047672389711721 173 126 108 255
34.438344423731678 -17.335886073828178 -1.515130397974502 165 122 103 255
34.567161218851965 -16.779211501394300 -1.405234591089766 161 118 99 255
34.529320748574520 -16.147924985130302 -1.416149689558637 160 117 98 255
34.825034159914509 -15.668335266417557 -1.185555583836958 155 112 93 255
35.037491216798628 -15.152379363369121 -1.015377869676058 153 110 91 255
35.583729489295905 -14.791904944482525 -0.603626319561528 150 107 88 255
35.546175024821309 -14.163300792132020 -0.614708544905000 144 103 83 255
35.675534547136635 -13.612549945556154 -0.505030263814064 136 97 76 255
35.387643552138485 -12.865826602721597 -0.697472016771769 129 93 71 255
35.350116197838958 -12.236014885259380 -0.708744762587514 121 86 64 255
35.229104784159688 -11.565977445342526 -0.780506843562563 113 81 58 255
35.442133660001303 -11.055720568803508 -0.610623108088760 110 80 56 255
35.571743143250501 -10.506308312180181 -0.501211068315598 105 76 52 255
35.450790533658306 -9.835489229463974 -0.573166814242086 95 70 44 255
35.162693220426547 -9.081782523055907 -0.766091253527605 84 64 37 255
34.540195325416875 -8.161022227227505 -1.200916275946014 72 56 28 255
33.332316099500531 -6.945322578982726 -2.059070031986295 60 46 19 255
31.287880905373498 -5.303512077405998 -3.522042709268106 49 35 9 255
27.737382036767826 -2.890735409337125 -6.073715122045400 39 27 3 255
26.360284582874272 -1.555683895358158 -7.053659368626910 33 22 0 255
25.735625909366604 -0.595046783383594 -7.489565197171856 28 20 0 255
-32.729786232926841 -6.586296795946737 -49.666706865687956 208 173 151 255
20.329230791347015 -24.374850299126166 -11.272015515238678 207 164 145 255
23.781028869599879 -25.045164715891190 -8.760267183804615 201 156 137 255
25.321096185939950 -24.994960699939853 -7.629643213026583 199 154 133 255
26.029844582083484 -24.629122750367912 -7.099566264228514 199 153 133 255
25.906782608691799 -23.939552266488462 -7.170166126472253 200 154 131 255
26.948898958081031 -23.712944600428699 -6.399752627394406 200 154 129 255
27.991455237987338 -23.493218556883676 -5.629266918628872 198 153 124 255
28.951190216562310 -23.246712640112136 -4.918793882303078 198 153 122 255
29.494945100827550 -22.836905761337817 -4.508702964437248 197 152 122 255
29.872355760397710 -22.362330927151206 -4.218780405438480 196 150 126 255
30.666494538995607 -22.062628328269867 -3.628368448709296 196 150 126 255
30.961015962700941 -21.559737851844332 -3.398526245512414 196 150 126 255
31.255682353661939 -21.058832198031538 -3.168694044055741 194 148 125 255
31.217057497655361 -20.418793453227707 -3.179317566564094 195 149 126 255
32.178951189462396 -20.205140428557414 -2.468599517459182 193 146 123 255
32.724292288917297 -19.818685973946529 -2.058422698582973 188 140 120 255
33.186467901242594 -19.399723012273881 -1.708356235902784 186 138 118 255
32.647762260662489 -18.547470772699555 -2.079837848396778 177 128 111 255
33.110161791192752 -18.131317165147024 -1.729817475974016 170 121 104 255
33.238943615379952 -17.570574117706954 -1.620348199266800 170 121 104 255
33.618223960079064 -17.122193475809794 -1.330483494573201 164 117 99 255
33.747213000237338 -16.563942414932512 -1.221069753505390 161 114 96 255
34.043292383286740 -16.081949557237934 -0.991386805637262 157 112 93 255
34.255993924091541 -15.563874405194099 -0.821879184237162 154 109 90 255
34.468806892120682 -15.047153092286223 -0.652399775902211 151 106 87 255
34.848839954534384 -14.608837345599895 -0.362615796405038 145 102 83 255
35.061907951844063 -14.095342722012987 -0.193185655150529 138 97 77 255
34.689979049325444 -13.309662744397528 -0.445020759824558 125 89 67 255
34.735949368542578 -12.718223498313151 -0.396048835023379 123 87 65 255
34.614727093915690 -12.047771916848575 -0.467500876111842 116 84 61 255
34.828027981858099 -11.536004744096815 -0.298261404132347 109 79 55 255
34.874136094159780 -10.945206236296244 -0.249447858411997 103 76 49 255
35.087625825850324 -10.435472119074930 -0.080287435993199 92 68 42 255
34.799121162479281 -9.682767028793123 -0.272397638541605 80 61 34 255
34.092030812528549 -8.723150383790170 -0.765658501421314 71 54 28 255
32.882395395158824 -7.511260399025332 -1.620362642939511 61 47 21 255
30.751260157051973 -5.834529201432886 -3.137707342839605 47 33 6 255
28.033086908993084 -3.851117458810066 -5.076959064304816 39 28 0 255
25.900247046961283 -2.144290711734598 -6.594993534147051 34 22 0 255
25.274673817713136 -1.185594331634320 -7.029108099662807 32 20 0 255
18.444856769210958 -24.460591923188971 -11.811334880116419 201 160 140 255
20.402305321972619 -24.542696301177003 -10.386421216664559 195 152 133 255
23.526753798482162 -25.086112797721924 -8.123797349876355 196 151 132 255
24.402920769274573 -24.777722853176684 -7.476258544163045 198 153 132 255
24.529467752316776 -24.181993152252971 -7.367159449849140 197 150 130 255
25.239537636476541 -23.817121879640794 -6.839220184461198 199 153 130 255
26.366743206239022 -23.622543290364405 -6.012033667927028 201 155 130 255
27.661184354927059 -23.502151898316399 -5.065073050599892 199 154 125 255
28.205579490190132 -23.087382678752320 -4.656666757353833 197 152 123 255
28.750217348336292 -22.676245195050726 -4.248240347726579 194 149 120 255
29.378528649165219 -22.302926133615358 -3.779935167027560 196 148 125 255
30.174009445958490 -22.002692775766491 -3.191874832736346 196 148 125 255
30.635976668229063 -21.568761212725477 -2.843241709497306 196 148 125 255
30.931193887127250 -21.067889293087532 -2.614344662892421 193 145 123 255
31.226555345996303 -20.568996048837519 -2.385457112529821 192 144 122 255
31.772598282377004 -20.178707541213058 -1.976935101702765 189 141 119 255
32.402411881507504 -19.827821799258047 -1.508510765231250 185 137 115 255
32.781864733606028 -19.372802230850070 -1.219733503179725 182 134 112 255
32.576564682021228 -18.665781168733290 -1.350225666944880 174 126 105 255
32.956256321046880 -18.213843548178687 -1.061487273740852 170 122 102 255
32.667372961619577 -17.469199583122048 -1.251988529118051 166 118 99 255
32.963676620699601 -16.982872970067220 -1.023205838242006 160 113 94 255
33.009244436580587 -16.386146207342819 -0.974179452499953 156 111 91 255
33.473071687267890 -15.978261674302985 -0.625605303414005 153 108 88 255
33.518812378360366 -15.383453619362783 -0.576644404010921 147 103 83 255
33.815624434978844 -14.903676642486218 -0.347945913009454 143 99 79 255
34.196271047576516 -14.464314597847235 -0.059333089596919 139 98 78 255
34.577093084923376 -14.027377266913959 0.229270364925668 129 90 69 255
34.120850728235069 -13.202163539852748 -0.081557233871905 122 86 64 255
34.083159837719222 -12.570626492439274 -0.092757309312475 115 82 59 255
33.877968838354121 -11.859541922843150 -0.223920975480354 110 80 56 255
34.259134136203755 -11.426237834461062 0.064531354397189 104 75 51 255
33.970163272334048 -10.674052047133685 -0.126721902350141 90 67 39 255
34.100132964911978 -10.122034113509258 -0.018235397336497 78 59 32 255
33.224324519586133 -9.082305365434223 -0.629450594179644 68 52 26 255
31.929016949358385 -7.831866748580964 -1.540712873440953 61 47 21 255
29.962406367911768 -6.242859269193417 -2.932043701723785 50 37 11 255
27.491844070880234 -4.391752598991516 -4.683593538979039 38 24 0 255
25.607557563715716 -2.816949488251169 -6.015566594471949 39 27 3 255
24.058180247730320 -1.397959533852756 -7.107849429252155 32 20 0 255
23.767008791244336 -0.603819117387758 -7.300363892877556 32 19 0 255
17.431275495713379 -25.551204374008947 -11.735052366783009 205 170 150 255
18.890736553460528 -25.430753254608007 -10.673411874232727 198 157 139 255
20.267397132308560 -25.288425637393502 -9.671233634784045 195 154 134 255
21.811469852806169 -25.218689494544748 -8.549773020596234 194 151 132 255
22.772119268327742 -24.934886617988937 -7.845315891463684 196 151 132 255
23.399361497630878 -24.528248698323708 -7.379169290624901 198 153 132 255
24.110348948914350 -24.158381418788579 -6.853391508946231 197 151 128 255
25.072102961483722 -23.891766873946835 -6.148763868929422 198 152 128 255
26.368273188351651 -23.763936931185029 -5.205640265985295 201 155 129 255
27.330904623342093 -23.511092579849873 -4.500863218351157 199 154 125 255
27.625659884194192 -22.995393986860378 -4.272950207098631 196 151 122 255
28.421868641398277 -22.685221729670886 -3.687318713261874 193 147 119 255
29.051281584227524 -22.311917827277412 -3.220890069243609 193 145 122 255
29.764553303236340 -21.977233478933584 -2.694802925715607 193 145 122 255
30.478132066742262 -21.647243905248672 -2.168678310543214 193 145 123 255
30.439465619764633 -21.006946108573970 -2.179261873683856 192 144 122 255
30.902611500542349 -20.578085336148604 -1.832032487504620 191 143 121 255
31.282316597403025 -20.116738113688342 -1.544441428707927 185 137 115 255
31.913195201491362 -19.765330344397469 -1.077895351538700 180 132 109 255
32.293301108318673 -19.309800903983259 -0.790292503034664 175 127 104 255
32.422487503815859 -18.747707353482937 -0.681674414831065 167 119 97 255
32.551751814297120 -18.186474915180696 -0.573086277616170 166 118 96 255
32.094976969752480 -17.367837526445811 -0.882220130144930 158 110 88 255
32.224282931708927 -16.806406489587602 -0.773726741805575 152 107 86 255
32.437430155505041 -16.283247915660453 -0.605586466440542 150 105 84 255
32.985806806123406 -15.912289219706580 -0.198733750251023 147 103 81 255
33.115443200246347 -15.354970365686953 -0.090312383328751 142 100 78 255
33.412781662136666 -14.874963772259491 0.137461125785848 135 94 72 255
33.794091008374892 -14.435368649677883 0.424916107828921 128 89 68 255
34.091730168248688 -13.959405486954864 0.652660078169731 122 86 64 255
33.802483804365124 -13.211860196785722 0.462431071274437 116 81 59 255
33.848661237910562 -12.619722250576672 0.510966366763796 108 77 54 255
33.391521769048353 -11.790153530870242 0.201147989490352 101 73 49 255
33.521600205284216 -11.236703362565706 0.309277938751507 92 66 41 255
32.980347322353907 -10.362771955911057 -0.060451037461576 80 60 33 255
32.690738053306262 -9.606499371050418 -0.251104131870051 70 53 27 255
30.973749964349878 -8.156345668356209 -1.457380313714822 59 46 19 255
28.416378826877320 -6.285187163330804 -3.261339935502150 44 33 8 255
25.690065351628931 -4.314772361112858 -5.185159158800531 35 25 0 255
24.390846011943893 -3.032279647804401 -6.093581961777488 38 26 2 255
23.763338001245984 -2.075499203415632 -6.524168697517666 33 21 0 255
23.051575295368082 -1.072391600056946 -7.014659883727006 33 21 0 255
18.002629152078129 -25.900682023249331 -10.489182408936500 199 160 142 255
19.214175974469441 -25.689513889629964 -9.609757176258114 200 159 141 255
21.178100296430102 -25.769729371333653 -8.196110695489523 194 153 133 255
22.307246038227930 -25.545221339956726 -7.375808637620679 196 153 134 255
22.851844054995013 -25.103976696756419 -6.970911912762659 197 152 133 255
23.062321984277105 -24.537215894652746 -6.803430564629338 197 152 131 255
23.774552534444609 -24.167355249651990 -6.279771528468274 198 152 129 255
25.741439748483117 -24.294764681621047 -4.865537529050499 197 151 127 255
26.287251084426998 -23.872205254197581 -4.460476801098139 197 151 125 255
27.167928059970620 -23.586792298817230 -3.817882146364411 196 151 122 255
