ply
format ascii 1.0
element vertex 650
property float x
property float y
property float z
property uchar red
property uchar green
property uchar blue
property uchar alpha
end_header
-30.682833510026626 -8.478187916854750 -30.946996186006118 172 122 101 255
-30.766660874958461 -7.122408545770412 -31.088315574544083 148 97 78 255
-30.608245943125098 -5.312919765630227 -31.574028076657214 117 69 52 255
-30.980460135189333 -4.475807381770210 -31.309037251855926 75 40 21 255
-32.283017357912229 -5.374674610942407 -29.722493961932884 28 3 0 255
-37.894596658771889 -14.384871307804929 -22.002785930060980 173 142 122 255
-40.218701194462028 -17.301788746719865 -18.945869940089864 210 164 151 255
-41.368833379860888 -18.031580088625475 -17.555986072249823 204 157 146 255
-42.194644203662875 -18.158889788971038 -16.626339569376910 207 160 151 255
-42.619354231050906 -17.525159821278606 -16.268629450042170 196 149 142 255
-43.043766405635296 -16.891983408147070 -15.911155610640265 180 132 128 255
-43.467882436651024 -16.259358291429351 -15.553917546622529 154 106 102 255
-44.207519830500800 -16.245464126115735 -14.743325310038841 167 118 111 255
-45.023648122637425 -16.390667762350972 -13.821266220882592 202 153 148 255
-45.797838692167005 -16.463147581487931 -12.957835308220496 203 154 149 255
-46.726031900994428 -16.851934063071212 -11.870668552929573 187 138 133 255
-47.143873190174816 -16.230926523751549 -11.518367381715166 193 144 139 255
-47.483681803879080 -15.453683352907717 -11.278753156185928 183 134 125 255
-47.591168044707914 -14.204437052116390 -11.375794692680927 170 123 115 255
-47.700302107216061 -12.952161776490414 -11.471560078836887 158 115 104 255
-47.926624013536127 -11.934011937932951 -11.398212727732414 137 98 83 255
-48.422620410292168 -11.469084255420512 -10.933194009436420 112 78 68 255
-48.573415195547582 -10.290093751039507 -10.970593739853996 60 39 28 255
-47.504782547023481 -6.557494761002886 -12.788121631737880 15 6 0 255
-46.901646113628331 -3.767370572556104 -13.931709807454808 9 8 0 255
-49.451313020009508 -7.619339311666465 -10.466022673835084 2 4 0 255
-52.025017132507458 -11.577088993148152 -6.955712139761062 1 3 0 255
-51.345146659197212 -8.628378930401425 -8.211015712690624 0 2 0 255
-51.911124298142681 -8.334677991144247 -7.639722704366250 0 2 0 255
-51.435164500478606 -4.259282354334800 -8.865260024869599 0 2 0 255
-22.296186349402518 -3.047713924664663 -42.541009394111569 206 172 144 255
-24.507695875188574 -5.405838840848673 -39.686561281494420 207 166 144 255
-26.419336321026492 -7.269062381728077 -37.249780813637358 203 163 138 255
-27.868770985612798 -8.337947390106194 -35.462294982140719 198 154 130 255
-28.901091554203077 -8.679034658615080 -34.262675686337559 196 151 128 255
-29.888730282164914 -8.952818695685579 -33.124158676130548 193 145 123 255
-30.832051821474977 -9.158627415525444 -32.046459885161511 182 134 112 255
-31.161109249853354 -8.251691239605606 -31.841652386651162 167 119 98 255
-31.328113505519411 -7.044788814706408 -31.868244962022544 147 97 78 255
-31.010555273750640 -4.935049334333144 -32.587798444451408 118 69 53 255
-31.262512198087649 -3.870874908026451 -32.495614917257768 73 40 21 255
-32.119167344483714 -3.937095911417316 -31.538010302735131 31 13 0 255
-40.786409521681378 -17.293942498447961 -19.631271694206674 218 174 163 255
-41.933032918214948 -18.023103345977034 -18.237542146222154 199 155 146 255
-42.557991699626982 -17.768145643009632 -17.591963557634386 202 158 149 255
-42.983194238008778 -17.133051330789641 -17.233446519151869 193 148 143 255
-43.645276263106851 -16.959348855122812 -16.532673155534752 87 42 39 255
-44.384433085025236 -16.942926763565708 -15.719290983019363 79 31 28 255
-44.767771811608412 -16.235349718384668 -15.419694291033579 169 121 117 255
-45.856079159094918 -16.922408389018187 -14.097754914089990 181 133 129 255
-46.822856029868575 -17.384485767192587 -12.949368208808067 208 159 155 255
-47.591336646836396 -17.463736983173874 -12.086906950661955 210 160 156 255
-48.124525312054757 -17.078679636307044 -11.565473882979489 197 147 143 255
-48.463279218631016 -16.303670538959523 -11.326950241590907 186 134 126 255
-48.647973131569927 -15.213957038156622 -11.313594353559466 175 125 118 255
-48.718499549579377 -13.885676695551126 -11.468041490918182 156 110 100 255
-48.714268854853501 -12.395856983557849 -11.733303728217010 145 100 88 255
-49.018042743190321 -11.535696542256716 -11.548355364570256 97 60 51 255
-48.789100868632062 -9.562060412405629 -12.146397220361081 48 28 17 255
-48.526020546626100 -7.501684879814462 -12.797324495558286 10 4 0 255
-49.629332658902058 -8.310953341268885 -11.437595290809554 4 3 0 255
-50.765765194003947 -9.208874702847766 -10.025808186357523 1 3 0 255
-51.408538500971758 -9.071003858984682 -9.340302583666812 1 3 0 255
-52.874190429345745 -10.709214853273238 -7.435553387571417 0 3 0 255
-52.651609816173291 -8.723953291124928 -8.028731484976902 0 2 0 255
-52.432867526678407 -6.731631631693318 -8.618932731896791 0 2 0 255
-53.331563006983885 -7.169851126372407 -7.550171408823189 0 2 0 255
-21.748159797172036 -2.531377375465127 -44.688382498659394 206 177 147 255
-23.752109748739969 -4.509630407444661 -42.113988522712020 213 171 148 255
-25.581692281752510 -6.212120495836075 -39.781984477939403 209 168 146 255
-27.485273825736726 -8.076814578896290 -37.339076792393513 209 165 140 255
-28.723573021660542 -8.779077087552764 -35.840603040696408 201 155 131 255
-29.588766531625112 -8.825409377429196 -34.872498501180360 194 146 123 255
-30.124909003834944 -8.283895845548358 -34.373802048393657 195 147 124 255
-31.026267283283090 -8.412862863574276 -33.350890612991464 186 138 115 255
-31.762460516109002 -8.249085896276569 -32.563181620816266 167 119 99 255
-32.011524406734736 -7.191644875011718 -32.474550714918905 147 98 81 255
-31.697195674324348 -5.082505612420107 -33.197662227062949 102 60 44 255
-31.588070236159353 -3.341600177325404 -33.627741628772071 28 6 0 255
-31.802531888209359 -2.198618480996288 -33.592676236061664 25 12 0 255
-42.537242587794907 -18.090833733036504 -18.861907312008185 211 169 157 255
-43.240190807421968 -17.988422366971236 -18.100181788395844 195 152 143 255
-43.349229737922613 -16.741243890312063 -18.200583246954523 143 100 94 255
-44.286059022845876 -17.103546757200178 -17.096894222478909 121 78 72 255
-44.670374033794232 -16.394077535161813 -16.796450978461081 180 135 131 255
-45.328334567435078 -16.225324367852068 -16.096434673220699 156 108 104 255
-46.296389872703998 -16.679411490116991 -14.941829616844899 171 123 119 255
-47.493931973098654 -17.606325169734873 -13.448696551003735 213 164 160 255
-48.221508893358873 -17.607901573112827 -12.641235204213842 208 157 153 255
-48.869637377519240 -17.457332720722093 -11.948936511148872 204 153 149 255
-49.439042771427154 -17.153280573028894 -11.371234344355940 194 141 133 255
-49.623437799976415 -16.065884644779374 -11.359748939114212 172 121 115 255
-49.732487659675769 -14.818772073070562 -11.460221646596949 152 105 95 255
-49.690645843983987 -13.252586035141007 -11.784756983195962 138 92 80 255
-49.879511490088476 -12.156980034421622 -11.769816439722320 88 53 43 255
-49.804287056455522 -10.503042047083738 -12.147001117860242 28 10 1 255
-50.676281397598245 -10.835764718551047 -11.120650569494018 9 3 0 255
-51.243886892170366 -10.535139924480802 -10.544452482950248 4 5 0 255
-50.609193270706996 -7.672913985659136 -11.756893642814646 1 4 0 255
-52.300589086681555 -9.780058214132680 -9.506528666933434 0 2 0 255
-53.386854972653822 -10.613759263863614 -8.153603717760774 0 2 0 255
-52.981639276577852 -8.224432342480895 -9.027575791277059 0 2 0 255
-52.951984854554127 -6.635925553781306 -9.342748407451893 0 2 0 255
-53.257351009338052 -5.773668149373862 -9.157336188702971 0 2 0 255
-21.368432876614776 -2.314633381347448 -46.609814899886942 197 177 140 255
-23.743583352375509 -4.934861791688490 -43.490345480045249 213 172 148 255
-25.365589966331925 -6.262689411054453 -41.443209262957510 214 168 149 255
-26.487491010694328 -6.725239057099259 -40.109402946936910 214 169 148 255
-28.137720077403969 -8.149986753568669 -38.013319699051010 213 168 146 255
-29.372193425011773 -8.851825688526844 -36.510897382240159 202 156 133 255
-30.235261195201701 -8.897924426230048 -35.540600583399737 187 141 118 255
-30.445984343300609 -7.763626116741079 -35.510109531581463 189 141 118 255
-31.184076556155844 -7.593300633282126 -34.718095378853207 186 135 114 255
-31.920161422378612 -7.426675791785499 -33.927645820048696 164 114 95 255
-32.372573308775713 -6.740436063913307 -33.547009098991737 131 85 67 255
-31.661265591692029 -3.880294199474065 -34.855191897926233 81 49 29 255
-30.876654559850124 -0.857387957805940 -36.274405503765564 28 20 1 255
-42.627698895386402 -17.169361897695580 -20.237064221653981 197 159 146 255
-43.685204645558102 -17.750748338569394 -18.953561857640267 196 158 147 255
-44.070914675656567 -17.038610333782486 -18.651941377250068 126 87 79 255
-44.574025882000555 -16.556871584719858 -18.177952446540274 157 118 111 255
-45.544739477478089 -17.000414176899909 -17.016043853110233 188 146 140 255
-46.278317959864964 -16.987480655373645 -16.200710636790973 93 45 41 255
-47.281210503408175 -17.520675779500607 -14.986795702210401 215 166 162 255
-48.164188294942107 -17.828125210600376 -13.947226610212681 208 159 154 255
-48.735591151576003 -17.518438080018143 -13.366157619897194 206 156 150 255
-49.421032412994464 -17.445364499939018 -12.615355012328223 200 148 144 255
-49.951270421094023 -17.062650708339191 -12.093351823749884 186 135 127 255
-50.518693346290291 -16.760345400987546 -11.515426291492076 167 119 111 255
-50.818401570394343 -15.908979849357138 -11.334851547702925 148 102 92 255
-50.852926902490225 -14.503881225516864 -11.549649289101637 121 75 63 255
-50.851760759747123 -13.015645306825206 -11.819227974104251 67 33 23 255
-50.928385151888449 -11.681903410429896 -11.974280266212958 21 7 0 255
-52.209654046889014 -12.893662857651179 -10.327949472181274 9 6 0 255
-52.398620460710177 -11.799691871270852 -10.314618168544257 4 6 0 255
-51.729832713456474 -8.861252479046613 -11.589743002231785 1 4 0 255
-53.673488080609090 -11.533010572706985 -8.942079933470012 0 2 0 255
-52.267633794254550 -6.974456773188024 -11.330743370097707 0 2 0 255
-52.648544152297447 -6.271440908711099 -11.033117632413678 0 2 0 255
-54.098480700085162 -7.917160252003725 -9.120721672235533 0 2 0 255
-23.199447759563583 -4.420632744702289 -45.643288589665843 211 176 148 255
-25.562283668220033 -7.046120952791654 -42.517248988423688 213 171 147 255
-27.052328804299520 -8.160729061585471 -40.644872974046194 214 168 149 255
-27.922575887175896 -8.189443573821961 -39.665134623812349 214 167 147 255
-29.279373962262127 -9.104001108092348 -37.978530911736442 213 166 148 255
-30.305304825837823 -9.439981327227144 -36.768238714333080 200 155 134 255
-31.246466942546704 -9.635099848278202 -35.678623538238980 183 137 116 255
-31.376175121454594 -8.354776606889033 -35.767512379184694 176 128 108 255
-32.031281992962761 -8.037257539337986 -35.091963472516852 166 113 97 255
-32.484014167586594 -7.349971834876897 -34.710654872070165 140 88 72 255
-32.215541487606089 -5.317980888858699 -35.382881399620288 94 58 38 255
-30.952883668743453 -1.404519256008484 -37.512496450848545 33 26 2 255
-43.151537436840727 -15.605849175985497 -21.254867558133611 194 157 148 255
-43.892461420144286 -15.575928658333652 -20.430615466868858 176 138 127 255
-44.475305119565746 -15.243151281013184 -19.838776588349106 178 140 130 255
-45.484162921443271 -15.759326151607496 -18.614629085201386 149 107 99 255
-47.031226260787662 -17.363360366548875 -16.588848684458668 119 74 68 255
-48.069182764856265 -17.974508067789316 -15.314763574154910 202 155 149 255
-48.756661556023019 -17.894618546162633 -14.559536690231056 205 155 148 255
-49.403806309014726 -17.740526286002023 -13.863057635681400 204 153 144 255
-50.010980796928806 -17.511560595589231 -13.225042819514726 193 143 134 255
-50.540428781662129 -17.128750239150975 -12.702215833171635 179 128 115 255
-51.068874350314474 -16.747803594921379 -12.180184725364541 170 118 107 255
-51.558440719798625 -16.289972041903127 -11.715767400497953 142 95 85 255
-51.933974301334558 -15.596649629597721 -11.422129595372667 103 61 53 255
-51.857817661545283 -13.953120782693077 -11.808096618429005 40 12 2 255
-51.446861513294138 -11.589616425396798 -12.700669534094544 24 14 2 255
-53.733544238831115 -14.950546803838250 -9.525494801951282 6 5 0 255
-52.839380180204671 -11.546368482066327 -11.149538028984153 2 2 0 255
-54.591495565573666 -13.812767006543083 -8.773192612143959 1 3 0 255
-52.482921496362380 -7.744313436676379 -12.244463282138469 0 3 0 255
-52.679239526588063 -6.638608135180618 -12.227087775695651 0 3 0 255
-55.432060597023820 -8.098683373812491 -8.878292816054369 0 3 0 255
-54.241545435221141 -3.903710946058254 -10.979032275615197 0 3 0 255
-54.223423171016094 -2.301975647574864 -11.292661242342234 0 4 0 255
-54.461302860900446 -1.268381930403280 -11.215740516972744 0 4 0 255
-55.096952435945951 -1.135905647924517 -10.528614270813790 0 7 0 255
-21.916396557307337 -2.615170726354677 -48.882871855765728 207 182 149 255
-24.814451264270758 -6.163067761359770 -44.964077212193217 213 173 148 255
-26.715149504800280 -7.992905241275793 -42.486179211375315 215 172 148 255
-27.953820893989530 -8.672052963357260 -40.966625075101092 213 168 149 255
-28.617684670887712 -8.336100140367421 -40.282128044659117 211 166 145 255
-29.848214354750752 -9.030259398860892 -38.768921593471219 211 164 146 255
-30.952436398428517 -9.512678314136508 -37.437101419285852 197 150 130 255
-31.810409172952859 -9.559871813998882 -36.463083873039693 181 133 113 255
-32.102525110757028 -8.575440369075579 -36.317125384266717 161 113 93 255
-32.435392855415728 -7.664073355022765 -36.111752203312250 133 86 68 255
-32.288891694838412 -5.858021190131751 -36.611723532977976 102 59 42 255
-31.348483312171169 -2.551522610792915 -38.283329527504463 44 26 2 255
-34.008075722763238 -1.348154488039654 -35.514352306333564 73 64 39 255
-43.215838809670487 -13.119651260358069 -22.970493277684852 194 160 150 255
-43.840453238630801 -12.856133988656893 -22.316660313534669 188 152 140 255
-45.507237529769426 -14.672891836850226 -20.104283106135995 72 33 24 255
-47.397218303887442 -16.967445186070876 -17.552137339684947 191 148 140 255
-48.624721565994093 -17.963835304285283 -15.986234323567203 189 141 135 255
-49.157603825644742 -17.573095164051551 -15.459248785412058 196 143 135 255
-49.880339627195440 -17.573400319437383 -14.646109476922959 201 146 139 255
-50.524760526843210 -17.421685638625974 -13.949302642821465 190 133 124 255
-51.091591707992151 -17.116613020838628 -13.368261947900351 174 123 110 255
-51.657180247301284 -16.813848415579997 -12.788205699327818 152 99 88 255
-52.146147338920088 -16.355939993770619 -12.323160122287163 137 92 83 255
-52.859778994779305 -16.373123445369004 -11.517204357797567 100 68 58 255
-52.410270585249719 -13.940144883842834 -12.474564302988341 48 30 18 255
-53.197898263300118 -14.117368911425416 -11.555696732496045 14 7 0 255
-54.801446108005266 -16.051051438985837 -9.392928126349943 5 5 0 255
-53.096146479759199 -10.894075318701255 -12.268712727623381 1 1 0 255
-55.064152500777652 -13.638023462619515 -9.545580416023114 0 2 0 255
-55.437333526817881 -12.949086149139077 -9.253820809969142 0 3 0 255
-54.023835819104491 -6.808606430667680 -11.984215129580861 0 3 0 255
-54.420646114027676 -4.593166993904617 -11.949609316902041 0 3 0 255
-55.164534933204749 -4.703045891278521 -11.092681647596720 0 4 0 255
-55.255753905235892 -3.348360398557361 -11.241885134309740 0 4 0 255
-55.960986628180891 -3.381357173908498 -10.442781194024462 0 4 0 255
-55.623396353978649 -1.038703894213370 -11.257853219746039 0 7 0 255
-20.926146394880476 -1.332114962374874 -51.723713820317471 160 159 112 255
-23.659789487053160 -4.569531104466989 -48.024380618066971 214 177 151 255
-26.093635710681042 -7.324862889281690 -44.754662949956582 217 176 154 255
-27.211244661961075 -7.776231209322759 -43.406502787803731 217 172 151 255
-28.365297732537726 -8.308242727159524 -42.001949316350874 210 167 148 255
-29.109740767894323 -8.117092522418147 -41.196534394855234 215 168 150 255
-30.660104310813779 -9.396791785494656 -39.203215572184035 210 163 145 255
-31.639758756161967 -9.659002584063842 -38.046549728244656 199 151 131 255
-32.455332281857039 -9.632382336515491 -37.129721079138420 173 122 104 255
-32.467727436273663 -8.129829038760192 -37.398632766354126 131 83 66 255
-32.203068283129994 -6.103200113603208 -38.079374114942283 94 55 37 255
-30.987413509064339 -2.281780572202706 -40.172976081290500 48 32 8 255
-34.422779942692074 -0.967712694658871 -36.537259564286330 41 36 10 255
-36.714359853838630 -3.837726225042047 -33.406635867292493 17 2 0 255
-37.007942363092241 -2.851586952990488 -33.260457407022443 24 7 0 255
-40.719012229739292 -8.574686596412675 -27.988161588632380 43 21 7 255
-42.861246141499976 -11.276641208253068 -25.058001805678771 119 92 80 255
-44.220845424700343 -12.464732689695524 -23.297517328019126 187 156 145 255
-46.189818488568065 -14.894831744419690 -20.614397940998998 168 130 120 255
-47.842094480063338 -16.726119409674141 -18.402004460571135 181 137 128 255
-48.989445073298157 -17.566406301020976 -16.946940696541333 181 134 125 255
-49.712781624626089 -17.562189983459348 -16.130168561901655 182 129 121 255
-50.547857177416432 -17.795510868632732 -15.142381813237876 186 131 124 255
-51.379999657156247 -18.034260295419045 -14.156900924341301 174 119 110 255
-51.869524886533611 -17.574109876480776 -13.690295882247909 155 105 95 255
-52.057309856891322 -16.487531236346086 -13.682718843835715 131 78 70 255
-52.321268110884034 -15.556214958573889 -13.559824474490654 76 38 29 255
-52.997114272438466 -15.491822056894875 -12.808150287955300 30 9 1 255
-53.484696748129409 -15.035321800580846 -12.343123083686521 38 28 15 255
-52.783020726048079 -12.040381398177090 -13.700324875783878 17 13 1 255
-52.865731409781915 -10.704056727805778 -13.858639957725018 4 4 0 255
-53.946646873032762 -11.519238429890152 -12.483575497892218 1 1 0 255
-54.471271005320446 -11.142372624776499 -11.961775304356451 0 2 0 255
-54.078430078403827 -8.760861263942644 -12.854493755844885 0 3 0 255
-55.334882314610809 -9.991736599466549 -11.202816663295437 0 3 0 255
-55.201636607327117 -8.166588601301981 -11.697407326614837 0 3 0 255
-53.547223911117953 -2.936378517432388 -14.552604315942773 0 3 0 255
-55.061647988074810 -1.620134166727667 -13.089901003663471 0 5 0 255
-55.660360722436067 -1.402587106665862 -12.454605949131832 0 5 0 255
-23.123665004464783 -4.072749621813330 -50.200942719922352 207 186 150 255
-25.474895954014301 -6.667273394215073 -47.035414322300539 215 175 153 255
-26.838075247365225 -7.544312325109019 -45.319963649698252 215 174 154 255
-27.749330923937634 -7.632439460140375 -44.268394694018042 217 172 153 255
-28.819400750801975 -8.017622942759033 -42.979717815524680 213 168 149 255
-29.683876494578897 -8.044526360158159 -41.992936498235053 211 162 145 255
-30.827069083894230 -8.589828226300142 -40.590608286968688 204 155 138 255
-31.524873745183356 -8.334151831060723 -39.847051338600124 185 137 117 255
-32.260875871238511 -8.155515702866410 -39.045390979487024 154 103 86 255
-32.237802521486799 -6.574484080260049 -39.373609496189204 108 63 47 255
-31.025565014506157 -2.761830790287718 -41.478513541738153 58 32 11 255
-35.892687150441759 -2.627847121460036 -35.976937197351702 145 126 99 255
-37.006233370935206 -3.227858969761940 -34.597767766659018 136 116 93 255
-37.805298868842556 -3.227918319070227 -33.690326472598258 55 33 14 255
-38.485975125734655 -3.003845880290442 -32.960144920249206 30 11 0 255
-41.052307538722346 -6.529382100495894 -29.372378669439229 24 5 0 255
-46.603632319493499 -14.578416383310127 -21.530808395544909 181 154 141 255
-48.097624727945060 -16.099383196626491 -19.543720402012724 178 143 131 255
-49.432434739576550 -17.323968327539490 -17.794023447673140 169 126 117 255
-50.192436850932452 -17.396229904096970 -16.917202781189530 172 123 113 255
-51.214553878705118 -18.017578332813173 -15.637851274265358 181 128 120 255
-51.893459648389012 -17.944447696049536 -14.880921369293134 166 113 105 255
-52.382626830551843 -17.483776148827815 -14.413500479054846 138 91 83 255
-52.534128035973495 -16.318385770604323 -14.464163468157977 116 69 62 255
-52.425844178244517 -14.599632542600148 -14.915559129738710 45 14 7 255
-53.064523336014460 -14.453260376904950 -14.218367897475730 23 11 0 255
-53.330758292032755 -13.518808446061286 -14.094683004515048 18 12 0 255
-54.151974506873955 -13.773327941307855 -13.113664817133213 11 8 0 255
-54.638787544248714 -13.317108539698950 -12.648182798016506 4 4 0 255
-55.418548990248496 -13.500635302326288 -11.727846302038898 2 2 0 255
-54.878354490894083 -10.808541614616558 -12.855786756709222 1 3 0 255
-55.766527786570080 -11.234677892949378 -11.766045023062816 0 3 0 255
-56.251459288672436 -10.782026365773362 -11.302121463904882 0 3 0 255
-56.844346970719897 -10.572805157398363 -10.669129990985255 0 4 0 255
-55.876744617433459 -2.176868046589789 -13.373445812988706 0 5 0 255
-56.188556004265763 -1.306155920470587 -13.186186981830105 0 5 0 255
-24.410735128589948 -5.228415155222820 -49.993175950056440 210 180 151 255
-26.466863267032636 -7.319909751533515 -47.242211113837101 219 175 157 255
-27.500662314248814 -7.618879416150349 -46.004924952291475 218 172 156 255
-28.449986197923238 -7.779399974850321 -44.890825042286821 215 172 153 255
-29.396084164122442 -7.945865433304732 -43.779237447686540 215 166 151 255
-30.379098267213436 -8.191364813843336 -42.610203537381551 203 158 139 255
-31.238590815691936 -8.223307228484487 -41.623461505769541 198 147 130 255
-31.696361752786288 -7.524917757464294 -41.236543510770247 171 120 101 255
-32.074258140998325 -6.679586879211797 -40.969215841945953 130 80 63 255
-31.460896273194550 -3.984344952910646 -42.191251386121110 80 41 22 255
-30.537448288406154 -0.683980448938655 -43.884307210618061 22 7 0 255
-36.655972446009997 -2.927335089769542 -36.468927306864401 196 161 138 255
-38.616934842585465 -5.194506912377562 -33.792355255114558 167 138 118 255
-39.625954272352118 -4.066702524082530 -32.859672507026858 33 12 5 255
-48.014762371778190 -14.779140821263184 -21.213238475717731 49 34 18 255
-49.157753708526101 -15.612549224627543 -19.747746968925696 43 20 7 255
-50.710881937770253 -17.307986782298457 -17.647311451857206 112 79 68 255
-51.617180859335633 -17.695205028808886 -16.538341385400315 121 81 72 255
-52.182688277648339 -17.386799706835660 -15.952981060029941 121 77 70 255
-52.448024537940938 -16.454976580953769 -15.830897653398750 103 64 56 255
-52.602310215015081 -15.286585830275385 -15.881367463801098 86 54 45 255
-52.869382428725103 -14.351587587065666 -15.757954353603679 22 6 0 255
-52.952121102802181 -13.020915800509187 -15.921535408420880 16 11 0 255
-53.184294204988959 -12.003181512156573 -15.854011642992873 15 12 0 255
-54.336504354589181 -12.966934040327885 -14.352892703931730 3 1 0 255
-55.190484602400602 -13.303689869861387 -13.313537515961343 2 2 0 255
-55.858696625593893 -13.247426558520715 -12.562303532154090 1 1 0 255
-57.490049465244340 -12.295924770230727 -10.886303886611302 0 4 0 255
-57.683155619894080 -11.203280828833243 -10.878050370642825 0 3 0 255
-22.293234645565548 -1.940412851189649 -54.548328951179826 169 166 124 255
-25.245931977841565 -5.592000112993674 -50.446400377634973 216 171 155 255
-27.091802197200821 -7.322659043169523 -47.990627381505305 219 171 156 255
-28.324412542759518 -7.983092096255177 -46.448092194730322 221 174 158 255
-29.471716940615124 -8.507351084609212 -45.030079943812495 218 171 155 255
-30.334081680212478 -8.529859147106691 -44.037262267914286 210 161 144 255
-31.113803784500362 -8.411275632975617 -43.166884639736509 202 154 137 255
-31.811609998422256 -8.150259180792602 -42.418379152979611 183 135 115 255
-32.110548367472632 -7.157337343849207 -42.270891574649056 144 94 74 255
-32.014243697663346 -5.425814504822881 -42.721584456174639 98 54 35 255
-31.052700074540581 -2.061445481714713 -44.484921858771884 37 7 0 255
-34.609953402127644 -0.923858428741653 -40.631026290599266 138 109 79 255
-36.230200539992097 -2.483708330635523 -38.467291023386252 179 146 120 255
-38.036022070742888 -4.435112220315546 -36.013896267270979 197 157 137 255
-39.409564056789350 -5.569470590341609 -34.216562760117881 193 156 141 255
-40.393191478302299 -5.955395409552182 -33.013247949865644 143 114 98 255
-51.946787573460483 -17.217584452306426 -17.557093384782206 38 22 7 255
-52.176480744112084 -16.205753077557915 -17.492736371719786 51 32 18 255
-52.518632304423605 -15.426810439028714 -17.253724469823908 55 29 18 255
-52.712760112157056 -14.333836119790192 -17.246114283938539 46 28 16 255
-52.612563922453319 -12.609600283123285 -17.699944903087896 14 9 0 255
-53.951307130032944 -13.955272967340022 -15.901127397119325 10 11 0 255
-53.192087118247457 -10.804777947994069 -17.390690599034741 12 10 0 255
-53.500998254442734 -9.940459038785718 -17.206662343017541 1 1 0 255
-55.086302367485416 -11.858830228271358 -15.012744222505319 2 2 0 255
-55.101238524328068 -10.362633566304851 -15.289909945004013 3 3 0 255
-23.908333909221483 -3.666756448000115 -53.854290587869144 194 178 144 255
-26.483193572472146 -6.674780887220805 -50.289797082183100 216 169 154 255
-28.199978047132760 -8.191361756486003 -48.010661301335659 218 170 155 255
-29.266935031541095 -8.564315313653879 -46.707754628097717 220 173 157 255
-30.249931513765375 -8.799349590553135 -45.529003681507049 214 165 150 255
-30.870509751600878 -8.385343466914179 -44.896941919986944 208 159 142 255
-31.410273272578650 -7.827608561195206 -44.386574598457514 192 143 126 255
-32.028516096739224 -7.417892205202492 -43.756318600946457 174 124 105 255
-32.368824484914569 -6.496075644247270 -43.548174883049512 109 61 41 255
-32.354935112964853 -4.910035051243142 -43.880286362111292 50 6 0 255
-31.950829341273675 -2.579804781117957 -44.810069868732967 50 11 1 255
-31.982467123354638 -1.056146277077460 -45.077303070706932 75 38 24 255
-32.914324644290787 -1.239069258373490 -43.967735052697066 111 73 56 255
-33.881889516544305 -1.502529654583270 -42.800990881114558 156 114 95 255
-35.505552902941417 -3.044527009678063 -40.623882373142209 178 130 108 255
-36.928286445398584 -4.225188627825446 -38.750172136524611 184 137 114 255
-38.267569800500041 -5.267003866092978 -37.000232560629769 194 147 126 255
-39.293519158025418 -5.715619464880092 -35.729346527158441 202 155 137 255
-40.238918424272526 -6.020032461384687 -34.579961680720913 191 153 134 255
-40.837135911019772 -5.647270037917338 -33.965347702762870 147 114 95 255
-40.862988314402173 -4.134293485233570 -34.237105354479894 94 68 48 255
-40.929147458164039 -2.693365998673812 -34.448093451933090 90 82 58 255
-42.548548184946398 -4.389779158934402 -32.245140480747295 16 22 0 255
-50.007930625860752 -11.998861762242996 -22.138786781569763 23 20 4 255
-52.250454403560497 -15.181326759020720 -18.922158255455940 28 23 11 255
-52.076599802056194 -13.304848972505056 -19.496443431787611 27 20 6 255
-53.012386570542333 -13.773656160255712 -18.325491212861607 22 16 2 255
-53.136063165187707 -12.519611750821412 -18.433133242269321 12 9 0 255
-52.125925078692461 -8.818467660540648 -20.334186078580160 6 7 0 255
-53.643936507537475 -10.555847550376910 -18.239989842318948 6 8 0 255
-54.300144515350695 -8.904165771107159 -17.813926832281396 0 4 0 255
-55.814935529935866 -2.883568748515756 -17.271450120677969 0 3 0 255
-25.353454759772774 -5.105414987864037 -53.395670275969906 205 176 147 255
-27.915965751195500 -8.116563525034820 -49.822595197063947 217 170 155 255
-29.263849134139946 -8.987504916997835 -48.087275618846348 216 169 154 255
-30.326530940707585 -9.362356504377885 -46.782154769029773 217 168 153 255
-30.907473137117961 -8.873520332062469 -46.208908102528255 210 161 146 255
-31.527061713508544 -8.459411248456746 -45.575831061778018 199 150 133 255
-31.947491037601424 -7.682532683815054 -45.246468954335171 183 132 115 255
-32.525654128105742 -7.198791568211448 -44.675362127453695 105 54 35 255
-32.630782432832291 -5.835282913373248 -44.829314978331865 113 65 45 255
-33.129883597330178 -5.205306720584986 -44.379208504142923 161 111 94 255
-33.315697538795376 -3.984993801281462 -44.410852832535369 172 119 105 255
-33.853618716125368 -3.429422867633434 -43.900779046173398 174 119 106 255
-34.662690394236392 -3.395882327115260 -42.971492473147407 183 131 117 255
-35.817838374104156 -4.038231210190929 -41.505215487949613 187 136 119 255
-37.393024227168581 -5.512110462017120 -39.384926013619889 195 144 124 255
-38.691490533315175 -6.474242746650930 -37.688205431547175 198 152 129 255
-39.447203195763763 -6.393138026937208 -36.830253321928808 197 155 132 255
-40.009448797361529 -5.938759197129599 -36.271569452470345 195 154 132 255
-40.456290019584628 -5.259168437893663 -35.891918362243445 192 150 131 255
-40.788813755086551 -4.352358504790459 -35.690449641784426 165 135 111 255
-40.818681991746331 -2.835577753007726 -35.962413493591356 127 115 86 255
-53.532034482006338 -10.620614604015230 -19.681187082071858 6 8 0 255
-51.435678319060088 -1.340930856797229 -23.982585019597025 0 5 0 255
-55.726141499000931 -6.128919103324506 -18.051964238048242 0 4 0 255
-56.109988326633783 -5.419913511798427 -17.751515605018653 0 3 0 255
-55.640175350002366 -1.173336097292349 -19.154126075353133 0 6 0 255
-26.350088249847175 -5.754978907244720 -53.603956037357676 209 172 148 255
-28.861593479907356 -8.694903691044061 -50.082471340704075 215 167 152 255
-30.403587892492595 -9.927490170107205 -48.037702501649932 216 167 152 255
-31.183518494306639 -9.798331873027109 -47.157716335221266 212 163 148 255
-31.525293219061382 -8.875173344702119 -46.949691562305986 201 150 136 255
-31.827963551972061 -7.878474368770696 -46.802171425269393 159 108 91 255
-32.052507376534436 -6.734558470765677 -46.775610940253216 122 71 54 255
-32.670826557234307 -6.320838892349286 -46.141715113484082 183 133 116 255
-33.209572107200984 -5.762579223939383 -45.629915209141586 187 136 119 255
-33.903609215100573 -5.500493314697280 -44.876915192879039 190 137 121 255
-34.673685872345914 -5.389459161743730 -44.004570512757340 196 143 127 255
-35.363952551968993 -5.134325690007699 -43.254510656769725 199 146 130 255
-36.052457511023363 -4.882442212418709 -42.505825962373876 196 145 128 255
-36.893364577204238 -4.932077887839853 -41.518210486421310 197 146 129 255
-38.192586976774123 -5.884231959510373 -39.812943321050057 200 149 130 255
-39.218099364622077 -6.321666335229850 -38.531286678804577 199 151 129 255
-39.972437077113653 -6.239696623129674 -37.671254815607568 195 151 129 255
-40.077553857416035 -4.879045945501957 -37.827846165493952 183 142 120 255
-40.032788021525619 -3.212217091133937 -38.221391340404040 182 151 127 255
-40.217757287459165 -1.995585293825457 -38.255662812527646 139 130 97 255
-54.124817132083280 -2.830227696768020 -21.921837448784828 0 5 0 255
-55.258841600995481 -2.192994690800560 -20.734983530305158 0 6 0 255
-55.859323867360715 -1.958361707320307 -20.085495319203943 0 9 0 255
-56.001168267231108 -0.676052474488529 -20.183823242223610 0 9 0 255
-24.469874452989302 -2.844218454103043 -57.904246829565380 180 175 134 255
-27.383524654631060 -6.475888181557650 -53.747563308833833 213 169 151 255
-29.565675527999133 -8.841776615456240 -50.708005509853024 216 167 153 255
-30.983179898043829 -9.857720998356683 -48.841768618448526 212 163 148 255
-31.761608624256212 -9.727929600022691 -47.959799679650359 201 152 137 255
-31.946202950940716 -8.514218090878956 -47.996429634431792 146 94 80 255
-32.171483504675820 -7.370723867807101 -47.970944774684824 137 86 69 255
-32.593876091814224 -6.590056177354626 -47.639895079493584 202 151 134 255
-33.446026693086196 -6.614811366883657 -46.639666860380146 197 148 131 255
-33.944844802950172 -5.983727496863651 -46.188270536579580 198 147 130 255
-34.676111490222752 -5.795593784139612 -45.373405013070425 198 147 130 255
-35.560227749536580 -5.906669484600684 -44.317883583857792 200 150 133 255
-36.557154075324263 -6.245528556986841 -43.083301699157005 200 153 135 255
-37.204135441813833 -5.922292927200459 -42.394901562965885 198 151 131 255
-37.811247210432271 -5.527311341491554 -41.767958251751111 198 151 131 255
-38.722935318300188 -5.732838037630358 -40.660596365804651 198 151 131 255
-39.631421252714290 -5.944281668978647 -39.555742942310587 193 149 128 255
-39.928864537635377 -4.958195237569328 -39.413201858262113 182 147 122 255
-39.621054471841603 -2.763879404227509 -40.228436189742354 170 146 116 255
-39.544258348281545 -1.015177578564817 -40.681337164727239 74 75 37 255
-51.090386474526255 -1.199362567334333 -27.160838471018849 6 8 0 255
-53.062530599773424 -2.353938622417047 -24.618466403097358 1 8 0 255
-25.791626071241524 -4.063887018551782 -57.623023828090595 194 176 142 255
-28.532664430947904 -7.411324835429753 -53.702511624235200 214 162 150 255
-30.308893888840032 -9.060493836231046 -51.271492459606094 210 161 147 255
-31.405462794315753 -9.499795312227093 -49.892591244005331 203 154 140 255
-31.749796217723940 -8.573246219827695 -49.683801758553301 176 123 110 255
-32.173030421587725 -7.790973453742822 -49.352046473904238 156 104 90 255
-32.752699704840609 -7.299796896397027 -48.775447272312562 206 154 140 255
-33.526364204356440 -7.175358203072761 -47.894011931754022 204 153 137 255
-34.297776367467947 -7.055070124645539 -47.014330583269668 205 156 139 255
-34.911870768152681 -6.645290888248184 -46.380160549081296 202 153 136 255
-35.524682218447566 -6.237873211093245 -45.746987131769487 201 153 136 255
-36.521466605278874 -6.571376987784390 -44.507309214910720 203 154 137 255
-37.552962869800638 -6.985779071261277 -43.209864431945959 201 152 135 255
-38.197686232316101 -6.664421057920833 -42.521106057513975 201 154 134 255
-38.573748368905711 -5.824186053133189 -42.256797179600625 196 151 130 255
-39.254327117762983 -5.581612329427060 -41.509375178021884 188 147 125 255
-39.743540124536622 -4.967424464404985 -41.064713198903007 178 145 118 255
-39.513973756132430 -2.925561910679676 -41.763950656658665 139 126 92 255
-39.401487077770241 -1.102489766549525 -42.279760004906308 45 51 10 255
-49.328660138533039 -0.886425038993139 -30.678942522804192 0 9 0 255
-52.462388006176809 -2.928023503145255 -26.573038586086454 3 9 0 255
-53.961492129961215 -4.654316369649621 -24.450991818564802 1 8 0 255
-25.996601521068612 -3.284307019836831 -59.071128813539389 190 170 136 255
-29.084005817951947 -7.272255182349227 -54.581100658647756 208 158 146 255
-30.775291683255830 -8.776384959361451 -52.266723635352690 209 158 146 255
-31.633395840403836 -8.781919095384296 -51.254211932824717 196 143 131 255
-31.940208701014456 -7.780689139751217 -51.106342060510457 142 88 76 255
-32.521093356036658 -7.285724552585634 -50.527361160042233 214 160 148 255
-33.334573700459003 -7.228994740928727 -49.580676856000878 206 154 141 255
-34.339657691910190 -7.541574472693299 -48.329317396303310 205 153 140 255
-35.108846945022037 -7.421989755450852 -47.448221948283447 206 154 140 255
-35.682894927183327 -6.939609623744246 -46.874551904653316 203 156 140 255
-36.217444382840029 -6.385532093392015 -46.362728588350336 203 156 139 255
-37.019554378459361 -6.349764921158453 -45.424907501246366 204 155 138 255
-38.010260244859410 -6.688874864165030 -44.184776559872773 197 150 130 255
-38.806798161074596 -6.663395803453568 -43.251313102409910 194 152 129 255
-39.259079640931418 -5.971964523885532 -42.865742850973106 181 145 117 255
-39.370362876156321 -4.608558961266681 -43.025511959635367 159 137 102 255
-39.483509801161318 -3.241706399935310 -43.183818067961965 89 88 44 255
-27.153446764109276 -4.217856376243333 -59.031489534041555 188 170 134 255
-29.675733018984204 -7.204932602071665 -55.398713700151006 200 154 138 255
-31.086534147094255 -8.205310064109483 -53.511816681835114 203 149 135 255
-32.021835688928604 -8.352661287643798 -52.372476361382468 155 100 87 255
-32.641964135763885 -7.927946581053334 -51.730070189463135 204 151 137 255
-33.571784746912698 -8.085394714290999 -50.594994981680827 206 153 139 255
-34.304624584934317 -7.885293235342630 -49.770498066029234 204 152 138 255
-35.035453153172256 -7.688895869267583 -48.947565315302143 205 153 139 255
-35.648740674117391 -7.276768501892832 -48.310468720352446 200 151 137 255
-36.337524337690809 -7.013737156328204 -47.551709518699425 199 150 135 255
-36.680121338160404 -6.091644622913009 -47.345437136527750 197 148 132 255
-37.290166768352549 -5.685481318200118 -46.710855587853160 190 143 125 255
-37.860905911483428 -5.207638028846873 -46.138315585294720 176 139 115 255
-38.468516826629212 -4.805962930549754 -45.505631634324601 165 143 111 255
-38.848133332424084 -3.959745398199516 -45.239080841046473 120 117 75 255
-27.794911869393900 -4.223561769429466 -59.798006211444601 173 170 125 255
-30.150609305835388 -6.923053900139678 -56.403892472391533 197 152 130 255
-31.166789434177872 -7.203958504352329 -55.133484957311538 195 143 129 255
-32.451740798862147 -7.995745945711121 -53.431319989992829 194 145 130 255
-33.343243004828821 -8.075198750329122 -52.353350487830028 200 151 136 255
-34.541238671221151 -8.739769313099373 -50.782477986783221 197 150 134 255
-34.693109365330542 -7.451142882973102 -50.884269097859317 194 148 132 255
-35.538561242593687 -7.471714352308908 -49.873936642341022 192 148 132 255
-35.844771258753639 -6.473608180461127 -49.728402057206921 191 150 130 255
-36.419038779333675 -5.987713612196842 -49.151678346118786 184 145 123 255
-36.687620778254882 -4.915179927769998 -49.067198344796111 177 144 119 255
-36.995054726867579 -3.914780560044733 -48.920675658224184 158 141 109 255
-37.416658729700544 -3.135214199391726 -48.589913894758325 108 110 71 255
-29.496876922256831 -4.566816570238473 -59.222796746430475 180 161 124 255
-31.369172858726927 -6.418568810613664 -56.573795472670810 189 146 120 255
-32.535171139786485 -6.991257940275375 -55.053031979654520 192 146 122 255
-33.735112523280321 -7.644777621930473 -53.473724277366529 194 151 126 255
-34.506687928627571 -7.510614753402194 -52.581333376800558 188 151 124 255
-34.969009631622129 -6.799363264037993 -52.186722602493234 177 148 119 255
-34.857196820147578 -4.995516365787182 -52.720979174065121 169 148 115 255
-35.320690169643456 -4.282070845549413 -52.325423622468378 149 134 96 255
-35.669827074316572 -3.349227581321315 -52.115264328474240 121 122 78 255
-30.493226750255644 -3.624999498600573 -59.770889507434646 174 158 115 255
-32.045921480075407 -4.907991436841257 -57.617770838297247 171 148 107 255
-32.054404228687218 -3.316592733740151 -57.965709354358040 154 138 95 255
-33.367910277144261 -4.182365842787931 -56.193647029919845 133 129 82 255
58.726391585004876 -0.743134440702192 -22.384743120892580 133 124 82 255
57.524289599065767 -2.060847773522710 -23.158377587202693 170 148 116 255
58.076283077905856 -3.274099966637834 -20.907717883547946 167 135 110 255
58.581420617756550 -4.263882751178357 -18.874804596894876 157 117 95 255
58.732470382448668 -3.381952645250578 -18.527360515614333 151 108 85 255
58.898351245960072 -2.577785512887147 -18.109550634397266 144 104 80 255
59.049813048920342 -1.694372386606517 -17.761136692374492 129 97 69 255
59.187022607560394 -0.731050203537336 -17.481674239662908 112 93 59 255
55.834992470430365 -0.908835304988031 -26.191334844778567 166 159 117 255
56.760175710824456 -3.962400115858429 -22.241122834301166 182 148 122 255
57.454162857585715 -5.871974491396571 -19.359533653310194 177 134 115 255
57.949421895818929 -6.783498498411518 -17.399655335855925 175 129 113 255
58.248090926114557 -6.688378146439049 -16.355712416291595 162 116 100 255
58.382090487722422 -5.734758116893204 -16.082275154658191 152 109 92 255
58.575775801545603 -5.094205284940188 -15.529265421204144 146 104 85 255
58.739802388378763 -4.296503904289125 -15.115648025172220 135 100 75 255
58.830320946673567 -3.103241186287619 -15.048684790873637 122 92 65 255
58.774795798966807 -1.114861750508680 -15.672332482248947 103 82 51 255
55.804064837721938 -4.852923863058322 -22.239034495548623 185 148 122 255
56.661371128740782 -7.529011391879692 -18.653927778394007 184 137 119 255
57.208002669720614 -8.670851516333556 -16.484771254250916 174 129 110 255
57.462485104940143 -8.343127766764809 -15.652683140793755 168 121 104 255
57.716425843420140 -8.017644576757306 -14.822110543619573 162 116 100 255
57.863926809927378 -7.145987434013705 -14.480952912783465 155 112 95 255
58.071952553027927 -6.587742347063596 -13.861029533450875 145 106 86 255
58.219695563674051 -5.715269210841825 -13.519347793119238 136 102 77 255
58.277886827446423 -4.367912230558090 -13.592642841769958 124 93 66 255
58.217695723553021 -2.383253939889016 -14.216465990320273 106 80 50 255
54.660241107708771 -4.818968499032508 -23.082453556831155 175 147 118 255
55.859411222973392 -9.103435829300707 -18.018199251890337 182 137 120 255
56.272208542111628 -9.544627754663708 -16.481468615441202 179 131 116 255
56.621242540764925 -9.681833862788949 -15.229283069305978 174 127 109 255
56.876221115074969 -9.356648787053530 -14.399602153906073 167 118 101 255
57.084394372396218 -8.799405578481583 -13.780598747319374 163 114 100 255
57.200158971423718 -7.773158815306203 -13.579657264510217 155 109 93 255
57.346993352173740 -6.902266431791361 -13.238717447622889 143 104 84 255
57.478801546777930 -5.951765407478433 -12.966496313198945 138 103 81 255
57.550144723339955 -4.684049821054998 -12.969934511282275 120 92 66 255
57.501094272288640 -2.779669893540699 -13.523176987207250 102 77 50 255
57.408428599987317 -0.630445597368009 -14.278509767921804 79 70 37 255
54.712819555883016 -8.979531849473176 -18.929409856232354 185 142 124 255
55.368788064508109 -10.572296880598628 -16.337770034760325 181 135 120 255
55.752486587119421 -10.862272867924247 -14.945684393113595 176 129 114 255
56.008618915913416 -10.536939309182372 -14.116598020486975 172 123 106 255
56.232779143371019 -10.058140359370469 -13.428510650058342 166 115 99 255
56.409639505344870 -9.346476581876999 -12.950126422792010 161 109 96 255
56.539694814996437 -8.399963642958596 -12.680112498967674 153 105 91 255
56.670086444790300 -7.452166122835877 -12.409245691587302 140 101 83 255
56.723346244290099 -6.109399535570134 -12.483269745196566 133 100 77 255
56.762055103460000 -4.684185307457824 -12.623960915655402 119 92 67 255
56.694072234400963 -2.700799252699937 -13.243991653324969 102 77 50 255
56.627858824922171 -0.710394798575635 -13.859320295504858 74 62 33 255
54.353954964350464 -11.059851824339233 -16.685404443688441 185 139 122 255
54.757761205275841 -11.422901089860545 -15.222356487722095 180 132 118 255
55.063671272756167 -11.327822883735706 -14.182950200542109 176 127 112 255
55.272672347906067 -10.770649772777915 -13.564519402916773 171 125 106 255
55.465504233039255 -10.136570962210016 -13.016331223600076 163 115 100 255
55.626437426219127 -9.346872224462459 -12.607406509950494 155 107 93 255
55.724120321430917 -8.243686620030417 -12.475491227282959 150 104 89 255
55.869716219049025 -7.373813146093767 -12.134623781323484 139 100 81 255
55.905418792445047 -5.952109929241971 -12.276348514923114 134 101 79 255
55.942117839662814 -4.526477210769485 -12.415444205001592 127 97 73 255
55.901705190582732 -2.701149962228556 -12.895536688272927 110 81 56 255
55.831706635388855 -0.710941549943357 -13.508674155575108 85 65 40 255
52.068302775438255 -7.219670479278989 -22.160851523718293 184 144 119 255
53.205098016935509 -10.935733928351254 -17.595029865090083 186 141 122 255
53.810515724920535 -12.215783007582786 -15.288932139918472 181 132 115 255
54.086037580572082 -11.964417266077618 -14.389176473599576 177 128 111 255
54.344600398531057 -11.638378325877540 -13.561018003001180 173 126 108 255
54.521399476067842 -10.926656546382986 -13.082547724078864 167 122 103 255
54.698197695798598 -10.214980802088235 -12.604114969592217 162 117 98 255
54.842730574339782 -9.347294782289225 -12.264395028381529 153 107 91 255
54.987485693690672 -8.478770029591686 -11.924119866948359 146 103 87 255
55.148489069384581 -7.687872274864787 -11.514247547371895 140 102 83 255
55.229764030119924 -6.503132722916547 -11.448583703542425 138 105 85 255
55.232133741761501 -4.921246169112862 -11.724907657756489 134 104 82 255
55.204000499311420 -3.176292517899128 -12.135206168478874 122 96 71 255
55.114085339097912 -1.108251669235131 -12.815490324821383 104 84 58 255
52.216759630603249 -11.582120154575506 -17.802695985406757 185 139 118 255
52.930065182886409 -13.315409317827971 -15.075128014642360 183 133 118 255
53.207105737211549 -13.063413113886270 -14.175795321788712 178 129 112 255
53.400533581149475 -12.428504009553421 -13.627291241358819 174 125 108 255
53.560776177967369 -11.639402256388735 -13.218430713244146 170 123 105 255
53.737604434295747 -10.927471804954564 -12.739806063846515 165 120 101 255
53.930856250077028 -10.293371710422036 -12.191861361914420 162 117 98 255
54.074886408886471 -9.425749041609038 -11.851881250127832 152 106 90 255
54.170189422670887 -8.322619728461518 -11.718532919493867 146 103 87 255
54.331089406132406 -7.531103710880103 -11.308085196645294 142 104 85 255
54.443485448752881 -6.503196260887165 -11.103676559407120 146 112 91 255
54.491720309656174 -5.158029654339316 -11.172592464082527 139 110 87 255
54.508647361103542 -3.651167527875259 -11.376116438729326 130 102 78 255
54.446469900487870 -1.743314206794139 -11.918326297840025 112 91 65 255
51.039726537346198 -11.391140432373732 -18.783402604802262 185 142 118 255
51.899016263541455 -13.725178544212298 -15.492248533232356 182 135 117 255
52.262756329256632 -13.853848583760850 -14.242148975336249 178 129 114 255
52.473345422007498 -13.295525686952033 -13.623754917496456 176 127 110 255
52.683706736961071 -12.738138269076984 -13.005992618374222 174 125 108 255
52.843524994693539 -11.949730867383124 -12.597442303444382 167 120 102 255
53.020165357880728 -11.238472040273820 -12.119256078141717 162 117 98 255
53.180139717895912 -10.449503948122754 -11.710339284661870 160 115 96 255
53.323614234882598 -9.582164030558658 -11.370247480650420 155 109 94 255
53.450755106786858 -8.635789731203971 -11.098536250556407 151 108 92 255
53.611225257818703 -7.844975900652884 -10.688401803384153 149 111 92 255
53.738921875121306 -6.896484432617967 -10.415285799547036 151 116 96 255
53.834175415132407 -5.788992061169409 -10.278299728962935 144 113 90 255
53.848312106873919 -4.283936451458885 -10.481582387253468 135 107 83 255
53.782155009991868 -2.378012916058537 -11.022913458257904 119 95 71 255
50.709467013323248 -13.451704434869754 -16.540848659142654 184 138 115 255
51.283927574157190 -14.491493383617183 -14.448500661804161 182 134 114 255
51.581073383900176 -14.315352680701920 -13.480504213547562 180 133 113 255
51.774725586278578 -13.681235231553330 -12.932794086793194 176 127 110 255
51.985323087451121 -13.124687472476694 -12.315872779782012 175 126 109 255
52.093634303167590 -12.105312891416361 -12.115978788689830 169 122 104 255
52.236287514454773 -11.239256458626670 -11.776437443793242 164 119 100 255
52.379155475859292 -10.372369749215295 -11.436343212557063 159 114 95 255
52.606469351908288 -9.894423224956370 -10.750921189979238 155 112 95 255
52.749499458369442 -9.026971817591345 -10.410460923981049 154 111 95 255
52.909486951643089 -8.237079500514199 -10.000788229966815 155 116 97 255
52.986179459389433 -7.053714478582890 -9.933411788632696 156 120 100 255
53.130043000652023 -6.183089147220414 -9.590845760134329 149 117 95 255
53.124983045172030 -4.600123059458383 -9.861658191132136 137 107 83 255
53.071584700734206 -2.774523130711827 -10.333451973576643 119 94 70 255
