ply
format ascii 1.0
element vertex 657
property float x
property float y
property float z
property uchar red
property uchar green
property uchar blue
property uchar alpha
end_header
25.559499769360940 -22.679983877627393 3.458844597733133 190 146 121 255
26.733385459405639 -22.757010140328390 3.242013811301888 187 145 120 255
27.304457857348467 -22.152845547603391 3.140793629864447 188 146 122 255
27.077698554856340 -20.632443439485201 3.192683975133768 183 141 117 255
26.788083948482438 -19.030791234954364 3.256695216142852 179 139 115 255
26.568355378949548 -17.500906139298223 3.307349090108609 177 134 113 255
27.539518395808955 -17.353273950445896 3.129359009699037 173 131 109 255
27.850246166459357 -16.436143316684877 3.078185309749415 169 127 105 255
28.555736294599171 -15.982732519110868 2.951181934702433 165 123 101 255
28.605283219484591 -14.753765039974382 2.950207517084777 160 119 97 255
29.179608851947648 -14.145209737580672 2.848403054327136 153 113 91 255
29.297344468233973 -12.990298307556316 2.834367923483718 145 109 85 255
29.416911481333443 -11.832916640328278 2.820010421809314 142 109 84 255
29.084376684910779 -10.123125769536159 2.892635444014672 137 108 81 255
28.303104677852843 -7.856387973056940 3.051653096369009 132 106 79 255
28.689640962696132 -7.003035017073756 2.986075002886629 125 101 73 255
29.334197273369227 -6.465780902601978 2.870847874194219 119 98 67 255
29.143333826723335 -4.896962709133504 2.916424954741096 113 99 66 255
28.507577045501932 -2.766013537608217 3.047720983054234 107 100 64 255
28.580252268655983 -1.505851245584779 3.042680914134976 96 98 59 255
29.356078208321549 -1.123598593350494 2.902230961507691 84 92 51 255
-20.479859119542709 -27.715762715759752 12.878149571197170 179 183 138 255
-18.374373230683346 -28.361297259187239 12.480174154815337 208 180 148 255
-17.666009988618896 -27.737894722526761 12.353348402448255 211 174 147 255
-16.374287578992067 -27.655391671415543 12.113203822281704 208 171 144 255
-16.032900435710758 -26.697128305596124 12.057601881310440 207 167 141 255
-15.472560145231341 -25.941440466601790 11.959467665237689 204 162 137 255
-14.477147807540945 -25.594727450515478 11.776771559812353 197 154 129 255
-11.312850256601905 -27.301626598522859 11.172424861345327 200 159 135 255
-7.727054176350720 -29.435806260470400 10.485894024033080 207 166 144 255
-6.604281323988005 -29.249236088209130 10.278088771674199 211 172 149 255
-4.693507140660699 -29.825442712867130 9.916946013410701 213 175 152 255
-2.430365644329441 -30.756207845134782 9.487120140285207 213 177 153 255
-0.747505867865641 -31.141920491457370 9.170062394993643 214 178 154 255
0.644525070143658 -31.256034130163243 8.909506628311846 214 178 154 255
1.676430869335576 -31.026049254049838 8.718982176581470 212 176 154 255
3.132421034329752 -31.219857830518919 8.445821845711642 213 177 155 255
4.442307552449336 -31.278795889697591 8.201030928719611 214 179 157 255
5.324062025741199 -30.919397031927843 8.039574899834491 218 183 163 255
5.851175370856367 -30.208503759488593 7.947189593126012 220 185 163 255
7.293743052892097 -30.420409989246139 7.676361542466609 218 182 160 255
8.521231523957056 -30.424513699076130 7.447376319268884 214 178 156 255
10.796964785754369 -31.504241198690892 7.013907420464157 213 177 155 255
11.805574904590259 -31.305665124083362 6.827426557961722 207 171 149 255
12.881618108348221 -31.182100438723296 6.627738763227704 201 165 143 255
13.676507905519827 -30.773888257292384 6.482858553978410 201 165 141 255
14.747853356431762 -30.656657281700859 6.283985671569340 198 163 138 255
15.539333927543595 -30.253041067684762 6.139694687090362 192 158 133 255
16.122019531768416 -29.633147190916446 6.036145659929460 189 152 129 255
16.566335391654945 -28.867952696809652 5.959611667490705 183 142 120 255
17.561400953123808 -28.687636995485548 5.775476100429884 181 141 117 255
18.142190534660358 -28.070297540893904 5.672247768198666 183 143 118 255
19.065029762281682 -27.821432208334983 5.502147533847854 181 139 115 255
19.097517333169520 -26.615910228036171 5.506080205702723 180 138 113 255
19.950221719708424 -26.295674609420360 5.349648929102102 186 144 119 255
20.665198717238979 -25.829272181463011 5.220120640851533 189 144 120 255
21.446963850739309 -25.438751268812382 5.077499828926761 190 144 120 255
22.159656115415544 -24.975428716334704 4.948365690450359 191 145 119 255
22.533643268632432 -24.139119748854085 4.885509945327279 189 144 114 255
23.110279838813710 -23.527375176651731 4.782982856716856 188 143 112 255
23.350461194856877 -22.539609825590816 4.746339690346666 188 143 112 255
24.329343605511298 -22.381111654580764 4.565005790529028 188 143 114 255
25.105222003712811 -21.998526009636322 4.423399674780470 187 143 118 255
26.013169739732348 -21.769736731164414 4.255877017199069 183 141 116 255
26.453139861678039 -21.010392156723157 4.180056685416758 182 140 115 255
26.295695307161736 -19.563145204105297 4.221390861673406 175 133 109 255
25.810145143526142 -17.728616548132919 4.327144678446096 171 131 106 255
25.924063996364168 -16.579218530969769 4.315378915966058 172 130 108 255
26.501273343012230 -15.966696252688450 4.212728568603247 166 125 103 255
26.946541196576220 -15.200204123087872 4.135967691244943 161 120 98 255
27.392034929333420 -14.433406920489602 4.059165299427399 157 119 96 255
27.706871256135173 -13.510908069159342 4.008027281781445 151 115 91 255
28.153139042806941 -12.743066117359319 3.931085643708847 146 110 86 255
27.948421242783695 -11.193613625318733 3.982069301853031 135 104 78 255
27.552253621584015 -9.404490833835951 4.070754698813637 127 102 74 255
26.706874738732921 -7.059502831127475 4.247850650255813 119 103 71 255
26.449898840633409 -5.414570441357625 4.309369725939028 107 100 65 255
25.680832448130303 -3.132618653915983 4.471702778011270 99 100 63 255
-20.043168352400414 -26.685139145022390 13.778739774440751 148 158 106 255
-18.160875035839467 -27.132660996860892 13.418989476752785 201 171 137 255
-16.941141796919879 -26.980709304598946 13.190305614850814 201 168 135 255
-15.942797275396003 -26.629653984795510 13.005399472483859 202 168 136 255
-15.382306942642543 -25.873753452761946 12.907193744088957 209 165 138 255
-14.387026607778921 -25.526827292396263 12.722809926098797 202 157 133 255
-13.610714532591004 -24.977533250289298 12.581780060184713 203 159 135 255
-9.155551278383484 -27.927277230465165 11.711246276316182 203 163 139 255
-6.373763969031017 -29.318288467590804 11.172198138211641 208 170 147 255
-4.392223654923470 -29.963732773301160 10.791672177313345 213 175 152 255
-1.987203316380231 -31.033404860287419 10.326951123094723 213 177 153 255
-0.734806610499959 -31.003279838064344 10.090817999330561 214 178 154 255
0.728319217319211 -31.186631373497846 9.812761557463382 212 176 152 255
1.546487145166793 -30.746770583851543 9.662688482734460 213 177 155 255
2.931475486340986 -30.869606912836957 9.399976001148154 215 179 157 255
4.170776651674203 -30.857137729514989 9.166113996438149 218 183 161 255
5.406762659888187 -30.849138251580683 8.932827372727530 217 182 162 255
5.863484086719723 -30.067273898386304 8.854385686093032 215 180 158 255
6.672335569347865 -29.639971143652872 8.705916510500010 213 177 154 255
8.181989177958002 -29.926456642220302 8.418004688585114 210 174 151 255
10.527722338303988 -31.076073957016490 7.963619432243604 206 170 147 255
12.096126131800702 -31.449216554655010 7.663740337135870 203 167 144 255
13.310928714681182 -31.469779179802913 7.434135850171984 199 163 141 255
14.313694785521051 -31.278625847578581 7.246672381529443 198 162 138 255
15.105874324158492 -30.873801013550889 7.101095693330272 197 161 137 255
15.550413799081042 -30.108356552193982 7.024748242097282 191 155 131 255
15.995180866453012 -29.342604038414521 6.948356050864632 180 143 120 255
16.371245375864504 -28.503613459550365 6.885661152519589 178 137 115 255
17.366774713185947 -28.322214788937458 6.699443365163475 168 126 104 255
18.016916833785132 -27.777158185951663 6.582059988054951 168 127 105 255
19.145445462458326 -27.748173629991811 6.369202548260397 165 123 101 255
19.451552256457120 -26.837634853810783 6.320412225407395 165 123 101 255
20.099151978170426 -26.296004288542150 6.203462297735577 177 135 113 255
20.746011279591869 -25.755371418452171 6.086638312836321 179 134 113 255
21.595540033893428 -25.439085793140350 5.929307912242216 180 133 113 255
22.172793614752123 -24.826432290417046 5.826336798420321 182 136 114 255
22.344737502681028 -23.765042277178168 5.804361923953600 182 136 112 255
22.652833224416327 -22.851815744576982 5.755199469595532 185 139 113 255
23.364758085163004 -22.389320955922784 5.625293615754806 184 138 112 255
24.276620958489815 -22.154857500120670 5.455361482212581 185 139 113 255
25.052780761684289 -21.771623781774224 5.312531473427001 180 136 111 255
25.627523043048825 -21.162352729993188 5.209981165996673 176 134 109 255
26.002293300704537 -20.325094796180196 5.147456895634519 174 132 107 255
25.913106287951791 -18.952302194866405 5.177866449939124 168 126 102 255
25.826711885977915 -17.575742515084158 5.207782992593799 164 124 99 255
25.611036422669315 -16.041751185626055 5.263674687372486 156 119 93 255
25.662299275541727 -14.811324231003681 5.266137770533895 152 116 90 255
25.584280407514484 -13.423466568108751 5.294576348319488 149 114 88 255
26.033496346157904 -12.651696291951737 5.217326670816178 144 113 85 255
26.090567426967823 -11.413434122051569 5.218763333031767 137 106 78 255
25.758379766672135 -9.704787486317400 5.298379618124535 132 103 75 255
25.235042058666011 -7.756255749892262 5.416473864547278 125 101 71 255
24.002682049326211 -4.939123471459311 5.677088074461601 117 105 70 255
23.814945936425829 -3.367445844713188 5.728057597192262 86 88 49 255
-18.527908941237285 -25.361187410729315 14.478828304245070 176 159 116 255
-16.943944755373877 -25.546578687473499 14.174065372477294 193 158 124 255
-15.582361326393425 -25.534394390088323 13.914085622138494 199 158 127 255
-14.369273928266807 -25.390819071806192 13.684001124696294 202 160 133 255
-12.942366388242135 -25.456360886603477 13.410617456936706 201 161 136 255
-10.293581897154070 -26.693112474559825 12.890117035354265 199 163 137 255
-6.862837385166756 -28.699392989232138 12.211234478132191 207 171 146 255
-4.162945653084080 -30.033044868574279 11.679824273582746 215 174 152 255
-2.260684464599279 -30.618298700549985 11.309528611144032 214 176 155 255
-1.365111279381438 -30.239612154799488 11.142803222912491 213 178 156 255
0.669572233488566 -30.977929962414521 10.745408031678856 213 178 156 255
1.843720051313028 -30.886857436113161 10.522090560148619 214 179 157 255
2.943898276006450 -30.729713298980869 10.313669270152417 217 182 160 255
3.758140962962557 -30.294877792216340 10.163109798451025 216 181 159 255
5.489521751641661 -30.778922384311159 9.826602103054668 214 179 157 255
6.087426355673529 -30.138360681293591 9.719761711047653 213 177 153 255
6.684918010309019 -29.498354420059712 9.612987205253461 213 177 151 255
8.053881401324901 -29.642023084675543 9.349672907723360 206 170 143 255
10.329016384868225 -30.719362574762357 8.902335532825617 203 168 140 255
12.665848830325302 -31.879322136979255 8.442242409017176 197 161 135 255
13.739826714446963 -31.757502647498313 8.238367088208058 196 160 136 255
15.019714093393901 -31.855470021852142 7.992583480040778 200 159 139 255
15.116747468075317 -30.729594270129354 7.987055700796894 199 158 138 255
15.561642895333279 -29.963719508783015 7.910863480816616 193 152 132 255
15.868678608059497 -29.052109327308358 7.862703663537154 180 139 120 255
16.520998113377004 -28.503977548257780 7.744332305518746 169 128 110 255
17.378742819055333 -28.176285979717392 7.584138420879732 155 116 97 255
17.754857099234073 -27.337338709399063 7.521917792290594 150 113 94 255
18.541917193713118 -26.939144440251880 7.376040898519449 138 103 83 255
19.259354431202183 -26.469016654169593 7.244299813947038 135 98 79 255
19.703417245685273 -25.704256677986905 7.168218004583380 140 103 84 255
20.147704390234850 -24.939193090199268 7.092092206297842 152 117 97 255
20.998754236692946 -24.620524551303248 6.933045394783250 161 121 103 255
22.118481534189982 -24.602821139623899 6.719155310261250 161 115 97 255
22.425998492022643 -23.690550958040006 6.670863179983449 163 114 97 255
22.734382139256184 -22.777110911758314 6.622414770144339 153 106 85 255
23.110745804729333 -21.937818136457167 6.560110323421618 167 122 99 255
23.621560338655797 -21.248856312243191 6.470362964600511 171 125 102 255
24.265862051038539 -20.711525250584174 6.353342154123020 168 126 102 255
24.642896894439474 -19.871324754254687 6.290908987133569 151 113 88 255
25.286361818420175 -19.335120769596841 6.174028449319934 155 117 91 255
25.265980369528762 -18.035916747789798 6.192863276439219 154 118 94 255
25.314220389856644 -16.809995023644774 6.197730174560924 146 114 89 255
24.968671509835417 -15.120178115384761 6.283231214776755 144 112 89 255
24.232221122946044 -12.962571649657036 6.448859109361237 139 110 86 255
23.895783629376865 -11.260464443403293 6.532753630778188 128 106 79 255
23.432402290822097 -9.397899697793719 6.642765648770940 122 106 77 255
22.646993656682639 -7.140487564455611 6.818895503236639 118 106 76 255
21.476773635434341 -4.407071854745311 7.074082380238146 90 88 55 255
-18.089034644423492 -24.328123287475734 15.381241326967903 151 152 102 255
-15.419248889483725 -25.534706932915043 14.848992800866647 181 160 119 255
-13.337987604032776 -26.208876339142194 14.437612195582545 193 163 128 255
-11.263592339054838 -26.892303722274306 14.027426638164677 195 162 134 255
-10.781405570640743 -26.076214784034420 13.945043673686833 197 163 136 255
-7.279199043323842 -28.149335910631805 13.240276686619268 204 168 144 255
-4.364222813929700 -29.688297661886395 12.656151901634779 210 172 149 255
-2.462059254301721 -30.272466970381799 12.280554137906371 213 175 154 255
-1.494511528598565 -29.962149169830894 12.097561194866437 213 178 156 255
0.254804139482331 -30.420921946971816 11.753169602648029 214 179 157 255
1.785268998810125 -30.677548938527934 11.453775542777947 217 182 160 255
2.956473618077922 -30.589861663958743 11.228419242601682 217 182 160 255
3.770838030635559 -30.154596231152084 11.076676089515182 215 180 158 255
4.795647732454881 -29.932809592243416 10.881394941404260 213 178 156 255
5.888556449827917 -29.784945501873807 10.671955952114878 213 177 153 255
6.978794240862726 -29.640682061904215 10.462978509471299 210 174 148 255
8.837730404730962 -30.283136689245623 10.094898186082197 204 169 142 255
10.480558775692998 -30.719746325570611 9.771335391028622 199 164 136 255
12.606752026366593 -31.664826068454317 9.347542867787553 192 156 130 255
13.750465813652085 -31.614203075073817 9.126955251636950 190 154 130 255
15.030146246852922 -31.711739283147693 8.878101455371898 196 155 135 255
15.474363716021855 -30.946830162841991 8.802252473561687 194 153 133 255
15.849651670642544 -30.109115405421647 8.740693140883486 187 146 126 255
16.225489195924382 -29.270658000108199 8.679031068607628 178 137 119 255
16.808382711703047 -28.650251071515726 8.574428063141802 157 116 98 255
17.390858555239561 -28.030406130769478 8.469892543946663 146 106 88 255
17.493319585198861 -26.897569705347365 8.464985167225564 131 94 75 255
18.007732406844440 -26.203749280382681 8.374581968530265 119 84 64 255
18.726624232536096 -25.731455197943575 8.241691262703320 113 76 57 255
19.240359950753657 -25.038545559422175 8.151396278001300 121 84 65 255
19.889738821714275 -24.494231817425486 8.032893625167830 121 89 68 255
20.673795935729459 -24.099815449986181 7.886353072989230 126 89 71 255
21.388920251321792 -23.632598222137460 7.754104267077302 140 97 80 255
21.429101028315500 -22.417981047459477 7.762288072860272 127 81 64 255
21.605888481703289 -21.350660334075314 7.742095443556728 117 72 53 255
21.985384789875923 -20.507253737068993 7.679727548517398 135 92 70 255
22.298519289366993 -19.587578735298820 7.631200048000231 152 107 86 255
22.145300400120163 -18.136486475440819 7.679900856457657 145 103 81 255
22.594459679838991 -17.364891989892897 7.603095752640016 129 95 70 255
22.645295243220232 -16.135898170552792 7.609381387094928 133 105 80 255
22.764543985582804 -14.980404118363111 7.601458125316327 137 111 86 255
22.753413799742020 -13.669211911299385 7.620808328363111 127 106 79 255
-54.283066882143771 -0.620163093596432 23.791504530545936 140 139 83 255
-47.532640423312273 -2.452512007575081 22.443670677941093 149 126 86 255
-12.524872187206199 -26.822533426723908 15.230252107572305 161 160 112 255
-10.741632922769014 -27.234476563502795 14.875198011742931 183 164 131 255
-9.684107911882307 -26.968128930096725 14.672261275995069 198 167 139 255
-7.766695685402169 -27.530520356045059 14.288686925839272 204 166 143 255
-5.138592912314152 -28.791460660543351 13.755612329762698 205 169 145 255
-2.519939575197782 -30.065143411557017 13.224187042455341 210 174 152 255
-1.409466391856938 -29.893081993004046 13.009443617392570 210 178 155 255
0.339199284817937 -30.351641858335086 12.660400729093674 214 179 157 255
1.656018837558634 -30.398394971560379 12.401996722718458 217 182 160 255
3.110968971766965 -30.590261383884581 12.114389615213568 218 183 161 255
3.854409307618312 -30.084679567520965 11.976407810228970 215 180 158 255
4.808476787102421 -29.792140926625564 11.794023566785611 214 179 157 255
5.971719082319453 -29.714604323223057 11.567492194160224 214 178 154 255
7.764117436921566 -30.279877111587382 11.208249906865227 209 173 147 255
9.480542460943468 -30.781907601110390 10.864810288978049 204 169 142 255
10.701979837429207 -30.791584386476842 10.625567647646598 198 163 135 255
12.268877675616494 -31.163867173903270 10.313309007364822 190 154 128 255
13.065313136083773 -30.752504843665861 10.163497384910606 187 151 127 255
15.040727476598306 -31.568054782905108 9.764674869484175 193 152 132 255
15.554572130137046 -30.874995517685534 9.674348936406815 190 149 129 255
16.206544561637912 -30.327053846164119 9.554822640056734 182 141 123 255
16.581978910830031 -29.489253268193409 9.493725815994601 164 122 105 255
17.095539855412142 -28.796571951295846 9.403429152993660 148 106 90 255
17.403121425106548 -27.884575218823414 9.356702790216474 132 92 75 255
17.369237587878814 -26.604580760188497 9.382275697408623 122 85 67 255
17.542749724689259 -25.541988098327664 9.364016387728654 112 77 58 255
17.990354109826058 -24.772550276104369 9.287744690735963 91 56 37 255
18.098260650703878 -23.632730755181086 9.283461844138429 91 56 37 255
18.614940195691361 -22.935834653153108 9.192579784426435 90 59 39 255
18.793207468508626 -21.866822950068098 9.173460771816686 91 57 41 255
18.567971504438447 -20.347777414180143 9.240002821726080 87 50 33 255
17.807442031912132 -18.225030864537871 9.420284668054705 79 40 23 255
19.135518716292665 -18.422272941109952 9.157275955977646 61 23 4 255
19.521360360552166 -17.570419067544208 9.094278715928859 96 57 36 255
-22.442229211408119 -25.177362678393138 18.179214165639365 140 92 64 255
-21.943757664434543 -24.339434097886112 18.094514468967802 135 90 62 255
-43.506328321488240 -1.740410924627099 22.737976451502078 104 111 62 255
-9.595604432803839 -26.899951792941295 15.607829539674107 185 159 130 255
-8.037964761451747 -27.118139918485411 15.295846147046909 201 165 141 255
-5.481912338646055 -28.308761788958776 14.770077937665121 205 169 145 255
-2.649055680663139 -29.788625855405655 14.184706241529234 211 171 151 255
-0.967756257039412 -30.171312654060671 13.845484095111118 213 176 154 255
0.139013456884612 -30.003725236476868 13.629112413541804 213 178 156 255
1.527108170563139 -30.119282870411666 13.352344034740312 216 181 159 255
3.477939460074595 -30.801016188056508 12.954777331271231 218 183 161 255
4.786147063689015 -30.858671102991110 12.694765451614977 217 182 160 255
5.667630082511067 -30.497992034864751 12.526156597666578 220 185 163 255
6.336350907163052 -29.927335548691019 12.403139260000579 216 181 157 255
7.987023315005587 -30.351315475547949 12.069232061380561 210 174 148 255
9.422352887655848 -30.568798791808973 11.781370502028615 204 169 142 255
10.294443091182927 -30.220780317903746 11.614377019012387 196 161 133 255
11.583079349120339 -30.304820279089228 11.357751961824256 190 154 128 255
12.937624657649593 -30.465609788894085 11.086799605247755 186 150 126 255
14.565754310525904 -30.919985321861077 10.756813830656917 186 145 124 255
15.357934732006385 -30.514091928426893 10.606568673978167 180 139 119 255
16.148732530208520 -30.110061647508417 10.456558990220273 173 132 114 255
16.455826441865355 -29.198902110923711 10.410703232395299 148 106 90 255
16.832533092032264 -28.359496838639160 10.349869763311837 126 84 69 255
16.866882480416450 -27.153613274990050 10.362876717100448 109 68 55 255
17.382329437254668 -26.458371044210651 10.272173673990189 93 56 42 255
17.556383269581602 -25.395350154755761 10.255141722121728 95 59 45 255
17.255259859879516 -23.813699356789982 10.340764171755083 84 48 34 255
16.889961188112864 -22.152956944164515 10.440393486931313 73 40 24 255
16.596521770202713 -20.560938854211997 10.524650605051221 59 27 12 255
16.577305752674135 -19.261645297205121 10.549763939992189 50 21 7 255
15.481278702408531 -16.764358642672704 10.807886514408914 45 16 1 255
14.931221995874949 -14.855862833115282 10.948163857376208 56 24 9 255
15.124678467944648 -13.766661229864212 10.927673211372273 74 41 24 255
15.252667163407864 -12.600111591164932 10.921417823836030 72 45 24 255
13.979418623688275 -9.844906339997209 11.218863099187814 58 40 15 255
-21.507606399501299 -28.446156818901471 18.917201588955976 135 113 72 255
-21.306987725122326 -27.347686430584332 18.897163759150835 121 81 50 255
-20.006625364924673 -27.249674470819627 18.638637368731295 134 80 56 255
-19.147876560752508 -26.753789335352792 18.475788787648924 144 95 72 255
-41.832965473982767 -1.714562945818841 23.475420274803312 51 44 6 255
-9.938562704416313 -26.420330676164156 16.637823211300400 169 143 113 255
-8.523981600760038 -26.499404814608994 16.353077595156257 200 164 140 255
-5.896207096919881 -27.757087458480612 15.803876300687620 203 169 144 255
-2.920703199379460 -29.373681012214831 15.178483672533446 208 171 150 255
-0.954103042858634 -30.032873292644069 14.772579857275325 212 175 154 255
0.437051313045203 -30.143534075396417 14.491905518184318 213 178 156 255
1.895197319031809 -30.329420183291859 14.196433470076563 216 181 159 255
3.844591934519116 -31.011811391642027 13.793521654420019 218 183 161 255
5.293042845003697 -31.210769228828184 13.499733106347023 220 185 163 255
5.962067486527502 -30.639566099393051 13.376063766878218 223 188 166 255
6.841276232592435 -30.281623077710066 13.206405135759496 219 183 160 255
8.209797356545749 -30.422796978399646 12.929648351838665 211 175 149 255
9.784309377970885 -30.782886888271776 12.607640344917833 203 168 141 255
10.516021646976668 -30.292707983760408 12.469902562288489 196 161 133 255
11.943289586080397 -30.520223983196189 12.179781513183187 191 155 129 255
13.227274151484295 -30.609826076824504 11.920860363958056 188 152 128 255
14.646299454859985 -30.848455775717099 11.632171900087442 188 147 125 255
15.300082543325658 -30.297793431522877 11.511109211750764 179 138 118 255
16.298213034466556 -30.110604721461925 11.314454894187506 166 125 107 255
16.743145228605414 -29.344877903765450 11.239120157843601 129 87 72 255
16.570047578562026 -27.922471416518590 11.299510969213586 86 44 30 255
16.468607458954267 -26.568997618988590 11.344286389062461 79 38 27 255
17.532313629826604 -26.458939528833866 11.133063471378001 83 45 36 255
17.706586978504532 -25.395924997353148 11.117315683491874 74 37 28 255
17.065753011307493 -23.445289841933231 11.280965724935882 67 33 23 255
15.479819423706175 -20.451194803463352 11.652882678280115 61 27 17 255
14.784245906892778 -18.408802145841037 11.829146576082103 44 16 4 255
14.837621097586720 -17.177675221968286 11.840637755642128 39 11 0 255
14.556104188170707 -15.570317436192880 11.926040183634115 34 9 0 255
14.345591296702082 -14.032774088330115 11.995943448374952 31 5 0 255
13.668903020843743 -11.964901948286411 12.168854378697418 41 16 1 255
12.930970237369706 -9.814048281201394 12.355532565142767 46 29 7 255
10.396363310657165 -5.615714651127576 12.939291655258323 46 38 12 255
-20.335385407491344 -28.080884912866964 19.665262791911509 167 157 118 255
-18.890953878225048 -28.118954710116299 19.372020632827180 161 111 88 255
-18.180518564155875 -27.491805759200702 19.240668392850367 158 108 85 255
-18.927658600265573 -25.520172845717013 19.431281447691802 112 70 45 255
-9.511171896250914 -25.399124453355739 17.526375355441026 197 167 139 255
-5.952035242898148 -27.550532935690001 16.762617909236369 201 170 143 255
-3.405990209653510 -28.751076243696332 16.222967527680076 204 171 146 255
-1.367662958849337 -29.477766362130524 15.795570893950881 207 175 150 255
0.308468863358399 -29.865368580674385 15.448271453662628 212 179 154 255
2.475682349598571 -30.749257120056598 14.991619899216325 216 182 157 255
4.423156016842000 -31.432959524859569 14.583448668970455 219 185 160 255
5.587686401501202 -31.351941845423909 14.349064347638766 222 187 165 255
6.326700281453384 -30.851721159212843 14.209196429052561 220 188 165 255
7.064656822934325 -30.352924131041959 14.069503656740771 215 183 159 255
8.362340951204914 -30.423347039448430 13.805105777983790 211 177 152 255
9.866197930634684 -30.712250312635319 13.494592687613562 202 168 143 255
10.946794801588510 -30.578907351423425 13.278199956885402 196 162 137 255
11.955105986360479 -30.377538236340342 13.077792382890372 192 158 132 255
13.377789519914472 -30.610398877071560 12.784809111357028 189 154 130 255
14.657605988235787 -30.704910814655904 12.523506736861812 188 147 126 255
15.449865334711433 -30.298377499702013 12.370914488456492 180 139 118 255
16.654564079647628 -30.328681384512208 12.126087789280000 160 119 100 255
16.961426502352708 -29.418187057211099 12.081816555218644 125 84 67 255
16.445379410527835 -27.631355853574945 12.221640219700362 105 63 49 255
16.276502092564840 -26.203874522944517 12.283989560244216 73 32 21 255
17.067317414397507 -25.799278998000261 12.131607981144306 59 21 11 255
17.584085915188439 -25.102224206755551 12.040540988005482 61 25 15 255
16.468642899167520 -22.634143047412635 12.315275369452074 51 18 8 255
15.360821692258128 -20.155779235637766 12.588658714791109 42 13 2 255
13.989887335799182 -17.370208083251384 12.921430106865031 34 7 0 255
14.113348041030122 -16.210500823631605 12.919185982122222 30 2 0 255
14.575444944988675 -15.421654425550770 12.840972596759357 34 7 0 255
14.567355752217026 -14.108332110193544 12.868410912437817 47 21 5 255
13.556132450234458 -11.665189397438155 13.121476713690249 66 44 23 255
12.418438154912394 -9.061582426129746 13.403336892376977 63 49 25 255
9.820854533467582 -4.785563903460456 14.014115131257249 55 49 23 255
-20.317498252077371 -27.948074203758665 20.641208480625878 166 159 118 255
-18.361487761383273 -28.453572528400741 20.229711908914901 160 116 89 255
-18.381545379332294 -27.156981416143338 20.261828107261536 146 101 74 255
-19.491027291593525 -24.847910184528274 20.538914911895880 105 67 41 255
-22.263736015749089 -20.976628203325760 21.190362184304412 97 63 36 255
-23.499728504372172 -18.507269231982661 21.496788855418224 79 46 21 255
-23.932299881417805 -16.774306699491888 21.622751080642551 70 42 18 255
-23.206037907866289 -16.125657705572053 21.487945452426231 64 37 13 255
-21.976590489833654 -15.956524901405857 21.239714247243363 64 38 11 255
-5.936114655158889 -27.413033497416848 17.706801423240101 205 175 148 255
-3.319733560161723 -28.682380324378812 17.143407548400468 204 173 146 255
-0.926342485564021 -29.756114765575774 16.629896190468152 209 177 152 255
1.032454570507355 -30.423270019807035 16.214160329882738 211 179 154 255
2.772136438330477 -30.889586672951964 15.847626067952930 216 182 158 255
4.152762689592777 -31.012897502523401 15.562023375746342 219 184 162 255
4.965147869843918 -30.578973451011251 15.404819249716361 224 189 167 255
5.987275154051844 -30.358524978956325 15.200038534444751 222 190 167 255
7.147479890995783 -30.282754001983164 14.963844585832298 217 185 160 255
8.795051050775044 -30.707837117274948 14.617013013811537 211 179 154 255
10.157811466936437 -30.855232647318246 14.334497337696725 204 172 147 255
10.958779826493611 -30.436694931939797 14.179246090205886 196 162 137 255
11.967069954418321 -30.234897776109165 13.976845894725713 194 160 135 255
12.764791083976604 -29.820735230532250 13.822145328009050 192 157 132 255
14.115094658177384 -29.984923528022989 13.541781444201973 189 148 128 255
16.014114853172515 -30.732677241587083 13.136435799118203 178 137 115 255
16.734899258987383 -30.256821051447901 12.998797416298366 156 115 95 255
16.835760326302420 -29.127979153605366 13.002203711897138 134 93 74 255
16.046637840410568 -27.048570072844313 13.208382959209708 108 66 50 255
16.221703851626302 -25.985095401255421 13.195159312200445 94 54 41 255
16.739680641927350 -25.286398588987566 13.103826063156163 80 43 31 255
16.576371967121105 -23.852021238690327 13.167885496223924 69 34 22 255
16.144350781764160 -22.118242436280269 13.293426538068246 53 21 10 255
15.377748592568423 -20.008445765027517 13.495590883731033 45 17 6 255
14.617157467147109 -17.890538861813013 13.696686866373916 40 13 2 255
14.402380162106596 -16.360113464490496 13.773315177636007 40 10 0 255
14.864186997384223 -15.571706502914139 13.695363592519094 47 19 6 255
14.721826905807347 -14.109060450736962 13.755680057408838 58 32 15 255
13.577676870427780 -11.515730155167518 14.045538886663721 65 41 21 255
11.973627510208757 -8.384490977914908 14.441172332577054 63 47 24 255
9.179654662477873 -3.879941213448376 15.110101159452505 53 47 21 255
-18.834775613172297 -29.147656820418746 21.283860343371629 161 137 99 255
-18.344028576543224 -28.320366876034115 21.201480847120237 145 100 71 255
-18.436314154623688 -26.956299071998217 21.252315748598420 115 74 44 255
-20.198988601105953 -24.041138926271600 21.685148767400456 107 64 40 255
-21.007758702545004 -21.989497707233056 21.900326294500012 105 72 45 255
-22.172593538452816 -19.591132750137945 22.197292171253665 90 59 34 255
-22.968431106061075 -17.522040846528341 22.410162920533033 85 55 31 255
-22.892980225220640 -16.262503885178688 22.423743740113530 81 54 30 255
-22.239823279342545 -15.546921609968706 22.305013796383427 78 54 26 255
-20.941059194591332 -15.449105141989520 22.038195023401691 70 46 18 255
-3.233419939418525 -28.613723581945891 18.064344978851324 204 175 146 255
-0.627701448810683 -29.895599214897487 17.494722702656077 206 176 150 255
1.400791492838977 -30.632865323166300 17.057297279302453 210 180 156 255
2.785121726297746 -30.750410641285725 16.767677143745338 214 182 159 255
3.812244232813185 -30.522774489496697 16.560049042102044 219 184 164 255
4.696043361107940 -30.157657862703218 16.385287564040347 224 189 169 255
5.929775304861778 -30.147529478711249 16.129789146983988 222 190 169 255
7.300523360646025 -30.283383292149438 15.842509464515373 217 185 163 255
8.877324514261289 -30.637498477547041 15.507471385770558 213 181 158 255
9.820608238046361 -30.357534409714276 15.318365526424778 207 173 151 255
11.110276569181877 -30.437344942297187 15.049149220925614 199 164 142 255
11.770618023020432 -29.877423822005625 14.925127189130954 195 160 138 255
12.915741016919895 -29.821400023852448 14.688983562234135 192 156 134 255
14.265466980125666 -29.985594044068307 14.405338870914804 188 147 127 255
16.370648440723045 -30.950185829970195 13.946628869136248 179 138 116 255
16.539779992439094 -29.895025976352230 13.935806804573147 161 120 100 255
15.542259768244435 -27.601707504056947 14.195359490425197 147 106 87 255
15.237274403777008 -26.028257472397229 14.294746249926696 125 84 66 255
16.030356180081071 -25.620072170461412 14.139635769943702 106 68 51 255
16.617354790623779 -24.993660929853831 14.032266572012524 87 51 36 255
16.591285922133835 -23.705586188844364 14.067226381782262 78 44 29 255
16.160225732257828 -21.971383325015324 14.196412779323275 61 29 15 255
15.936821183393079 -20.453280985637463 14.277561780418530 53 22 10 255
15.649265361868743 -18.856307054785731 14.373817253227436 47 17 4 255
15.432896985695209 -17.328709449223766 14.453707213508089 43 10 0 255
15.489036942728376 -16.095135946903270 14.470321444722778 45 12 1 255
15.413111382593740 -14.708897392285223 14.517822074074196 50 20 5 255
14.603562946307107 -12.492805988139850 14.736515816332464 48 22 3 255
12.464616749656756 -8.761873629048353 15.265688244342535 44 25 3 255
-18.597953582969382 -29.214759203693603 22.205524581378064 146 99 70 255
-18.691540664751841 -27.853012609202466 22.259062789959010 134 84 57 255
-19.510925778015917 -25.816892130461810 22.481370021287887 117 76 46 255
-19.888029464007786 -24.176214258081501 22.601191369009690 105 67 38 255
-20.188465889037332 -22.597456216963849 22.703397583398555 90 69 35 255
-21.570783167326965 -19.997945742750574 23.057567393309050 96 83 47 255
-24.099929882861375 -16.299952823861048 23.679236912781512 101 87 52 255
-23.733037735043354 -15.309083566628914 23.627000320914298 97 79 46 255
-23.077683962789365 -14.590463807415460 23.507558519033594 94 76 42 255
-21.992343237943771 -14.283869536126531 23.287793930709235 88 67 36 255
-4.572014523340897 -27.160445241532273 19.318662754716193 209 183 154 255
-1.395587685503358 -28.993360752999592 18.607667988275885 208 181 153 255
0.988629710399238 -30.076146263001931 18.081239327946506 210 181 157 255
3.010548650460635 -30.820933729434699 17.639084872803032 216 185 162 255
3.684151548017780 -30.243005955535210 17.512206888239312 223 190 169 255
4.497903656439178 -29.806707187019583 17.352439874770596 227 192 172 255
5.942797526602703 -30.007115825748144 17.044638664193826 224 192 171 255
7.453527380224642 -30.284054906814617 16.721133672085102 220 188 165 255
8.679821200393206 -30.283307731476526 16.464094963753958 214 179 157 255
9.833003047670957 -30.215838593171128 16.224016426022658 209 174 152 255
11.052827033702869 -30.223812735457074 15.968093087827505 202 167 145 255
12.060912925007358 -30.021378362612893 15.761737012416312 200 164 142 255
12.789397704081409 -29.534736211454145 15.620995935773870 191 155 133 255
14.346646151999408 -29.914249068027402 15.285132913404787 184 143 123 255
15.416032029333422 -29.794458948266595 15.063851977649492 178 137 115 255
15.381468171247548 -28.518347982809786 15.102518025964812 166 125 103 255
14.250682330614609 -26.075492006011586 15.399767437962552 151 110 90 255
14.771718181237958 -25.372645509358023 15.307792755755194 128 87 68 255
15.976127427149464 -25.401392024317147 15.054497754369130 110 72 53 255
16.904476684483029 -25.141154524807206 14.866194980372718 97 60 41 255
16.674368544061934 -23.632781508484555 14.951530167893424 94 57 39 255
16.447701270665277 -22.119764693709840 15.036248024195849 94 57 40 255
16.224473572954224 -20.602105865374824 15.120348965089562 83 46 30 255
16.815198121608034 -19.970582441023794 15.011945420694083 67 31 16 255
16.866445196811640 -18.744039473893707 15.031305465146104 51 9 0 255
16.987064240685413 -17.589258379926576 15.034343080689077 60 21 9 255
16.707147806665716 -15.982718373745058 15.132482192120875 72 37 20 255
16.364087220739890 -14.296011495280624 15.245826697340512 72 41 21 255
14.490096965104755 -10.871556087073458 15.722963433336488 62 38 16 255
-17.898563881001110 -30.971566731776193 22.983710831481751 163 125 92 255
-17.995557040400399 -29.614980540142852 23.040324936031361 137 89 62 255
-18.746515085984868 -27.653035065006350 23.251456018492362 140 92 65 255
-19.127640794485274 -26.018601461253866 23.375568495435736 119 83 51 255
-19.722602608797558 -24.176778091849116 23.550443703604714 107 72 40 255
-20.239974487823247 -22.395566305650846 23.707262674483317 96 76 39 255
-24.489048157553043 -13.087155830943516 24.853802555501694 110 98 56 255
-24.404101324644046 -11.815668479307078 24.869464480432676 110 92 54 255
-24.531554379917623 -10.334854143881245 24.935636286637532 104 84 49 255
0.364543583073981 -29.310465102147134 19.160008807916121 210 183 156 255
2.599388295351133 -30.262523381285689 18.661361255533286 217 187 161 255
3.485838807694677 -29.893176115997022 18.483271027480988 223 191 168 255
4.511376863293549 -29.666762984187585 18.271923729563163 227 192 171 255
6.026200834620056 -29.937283305409039 17.943777063953000 224 192 170 255
7.676563648943670 -30.355524784328878 17.582999920108819 221 186 165 255
8.622567711279856 -30.071108958339153 17.389992854171119 212 177 156 255
10.054793733128463 -30.287759856506085 17.080728046969071 207 172 151 255
11.552325818426738 -30.581592833048404 16.755576608869738 201 164 143 255
12.767543910634146 -30.595130772818891 16.497626580390254 197 160 139 255
13.217517713019134 -29.822863636322836 16.422541278066511 190 154 133 255
13.391299299522416 -28.762043712575860 16.413577471109100 186 145 125 255
14.393927015387618 -28.566507244766484 16.206151788224332 183 142 120 255
14.981506593472318 -27.939168104030273 16.098049312952071 176 135 113 255
15.431424460807676 -27.166965344098855 16.022925439516094 166 125 103 255
15.881568309549152 -26.394455132733697 15.947750234132350 147 106 86 255
16.673438915788751 -25.987369377212616 15.790516921402300 131 91 70 255
17.463925421221745 -25.582148261089316 15.633517303337648 121 83 62 255
17.845156763850269 -24.737310294796828 15.574819188102722 121 79 59 255
17.820028038355417 -23.448950113561949 15.613911291399297 117 75 57 255
17.459090161995562 -21.787177890640663 15.733994669529110 106 63 47 255
17.642202940248637 -20.713745282458206 15.723272343421769 79 33 18 255
18.028830407531728 -19.861619013942203 15.663581234200549 64 16 3 255
18.348827044473779 -18.934092389358483 15.619987384302313 72 26 11 255
18.066563124549305 -17.331463832454517 15.721798516935579 100 58 40 255
17.854908888894272 -15.798864108224649 15.806791290192514 95 58 38 255
16.779684118594844 -13.282536587839502 16.100693026702025 86 57 36 255
-17.003177608279998 -31.636089095241402 23.742457698359168 145 98 71 255
-17.613035669628630 -29.815376939563322 23.924410708399598 143 95 71 255
-17.998994740742489 -28.188282570235657 24.052959791620779 138 93 66 255
-18.817441235262663 -26.153287956612076 24.285563170012544 124 89 57 255
-19.847643571097024 -23.908287630171003 24.569393964794131 104 78 39 255
0.308103260031572 -29.102172112648816 20.107643276338301 211 187 157 255
2.966312859712843 -30.472898576332511 19.499825852129803 214 186 158 255
3.993045890419666 -30.244421633683260 19.286291328580205 219 188 162 255
4.947084408096629 -29.948785782822654 19.090195168336187 223 189 166 255
6.250030851805178 -30.008569504420450 18.809382818483122 220 188 165 255
7.759415517588877 -30.285524351897209 18.478247879629059 217 182 161 255
8.914874875953160 -30.213820823973350 18.232684401350319 208 173 153 255
9.997638484396191 -30.074960401784978 18.004561015615046 204 168 148 255
11.147273151733941 -30.011107518027700 17.759997216000649 200 163 144 255
12.432675947000575 -30.094540060026276 17.482209457233033 195 157 138 255
12.676148772576340 -29.105233486571080 17.457663543462722 191 154 134 255
12.782699600897274 -27.970191777043738 17.466518105214426 188 147 127 255
13.028883199161100 -26.977222436864963 17.441467021109965 181 140 118 255
14.788459867463075 -27.577521843064744 17.047571320588588 183 142 120 255
15.719240428881108 -27.313224909928863 16.855429007350473 178 137 115 255
16.853236871338140 -27.270446816120682 16.613537147806220 165 124 103 255
17.233451668435038 -26.427098062433089 16.555534362507430 156 114 93 255
18.022769314981701 -26.023186632073646 16.397573150142328 149 104 81 255
18.199317249558675 -24.958919482344072 16.389364950119742 146 101 80 255
18.648460103234726 -24.187799100841346 16.314539407685018 144 97 79 255
18.556945942986886 -22.824263007311117 16.372114883034548 135 84 67 255
18.940373372416616 -21.976568017847086 16.313489952134496 82 30 16 255
19.189768263554129 -20.979240730941854 16.287757836535228 93 40 26 255
19.171838757630155 -19.681651975475404 16.327690485386213 117 67 53 255
18.754578120922872 -17.931438895222357 16.465832436182673 113 66 47 255
18.542136528509104 -16.400582651597233 16.553944336948646 110 68 48 255
17.999899479133546 -14.488518448487895 16.723368907492414 108 74 51 255
17.196760268521672 -12.267529171953015 16.957322869579073 94 67 45 255
-15.492911850056714 -34.112256130483217 24.308332495311433 156 117 86 255
-15.889137868192478 -32.499835329928743 24.442298114770004 165 121 96 255
-16.500365825933898 -30.681977203542885 24.628893375790774 131 84 61 255
-17.470912472308754 -28.523051428483711 24.903391496458511 139 97 70 255
-18.652909809874245 -26.153898291059903 25.229894076050073 125 99 62 255
2.485434104979419 -29.844686773337770 20.545016151678830 205 190 151 255
4.217896027915373 -30.315292890386672 20.155920711452630 214 190 156 255
5.312076426837365 -30.160526889889525 19.923573282740158 217 187 159 255
6.263307755937660 -29.868282060583567 19.726241954049335 215 183 158 255
7.632384951410529 -30.003299175174561 19.425740008186899 213 179 152 255
9.137136693584296 -30.285600841095004 19.091474685962616 206 170 144 255
10.010378906184116 -29.933395680170804 18.912763320135689 204 166 143 255
10.881917510585225 -29.583485222652598 18.734337970695677 199 160 139 255
12.237088881153142 -29.737247047023061 18.436232006158548 199 154 133 255
13.034918741008624 -29.321606386651467 18.275688955301156 195 153 131 255
13.003226302055793 -28.043108817756831 18.320350771050620 193 148 127 255
13.869074269969587 -27.700862002229371 18.142874448706110 190 145 124 255
15.420113192045221 -28.085855622679958 17.795443519405559 188 143 122 255
16.829169867035318 -28.332067150679848 17.482862060613833 185 140 119 255
17.687004587190472 -28.000621364931135 17.306763665460267 184 139 118 255
17.656446139544585 -26.720579156858491 17.351159910541220 181 136 115 255
18.308824740465894 -26.170818280650820 17.226001648176684 173 128 107 255
18.349497854042028 -24.959835808210073 17.252900211558334 170 123 103 255
19.137291893304223 -24.557707505723243 17.094017753317637 162 114 94 255
19.383194780227370 -23.565334772992600 17.069969437365678 141 90 71 255
19.630286239330644 -22.571356155257234 17.045700064308662 120 67 49 255
19.609598086554314 -21.277983169700207 17.088282536510356 143 88 68 255
19.457220723668996 -19.831943158754996 17.163896492657614 139 87 66 255
19.441799545397828 -18.531460200987425 17.205526762562208 132 86 63 255
19.295330212256431 -17.077445522923711 17.280075577030992 124 83 58 255
18.952176453429502 -15.393285753913062 17.404027030821283 119 83 57 255
18.679537487157319 -13.779155955501068 17.510622009077700 112 78 52 255
17.747871099063133 -11.402484704464882 17.782518314926698 99 73 50 255
15.699168777868550 -7.725027990895455 18.334846505786466 85 64 39 255
12.013956919056369 -2.126301052135091 19.298481817965602 67 53 26 255
-16.989601738324268 -33.872666246992935 25.602766139408978 176 145 107 255
-15.478454972064384 -33.980454778088870 25.269060290750680 185 136 110 255
-15.507961151588404 -32.699613284698614 25.315983167805321 153 97 77 255
-16.702938033355139 -30.349490510556677 25.651432457145162 124 75 52 255
-18.618601422549261 -27.320634952145042 26.165841147612994 134 108 72 255
4.442612527865805 -30.386203626024212 21.024957915182249 189 184 139 255
5.255222143470377 -29.950384860147892 20.860751451814956 203 181 148 255
5.996359398903451 -29.445885095452894 20.714320975351328 209 177 151 255
6.946234107380292 -29.155074417353632 20.515497807173425 204 172 147 255
8.452247233181197 -29.434775264632350 20.177076642296015 200 164 140 255
9.187952993329475 -28.937591216785762 20.031556625743789 198 162 140 255
10.408736753085350 -28.941686122891298 19.764159872646822 197 157 136 255
11.903353296244262 -29.236750116089524 19.427705988367691 198 153 131 255
13.185987827965675 -29.322494674885519 19.144186634784482 197 151 128 255
13.637406141355314 -28.548427473763894 19.069495811485119 195 150 127 255
14.295463885934282 -27.990880187688447 18.942785799587625 196 151 128 255
15.501925760328930 -28.014278715394710 18.677848285304755 196 151 128 255
16.499627019246191 -27.824012474210463 18.465277254853270 192 147 124 255
17.631621357988081 -27.782768494663515 18.218636472097124 191 146 123 255
17.806382519717943 -26.721523152147768 18.213418421564789 187 143 119 255
18.458650646204347 -26.171771065327221 18.087666323510128 182 137 113 255
18.431795502064915 -24.887220389995775 18.133539131528103 180 134 110 255
19.016514167387129 -24.263493662786232 18.024862302964188 173 125 103 255
19.803364012177610 -23.862369359192144 17.864967098554082 147 97 74 255
20.049982598944950 -22.869267788851090 17.841827250501410 161 109 87 255
20.029008549247720 -21.576772668725056 17.886612940555935 158 106 82 255
19.742369793186583 -19.982283130202688 17.998982948086280 153 104 79 255
19.726984396737379 -18.682243703141381 18.042757862712641 144 98 73 255
19.980923598604932 -17.679256532082178 18.018279728385693 138 97 72 255
19.570522972121125 -15.921527316677157 18.162810465814751 135 98 71 255
19.894832152891468 -14.988699844419983 18.120714432783601 129 93 67 255
19.557690931234220 -13.297232347603540 18.247115840845090 118 86 61 255
18.894269597359084 -11.220447014273816 18.456974038881150 104 77 52 255
16.522854660407347 -7.155311858956509 19.102852348886032 89 68 42 255
-17.782498204738431 -33.015722036949398 26.770672459405965 178 144 109 255
-16.050050237360807 -33.319233738952704 26.377903023895449 165 115 89 255
-16.004469419695852 -32.102629635255767 26.408302680483771 127 82 57 255
-17.488695589867149 -29.484097722367864 26.823245594664449 130 98 68 255
-19.255101544331325 -26.586102018706640 27.309793626519500 161 127 91 255
4.847570809956181 -29.388684161599230 21.888720100733188 171 174 126 255
5.519792838605184 -28.811919267163006 21.759025044827418 196 174 141 255
6.750358965182727 -28.802183305980975 21.487124055452185 204 170 143 255
7.698714868462616 -28.513025419726944 21.286837078984227 202 162 140 255
9.062420151480040 -28.653736768220199 20.980494779232309 201 160 140 255
10.560968228777938 -28.942601288861823 20.639427797330612 199 159 136 255
11.916431378955963 -29.094423992376676 20.334510707216708 199 155 133 255
12.646221915430033 -28.605006355599727 20.189103817109306 200 154 131 255
13.443870392761170 -28.189074793310027 20.026250353333943 197 153 128 255
14.858950552865423 -28.425493876063911 19.705314184535737 200 156 131 255
15.926769048987552 -28.305216127769739 19.472929943298347 203 159 134 255
16.718176143085316 -27.897694458365550 19.311137273460666 198 154 129 255
17.439926030417240 -27.419107308440914 19.167080319787750 197 153 128 255
17.820047926439543 -26.576223431063681 19.110579047855644 193 149 122 255
18.268669666921483 -25.805960184876454 19.036519845104522 190 144 117 255
18.446350038500981 -24.741073885919917 19.032084962003033 187 141 114 255
18.963695722139050 -24.043126161087940 18.940415962556393 184 137 110 255
19.885764239282423 -23.789384756718619 18.744578420233744 178 128 102 255
20.267332024942789 -22.944535978791066 18.687758580476675 179 128 102 255
20.380851050717297 -21.801162061291478 18.700051886630924 174 125 96 255
20.228249373456265 -20.356661920067012 18.781116900785356 167 119 92 255
20.412899028095978 -19.282357453827444 18.775377352724114 158 113 84 255
20.665723403194278 -18.281112887182331 18.752140307017640 153 113 84 255
20.720216514226053 -17.052324364270987 18.780257055152333 145 108 81 255
20.975895515517180 -16.047224125216701 18.756494449914008 138 101 74 255
21.100390915507603 -14.889027961268596 18.766781212921778 131 96 70 255
20.698519766080949 -13.120656373174910 18.913582467557674 120 91 62 255
