ply
format ascii 1.0
element vertex 662
property float x
property float y
property float z
property uchar red
property uchar green
property uchar blue
property uchar alpha
end_header
17.965410268747533 -16.666302966894904 -11.941606675720067 108 90 58 255
18.277945798858838 -15.710269465261803 -11.324158895481673 105 90 59 255
18.369627091538817 -14.917567435911835 -11.154060153522011 104 89 56 255
18.240435915401392 -14.292239729147397 -11.431261458119991 104 89 58 255
18.287959547544560 -13.532729084691596 -11.350633095956027 102 87 57 255
18.733111484095531 -12.464665879339620 -10.464964017822695 97 82 53 255
19.620106728797253 -11.046264837494022 -8.684896273588976 90 73 45 255
20.242068904052090 -9.825665883938470 -7.441625578142265 86 69 42 255
20.510609091794734 -8.877789796557110 -6.913973579378450 64 45 20 255
20.204774134246989 -8.385629465991684 -7.549046483360542 62 42 17 255
20.075676024735216 -7.754937003639370 -7.826343506661459 94 74 50 255
19.902394213060745 -7.161690021056899 -8.193056300630900 93 75 50 255
19.817490627048116 -6.498349948806663 -8.380893883538477 96 81 52 255
19.865162988528084 -5.726907891372491 -8.300452430210669 98 83 54 255
20.089614204500521 -4.808275281227182 -7.862341340108145 86 72 45 255
20.004744435122063 -4.145367507452974 -8.050189630940707 77 63 36 255
20.185044072395868 -3.260329575882551 -7.701547555971246 68 55 28 255
20.144392653706689 -2.560394698239094 -7.799991295687846 58 46 20 255
20.413125735642097 -1.596804316362793 -7.272584132465397 47 41 16 255
20.372505686120675 -0.895929486254531 -7.371051358920084 37 36 12 255
24.077090537009724 -27.001927773188413 -0.984835615014674 162 156 116 255
21.949174535011380 -27.587631105808583 -5.285874839545755 192 166 135 255
20.975592849264430 -27.464046706828938 -7.261910766387416 203 169 144 255
19.557933049387316 -27.637982590633200 -10.131882809065928 202 169 144 255
18.983878551752696 -27.281674753503864 -11.302958207346109 199 163 139 255
18.587417884776997 -26.816112502358877 -12.116343891991704 194 153 131 255
18.412971984380945 -26.208685936773421 -12.482680989029916 187 145 123 255
18.105297738581328 -25.692406718436359 -13.117177615197733 182 140 118 255
18.152881936261778 -24.940762531349989 -13.036496746347098 176 135 113 255
18.156063180330477 -24.218830498506676 -13.045212057991961 174 132 110 255
18.159249430397225 -23.496973602965667 -13.053928842145609 167 126 104 255
18.073616176491086 -22.836615751645454 -13.241410954682209 164 126 103 255
17.987983774433161 -22.177405686026887 -13.428881845771684 155 120 95 255
17.946767335551272 -21.488085675654887 -13.526966377440829 151 119 94 255
17.816722746226660 -20.862412898478809 -13.803790669572891 144 113 85 255
17.864346363947561 -20.111241012118356 -13.723122602642349 135 104 76 255
18.089652957988676 -19.231326705099306 -13.285001543421004 125 96 68 255
18.492657363248824 -18.219427006434813 -12.489466884498228 118 93 63 255
18.762428634318965 -17.300522593528797 -11.962070941543260 114 89 59 255
18.854534202824340 -16.509911407813490 -11.792140232729480 107 89 59 255
18.991076186555830 -15.685112041456463 -11.532873503975281 105 90 59 255
19.038785138525526 -14.925549038434383 -11.452328297172699 106 91 58 255
19.308634066522870 -13.997057487239658 -10.925063880152521 106 91 60 255
19.489653157570530 -13.133253039412580 -10.576527961161275 102 87 56 255
19.937260794145757 -12.061970561211538 -9.691986312957425 94 79 50 255
20.562620780559115 -10.847332613892277 -8.450170304593541 91 71 44 255
21.010303296832248 -9.764192354027003 -7.565781894616549 77 57 32 255
20.969270752876994 -9.061005037940177 -7.664088580992740 68 48 23 255
20.794947548605464 -8.464255782463752 -8.030372461995171 101 80 55 255
20.665060305180276 -7.834081377853408 -8.307312408123920 103 81 57 255
20.712920011168066 -7.062142653979379 -8.226959503719968 100 81 56 255
20.671920718088941 -6.361862623277602 -8.325251629831399 100 85 56 255
20.630931542806522 -5.662092313667557 -8.423543115025126 99 84 55 255
20.634392269050750 -4.926174745632750 -8.432524394628672 89 73 47 255
20.504544252629501 -4.300977048305427 -8.709431528299120 77 63 36 255
20.730238178638729 -3.379824829398032 -8.271899976157755 70 56 29 255
20.778185974868165 -2.605760484894745 -8.191607832128199 61 48 22 255
21.048373642233827 -1.642441829963815 -7.664846459560408 45 39 14 255
20.963024914194904 -0.979818614425710 -7.852478327134605 31 27 5 255
22.903900362118620 -27.427960103075748 -5.056196743420287 168 161 123 255
22.505252840187623 -26.935050333485265 -5.868883818594981 197 170 141 255
21.124247766235541 -27.075199404178974 -8.646046263648259 203 171 146 255
19.877133031082408 -27.145741234468105 -11.155126617242104 195 160 136 255
19.031844140075847 -26.969696795282758 -12.860411432857802 190 150 128 255
18.990310498989132 -26.275522489146979 -12.958403602513386 188 146 124 255
18.814809495612906 -25.670865108609803 -13.324242284921553 183 141 119 255
18.996564968365064 -24.829245914453253 -12.975810449326076 177 136 114 255
18.910381979847969 -24.166568349702374 -13.163070905338202 175 133 111 255
18.824199675018178 -23.505045935215904 -13.350319990490135 170 129 107 255
18.648696059056292 -22.906096376723482 -13.716099816218815 164 126 103 255
18.607176071568006 -22.216432035438459 -13.814052488935062 156 121 96 255
18.744314156372283 -21.402368212221390 -13.554943026477389 147 115 90 255
18.792136645613525 -20.649785578430965 -13.474377886948446 142 111 83 255
19.063297976656912 -19.737765455699076 -12.947532129003889 135 105 77 255
19.245146824059361 -18.886678855463316 -12.599237617006594 127 100 71 255
19.650354271964460 -17.871828042513243 -11.804715028531234 119 94 64 255
19.832244063851803 -17.015163990437429 -11.456495146042528 114 91 60 255
19.790798686715874 -16.320730672526054 -11.554529286763682 109 91 61 255
19.838703496367401 -15.560590993503979 -11.474077233240536 106 91 60 255
19.886619952387917 -14.799940953085795 -11.393635530813128 105 90 57 255
20.381291047333576 -13.701978136405984 -10.420853262764211 106 91 60 255
20.920674222617436 -12.564149007999063 -9.358915273740450 100 85 54 255
21.460096926716204 -11.419858629789033 -8.297060216031184 89 74 45 255
21.776170141991855 -10.441548145642301 -7.681414902296041 81 61 36 255
21.779517792243453 -9.702777729220458 -7.690374601352943 65 45 20 255
21.738196711828678 -8.999034858623759 -7.788558256990910 93 71 47 255
21.652203587078915 -8.331123416727422 -7.975956266537366 109 87 63 255
21.566217902088283 -7.664278661418962 -8.163346811612655 109 87 63 255
21.480240013458754 -6.998494814169092 -8.350730109616876 102 83 56 255
21.438955587369293 -6.297657779785240 -8.448900737089360 102 87 57 255
21.263622498794120 -5.706464305937217 -8.814678198987565 100 85 55 255
21.222356709078852 -5.007449444409488 -8.912838717997232 86 71 42 255
21.002346371412614 -4.456602933762099 -9.367782572439381 80 64 38 255
21.273931780378973 -3.499341338012258 -8.841583171031004 80 64 38 255
21.366781028893570 -2.688615785462090 -8.672187343238619 73 59 33 255
21.638422404689962 -1.725837821079296 -8.146068651758213 58 49 25 255
21.507847503097864 -1.101729294898519 -8.422640689764307 43 38 16 255
23.595352042930472 -26.688992813095567 -5.371954450034252 177 169 131 255
22.161686530047263 -26.855156246741387 -8.234868793168062 198 168 142 255
21.087166401707108 -26.808177808382965 -10.384114041210552 201 167 142 255
20.192207373949998 -26.657914350007431 -12.176486361059432 194 154 132 255
20.150385501232449 -25.960759158676098 -12.274380149928874 191 149 127 255
20.018755467670033 -25.323484339739394 -12.550614828300780 187 145 123 255
19.842217154631101 -24.717809627651363 -12.916001301589858 179 138 116 255
19.665675028657802 -24.114373957280975 -13.281363443730015 178 136 114 255
19.534038160252607 -23.482735768575324 -13.557538102471085 173 132 110 255
19.312580654339115 -22.914204138774338 -14.012015479210248 164 126 103 255
19.360584346829611 -22.162573375895263 -13.931521509383430 156 121 96 255
19.543333809272028 -21.316722675373327 -13.583575621048254 145 113 88 255
19.815926505212175 -20.405736170519617 -13.057357599903924 137 107 79 255
19.953797090783439 -19.586928472216300 -12.798622676801926 131 101 73 255
20.361176922024470 -18.574207262254234 -12.005047135730422 122 96 67 255
20.588918597324550 -17.685984532958940 -11.568095752020497 117 94 63 255
20.681926530867443 -16.892897676459910 -11.398592391854862 112 89 58 255
20.550352041488395 -16.263105690738556 -11.674776202217174 108 90 60 255
20.823063796667483 -15.336733018640530 -11.148766780233359 105 90 59 255
21.140721254920521 -14.373744185590596 -10.533672948698069 101 86 53 255
21.772865277063659 -13.171264405691844 -9.294758761601116 91 76 45 255
22.270281406160350 -12.063088308293828 -8.323303617104784 88 73 43 255
22.677884616810104 -11.017423078585807 -7.530160653156258 80 65 36 255
22.771036218297823 -10.208313859131550 -7.360883294466873 70 50 26 255
22.684494205704922 -9.537153428622773 -7.548069417679756 58 38 13 255
22.732746210910605 -8.761992843853889 -7.467923987614000 104 84 59 255
22.781013446608256 -7.986285270340574 -7.387790876861629 115 93 69 255
22.559708789270104 -7.423418420727060 -7.842279145418274 112 90 66 255
22.293473012011091 -6.899066502202359 -8.385839133699022 108 89 61 255
22.117103899483027 -6.305717450871683 -8.751176464547370 104 89 58 255
22.030609187956486 -5.641746240212157 -8.938311012197602 99 84 53 255
21.944124292509713 -4.978817620009067 -9.125439398427773 89 74 45 255
21.722837276711545 -4.427670085762571 -9.579817079550509 87 70 42 255
21.861062868616898 -3.581693726913429 -9.321515045889271 86 69 41 255
21.909432097217305 -2.808951343448271 -9.241397438716149 83 67 41 255
22.182526366395507 -1.846983051090490 -8.715918346196133 69 58 33 255
22.230940308887995 -1.071678968036451 -8.635846567417360 50 43 19 255
23.925475917490701 -26.178523778823816 -6.400252988959011 193 164 137 255
22.303148225061705 -26.470745576937091 -9.615752298580759 199 166 141 255
21.403173281226529 -26.317172188476590 -11.405921692131841 196 157 135 255
21.225605369646303 -25.704828126673576 -11.770916522161315 191 149 127 255
20.957725278854767 -25.153979212199388 -12.314011200216868 188 146 124 255
20.689837018471209 -24.606453507860124 -12.857068646439387 182 141 121 255
20.286471857115671 -24.152740696854337 -13.667256145469281 180 137 118 255
20.108879841593478 -23.551790343713435 -14.032125066619699 173 132 112 255
19.931285205533669 -22.953070811479250 -14.396970271351620 162 124 103 255
20.024646911265307 -22.170730056173838 -14.227516026731109 152 117 95 255
20.343824968055770 -21.231148822333751 -13.612863572313984 142 110 87 255
20.708188731246480 -20.256332297129504 -12.909219758368863 133 103 77 255
20.982252475375134 -19.340820730719983 -12.383703351479369 125 96 70 255
21.346667186566009 -18.358012001356855 -11.680163034301557 117 90 63 255
21.756274733371669 -17.338607089027022 -10.887648291424711 111 87 59 255
21.804579017893701 -16.575140966079871 -10.807407968628411 107 83 55 255
21.762559649514685 -15.876901544940537 -10.905224661527512 99 82 52 255
22.127069051948126 -14.881028945425570 -10.201858606238289 95 80 49 255
22.536777840815574 -13.847463457305452 -9.409532130936640 91 76 43 255
22.991690041383663 -12.775390888440171 -8.528255259767036 84 69 38 255
23.175602055387088 -11.901602039537906 -8.181110088189172 82 67 37 255
23.404709076935987 -10.991455022098535 -7.744989053550825 76 61 32 255
23.724190030184360 -10.009651874968142 -7.130898405847205 68 50 26 255
23.727467808345565 -9.267346054761092 -7.139862686052965 49 31 6 255
23.775936048710619 -8.490015167234503 -7.059835602298534 96 78 52 255
23.553349419854428 -7.923893372744374 -7.513785194216439 110 91 65 255
23.375944461332708 -7.324893874064074 -7.878717797773874 112 92 65 255
23.017820670348669 -6.871363589739019 -8.599580769676095 107 91 61 255
22.750056505110507 -6.349921156460852 -9.142429907798970 102 87 56 255
22.663026280135512 -5.686197244000113 -9.329323193447181 96 81 50 255
22.666375937602652 -4.950231447416428 -9.338255439726225 90 73 45 255
22.488998483947654 -4.361869864343902 -9.703092783736764 86 69 41 255
22.582749886091335 -3.552526504200571 -9.534085216963092 83 66 38 255
22.586146652372818 -2.816950613854203 -9.543034526058847 83 68 39 255
22.815508532161076 -1.892702912021591 -9.107169644495372 75 62 36 255
22.954519268806450 -1.041669050978129 -8.849268791862698 60 52 26 255
25.837380153920549 -25.416476706147790 -4.304056964133963 173 160 119 255
24.024471919640717 -25.816527155772334 -7.871470181843279 192 161 131 255
22.665486630023267 -25.947479857890272 -10.549049389675844 195 158 132 255
22.441484393533827 -25.360955583110282 -11.002574041153508 187 149 122 255
22.126670652275379 -24.836460614901924 -11.633970513831230 187 146 121 255
21.766443099354973 -24.345720477554337 -12.354271607464852 185 144 122 255
21.224583394982361 -23.980025780765985 -13.430302293148799 177 136 114 255
21.045953265821936 -23.377434637971930 -13.794724948327911 176 134 111 255
20.958135771969140 -22.715670945656981 -13.981247411679476 161 121 98 255
21.233588852349868 -21.807281010489689 -13.456278468198235 149 113 87 255
21.554472700632445 -20.864472127791885 -12.842419176382180 137 105 77 255
21.875380433226184 -19.917942384141440 -12.228608142174778 127 100 71 255
22.060076954166462 -19.063032651366171 -11.881621927767469 117 90 61 255
22.335617491467787 -18.141911349445138 -11.356820659921766 108 83 53 255
22.565766941782783 -17.249918946815399 -10.920980901614797 101 78 47 255
22.886768175062826 -16.290087269437052 -10.307346004706915 95 72 41 255
22.980713632424170 -15.490820594012987 -10.138323108674712 92 70 41 255
23.301762230228761 -14.524852598114421 -9.524771352443025 91 71 42 255
23.441163259366277 -13.688738412415233 -9.266893713767814 90 70 43 255
23.671422602298009 -12.783687279545774 -8.831234943037288 85 66 39 255
23.629179406968930 -12.079599660276443 -8.929010951809488 80 63 36 255
23.904901831349378 -11.136592425709935 -8.404511991769510 74 57 31 255
24.453191523161053 -9.983473964732312 -7.346699572735162 65 48 19 255
24.683551019967211 -9.067132859100084 -6.911199569769337 50 35 8 255
24.686807610273945 -8.323190355731754 -6.920170946004504 53 41 11 255
24.326663271026007 -7.861557658219297 -7.640214937445563 87 83 50 255
24.102799069575482 -7.297549718155153 -8.093573548850003 103 91 62 255
23.788079566425210 -6.807879428112244 -8.724660047642317 104 89 59 255
23.518789448951310 -6.285862190823977 -9.266834639071732 99 84 55 255
23.431227841299759 -5.621574987739507 -9.453496697482052 97 82 53 255
23.298245001175303 -4.994968621476517 -9.729020386102860 92 75 47 255
23.301574317003158 -4.259210697570140 -9.737941461844969 89 69 42 255
23.259485709568764 -3.560581296102441 -9.835731225752767 86 65 38 255
23.308285799846317 -2.787537200050352 -9.755808770847722 83 66 38 255
23.493420344430319 -1.900733238255341 -9.409340223438960 80 65 39 255
23.724022854191134 -0.973710263676992 -8.974056536550364 70 58 32 255
24.616004774690182 -25.882698728858060 -8.353528163044331 188 154 125 255
23.614696146547786 -25.781469415626688 -10.316975883628032 191 156 129 255
23.298103728982468 -25.251997524316209 -10.947629625249760 189 150 124 255
23.118456769151507 -24.637538413868668 -11.311718874870877 190 147 123 255
22.801848853830876 -24.114986552644822 -11.942295762470906 186 144 122 255
22.302616646265022 -23.716927347376341 -12.928165476449493 177 136 114 255
21.985987047424871 -23.203169985431614 -13.558643805854587 168 126 102 255
21.943285729911224 -22.509072453041512 -13.656114582778457 151 111 86 255
22.265847260876427 -21.567833136777892 -13.042987433175824 141 106 78 255
22.634090690024280 -20.591637666886953 -12.341087333252233 126 94 65 255
23.048019840776377 -19.579672614929251 -11.550424209439115 113 86 58 255
23.324996568857358 -18.658238205574833 -11.026266442080242 105 78 50 255
23.419349736183420 -17.861808512155662 -10.857396651591273 98 73 44 255
23.468054609078209 -17.096663718413112 -10.777351901109483 96 73 42 255
23.790755301618262 -16.135491965782620 -10.164488264872887 93 70 40 255
23.885157704831357 -15.334869447817098 -9.995682805545130 90 69 40 255
24.207906577664829 -14.367560510770616 -9.382902682452993 90 69 40 255
24.302346869657470 -13.563490499828617 -9.214148961656321 89 68 41 255
24.351135606639815 -12.792031910635714 -9.134205419286360 86 66 39 255
24.262930745925487 -12.121864346520994 -9.320640114576634 81 64 37 255
24.631441454128606 -11.110715615362949 -8.619212473160616 75 58 32 255
25.228343579546305 -9.922871169236331 -7.473931377189075 70 56 28 255
25.596924998442773 -8.901748499528651 -6.772636074266217 56 45 17 255
25.737168894282675 -8.051389729309619 -6.515278210842524 37 43 9 255
25.241223016164795 -6.950245025780262 -7.509719598078618 73 76 43 255
24.742027207826595 -6.601143204942957 -8.495110703901418 90 79 49 255
24.288500760542604 -6.221855912396748 -9.391675049945235 92 77 48 255
24.109048026329404 -5.629736805998547 -9.755625094720671 105 89 60 255
23.883921843884778 -5.076374658674027 -10.208313440627137 99 79 52 255
24.024261563716678 -4.230419077762363 -9.950953795745903 88 68 41 255
23.981892068154707 -3.531496833624757 -10.048621283616768 86 65 38 255
24.076593859705440 -2.720719450621260 -9.880051949032293 85 67 40 255
24.125633778414326 -1.946514030473580 -9.800248161407836 82 67 41 255
24.357445711505051 -1.019754372779616 -9.365501042933374 73 58 32 255
24.288568294181914 -26.525003600762830 -10.609911240785152 185 152 122 255
24.199676592875250 -25.848149983079281 -10.796107282690372 189 154 126 255
24.018987430585597 -25.231154717176963 -11.159757493225158 190 148 123 255
23.746494795221039 -24.675635276262270 -11.700842843237552 191 146 123 255
23.565798764796511 -24.063668115699812 -12.064439169966334 185 143 121 255
23.293295770078146 -23.514249599927524 -12.605458236056791 175 134 111 255
23.296209230906044 -22.785593740679914 -12.614122115770812 162 120 96 255
23.299130413604672 -22.057007713586827 -12.622788732506336 148 106 82 255
23.531589036742702 -21.173660824971449 -12.187891150554151 138 103 75 255
23.672253275822655 -20.350146879620169 -11.930449365916843 122 90 62 255
24.134289401623803 -19.304533839960214 -11.052081307052191 109 82 55 255
24.183174802363126 -18.539553754836064 -10.972115381385407 103 76 49 255
24.323892903553698 -17.709993500323506 -10.714758724648618 97 71 44 255
24.235071454951637 -17.040435509569164 -10.900912348630357 95 71 43 255
24.421731209477471 -16.176488137209830 -10.554892803700852 92 68 40 255
24.470670634115891 -15.408983473884177 -10.474976482155881 90 69 40 255
24.749197565492636 -14.475347047691571 -9.951633215776440 90 69 40 255
24.890002975496344 -13.638683892167947 -9.694387278894936 88 68 41 255
24.984911128750838 -12.834088841766985 -9.525847464168720 86 66 39 255
25.033919158334811 -12.062366509508635 -9.446004360730598 81 64 37 255
25.450296802493909 -11.016482615670554 -8.656775749773033 76 60 34 255
25.866709362062338 -9.965748757875801 -7.867611727131049 63 52 24 255
26.558686279125695 -8.701695583468705 -6.546502944949168 55 49 17 255
26.020421857548953 -6.143720399596504 -7.646295098684931 44 32 7 255
25.242898771516835 -6.013528633739455 -9.162342588244655 85 66 39 255
25.062423570123059 -5.419758653654384 -9.525853445056299 102 82 55 255
24.744168285531714 -4.938008299511552 -10.155283440053864 99 78 51 255
24.885223674212114 -4.090961557472795 -9.898253910074544 92 71 44 255
24.796645350763868 -3.428108549761276 -10.084448162465094 88 67 40 255
24.937748408052741 -2.579062852607905 -9.827460090318624 87 67 40 255
24.895141227252324 -1.879184252598321 -9.925031270927434 83 67 42 255
24.944423954179626 -1.103808452360980 -9.845347570676040 70 57 31 255
24.672171998674443 -0.595584855907518 -10.386062186511481 27 37 3 255
25.149950841238791 -26.418392478749666 -10.557066814575023 186 159 126 255
24.875926250988869 -25.856730564646583 -11.097531216814417 189 152 125 255
24.786487609747141 -25.181031702660121 -11.283471730006994 193 152 127 255
24.327857316573869 -24.743392449326535 -12.178350283228497 196 152 129 255
24.238414910445982 -24.072180493472061 -12.364243766394054 186 145 123 255
24.195126827735521 -23.371973691897068 -12.461514679400182 176 134 111 255
24.428758690387525 -22.489847206276053 -12.027127859300862 162 117 94 255
24.523948949499982 -21.697166376827127 -11.858593400406221 147 105 81 255
24.526843039054796 -20.965395765809120 -11.867280125671044 139 101 74 255
24.529746226467083 -20.233687125133585 -11.875970280914032 123 90 62 255
24.809599048584786 -19.313023041457029 -11.353087054222442 111 84 57 255
24.951001592742159 -18.484489851347533 -11.096025180133807 103 76 49 255
25.230897695201918 -17.558260317697943 -10.573217503100210 98 72 45 255
25.187698406653496 -16.855021578174444 -10.670558650935391 96 72 44 255
25.236830522957732 -16.087199795822471 -10.590731447605918 92 68 40 255
25.332138980986500 -15.286022847992626 -10.422335563087643 88 67 38 255
25.427464375969549 -14.483798196691666 -10.253957819697462 89 68 39 255
25.661300176394690 -13.580346191975281 -9.819877474478062 87 66 39 255
25.802829774768469 -12.741540707928252 -9.562976075666768 84 64 37 255
25.898213601269759 -11.935064624587483 -9.394667355750215 80 63 36 255
26.316790120450463 -10.888112581343407 -8.606429924999020 76 59 33 255
26.550726881903330 -9.974194305821371 -8.172500381847669 68 54 25 255
27.477239372859202 -8.536464839343395 -6.410247041710988 48 45 10 255
26.843512318930792 -6.044621128046487 -7.685795816065024 40 25 0 255
25.969382253253698 -5.985728683150199 -9.377037476907049 75 54 27 255
25.649348652104194 -5.500736721583252 -10.005707361533325 95 74 47 255
25.514029926371876 -4.872963747927770 -10.280201370630550 102 78 52 255
25.655799051289961 -4.025364667900831 -10.023495647727515 94 70 44 255
25.705234862209267 -3.250433864215580 -9.943875703244942 92 68 42 255
25.847057108501900 -2.400024732168774 -9.687222067494844 88 68 41 255
25.804176857649423 -1.698770078770792 -9.784685406368368 82 66 41 255
25.622764157794279 -1.111923164137863 -10.147708297984195 68 57 30 255
26.245266612207487 -26.167871710049596 -10.062508401921633 181 164 127 255
25.691332487900326 -25.778161234669980 -11.133398362226899 194 155 129 255
25.415761445844254 -25.218991632631443 -11.673148077004271 197 155 130 255
25.140184647610482 -24.663147674322275 -12.212861611388718 195 156 131 255
25.096597602292007 -23.961231301933410 -12.310016509310628 187 146 124 255
25.238616295993808 -23.139335846783069 -12.053162258887113 177 134 112 255
25.287847127127591 -22.376730753621700 -11.973326340546066 164 119 96 255
25.197882180621690 -21.705721950923447 -12.158984792040428 149 107 83 255
25.154325292098022 -21.004899595666700 -12.256142077797591 138 100 74 255
25.203584344934370 -20.242220518457984 -12.176319490095125 125 90 63 255
25.438476785018167 -19.353062548925422 -11.742565778061163 111 83 59 255
25.626984007374986 -18.493027314612803 -11.397330397692343 106 78 54 255
25.769103376815238 -17.662920709574436 -11.140604028492675 100 74 49 255
25.772015228441674 -16.928166262451768 -11.149328832240286 96 72 46 255
25.774939180886889 -16.193452347213238 -11.158058621546729 92 68 42 255
26.056339695645264 -15.261681855279861 -10.635977702572177 88 67 38 255
26.198531113981119 -14.426059895042499 -10.379339203359166 89 68 39 255
26.479981229335152 -13.488679608207661 -9.857337100188715 87 66 39 255
26.622216906876048 -12.649057727141894 -9.600758763472982 82 62 35 255
26.857303994030076 -11.739976780531308 -9.167293207793278 77 60 33 255
27.278081956123117 -10.691416196485463 -8.380053564169344 74 57 31 255
27.559644064460088 -9.741408408379073 -7.858229026389381 65 52 24 255
28.676766441205615 -8.162881676569512 -5.744408091794980 41 47 9 255
28.639775933245232 -5.944494222806853 -5.859831841269511 18 18 0 255
27.435960453117630 -6.124667154380930 -8.168121644796145 55 36 9 255
26.789193026790230 -5.885799427586321 -9.415084311480939 82 57 31 255
26.606664911406469 -5.290883601716970 -9.777691443805338 102 76 51 255
26.377721359564049 -4.734714166234468 -10.228706163418423 104 79 54 255
26.427352020084157 -3.959815860144232 -10.149172765530039 100 75 49 255
26.523435031832591 -3.147158107107884 -9.981238263526677 92 67 41 255
26.712404440127941 -2.258487456427929 -9.636498384620182 84 63 36 255
26.669250405176598 -1.556125557989802 -9.733850846414015 77 60 35 255
26.579684716276631 -0.892207905833658 -9.919615635878273 63 54 27 255
27.254513956579402 -25.234623464100693 -9.755464178108127 192 160 128 255
26.744191370531439 -24.816969334793754 -10.736587224695540 200 158 133 255
26.093913286158610 -24.494159132974360 -11.982833088804540 195 158 132 255
26.143330287738735 -23.730858225552907 -11.903087208811371 188 146 124 255
26.006162257735951 -23.087676178860065 -12.176912439886223 179 134 113 255
25.915646351113026 -22.415771315931437 -12.362334298873776 166 121 98 255
25.825135313608300 -21.745015418378671 -12.547746715618615 153 111 87 255
25.781281487267833 -21.044448612152038 -12.644769026600358 139 101 75 255
25.924047140944950 -20.219579010882498 -12.388277874727805 127 93 66 255
25.973521683657324 -19.456138211296050 -12.308559063813590 114 86 62 255
26.209629250049289 -18.565146713451412 -11.875365656779962 109 81 57 255
26.399102843596012 -17.703540160408380 -11.530577021909181 103 77 52 255
26.541939896393473 -16.872124272488961 -11.274183870461087 97 73 47 255
26.591479685173226 -16.104280251783180 -11.194538655543994 93 69 43 255
26.827671592332393 -15.204549386071491 -10.761471185638385 88 67 38 255
27.110548187984463 -14.269034805484992 -10.240086231098132 89 68 39 255
27.346790633601131 -13.363693007254213 -9.807098006647323 87 66 39 255
27.489733919002759 -12.522984147305465 -9.550846148513472 83 63 36 255
27.819353174404682 -11.544971558522079 -8.941237420984237 76 59 32 255
28.149003722146119 -10.563191801063084 -8.331680722040574 75 58 32 255
28.572017617337281 -9.508709841743240 -7.545497835231515 61 50 23 255
29.191038289497811 -6.059673582530351 -6.432933456285298 29 18 0 255
27.980724838019512 -6.240554883988366 -8.738318933768824 61 39 14 255
27.563803345477453 -5.822011142622969 -9.542106775725784 89 63 38 255
27.286902533827558 -5.299229001142891 -10.080895816945855 104 78 53 255
27.150033143835429 -4.669773297439875 -10.354715459687867 105 79 54 255
27.153206054419911 -3.931208524847150 -10.363595171290171 102 76 51 255
27.296432289050145 -3.081098762901760 -10.107564487722158 90 64 39 255
27.393010221562292 -2.266743247048993 -9.939867809765417 80 58 33 255
27.442936967112274 -1.488945119547481 -9.860495733427740 72 55 31 255
27.492890172568110 -0.710533576706240 -9.781141654523594 59 50 22 255
28.780221315553206 -24.720323859661391 -8.470020239070067 188 166 128 255
28.032658608974259 -24.444422684476393 -9.891404667784855 198 157 131 255
27.472653171276733 -24.058841573120034 -10.959545952781610 197 157 132 255
27.100217416857021 -23.560333976893659 -11.674482443613385 192 147 128 255
26.821568901968860 -23.005939082589236 -12.212811785119442 183 136 118 255
26.402221777319369 -22.546095268820153 -13.015935582642982 168 123 104 255
26.264262739796877 -21.907084674966526 -13.289365974475970 153 110 91 255
26.454611001078945 -21.053089419485900 -12.944890385133675 142 103 82 255
26.644977849253110 -20.196994301484963 -12.600444307258698 132 96 74 255
26.600851165404308 -19.496259289777797 -12.697346662940618 121 89 64 255
26.744348238574702 -18.669065649165674 -12.441205109828360 114 83 58 255
26.887863583078286 -17.840300312909449 -12.185087589039995 106 77 51 255
27.125209062136108 -16.945353845484163 -11.752486088942561 101 75 48 255
27.221858123262891 -16.145465110809837 -11.584674901115648 99 73 46 255
27.365432879217963 -15.311689113944780 -11.328634514617562 95 74 45 255
27.743572188796406 -14.310762053496958 -10.631396537201795 92 71 42 255
28.027923675187083 -13.372306645662718 -10.110698897488163 89 69 42 255
28.265392559360805 -12.464285333674610 -9.678284572485467 86 66 39 255
28.596712214546869 -11.485736732462442 -9.069439397897753 81 64 37 255
28.881150627473488 -10.537612203935197 -8.548878245676718 76 59 33 255
29.447104139967223 -9.379483635135585 -7.498992004915237 64 51 25 255
30.576084316880014 -7.798097883257526 -5.390486851415346 33 41 4 255
29.506197250684863 -6.352581248345686 -7.446439649416220 41 22 2 255
28.711657854670960 -6.213218295855071 -8.954992995403558 67 40 20 255
28.386308897474436 -5.722191846906199 -9.581353984794021 87 59 37 255
28.107887523989149 -5.198558103572196 -10.119473680404042 104 76 54 255
27.923320621733581 -4.604880377155382 -10.481159291177704 107 79 57 255
27.926463895391834 -3.865751090354010 -10.490031494778378 102 74 52 255
28.070406396964984 -3.015085267562924 -10.234325784248114 90 62 40 255
28.120526726222721 -2.237600842528764 -10.155036847817684 80 55 33 255
28.123746209555321 -1.497210127489410 -10.163955779929410 74 52 31 255
28.173919660347991 -0.718774474268614 -10.084700142652224 55 46 20 255
30.220564055337121 -24.264311901007474 -7.364914472300342 180 168 126 255
29.138985569560276 -24.189328843571431 -9.401801893753287 196 161 133 255
28.481667313218992 -23.860465946385872 -10.644970025364046 197 158 133 255
27.965765261623488 -23.449639042734702 -11.623536421810201 193 149 130 255
27.449850280870464 -23.044830331365262 -12.602036224792158 185 138 120 255
27.311099906680226 -22.402759996621768 -12.875144719957007 172 127 108 255
27.360945917585752 -21.639659815275323 -12.795588087946697 157 114 95 255
27.693699076231610 -20.690386196246820 -12.187086153922081 146 107 86 255
27.743576397110957 -19.924709451201792 -12.107569524314016 135 99 77 255
27.510560403693091 -19.347485998253575 -12.556981320818238 126 93 68 255
27.466154983916766 -18.645976152907437 -12.653767231762941 119 87 62 255
27.657525993561251 -17.784906348218229 -12.309819148006738 110 81 54 255
27.990380922372481 -16.824821847371354 -11.701471859967370 102 76 49 255
28.276108779009604 -15.893566453998687 -11.181315110418495 98 72 45 255
28.326082175090590 -15.123302800203987 -11.101887678817292 97 76 47 255
28.517544496240589 -14.253201417612374 -10.758071593656211 92 71 42 255
28.614714103879720 -13.447723936161793 -10.590548983435923 89 68 41 255
29.042019721940903 -12.405643898850784 -9.806154238939797 87 67 40 255
29.233558997471704 -11.528315281548601 -9.462445513741073 84 67 40 255
29.519447201899908 -10.580459895070163 -8.942528040894757 77 60 34 255
29.994016530354685 -9.491535864370903 -8.070185764567782 66 52 26 255
31.128916894855195 -7.911013796437004 -5.964311438618068 39 42 9 255
31.323637559689303 -6.262886726037266 -5.629812007404354 13 18 1 255
29.911694773981424 -6.574402424138910 -8.281954702065718 56 30 11 255
29.395899240087630 -6.221734231395828 -9.259980750717318 73 45 24 255
29.021608474070575 -5.766740321854869 -9.973650356787289 93 65 43 255
28.694492454089982 -5.279681544690888 -10.599183385555136 106 78 56 255
28.461726351011635 -4.723124295900917 -11.048497713661789 106 78 56 255
28.417662423894541 -4.021667108234880 -11.145435349270628 102 74 52 255
28.703835837700808 -3.060590521998890 -10.625778672372263 87 59 37 255
28.706999123782992 -2.320780036240521 -10.634666683874599 80 55 33 255
28.804539803259956 -1.505506018515803 -10.467408537180120 72 51 30 255
28.713402774156805 -0.840948941421487 -10.652479196562979 48 39 13 255
30.012793881899285 -24.080974524194318 -9.354515201691953 197 164 135 255
29.399342230200148 -23.721379634981730 -10.508058325865420 196 157 133 255
28.880661802387777 -23.309155771531891 -11.485400083528447 193 148 129 255
28.361969225386900 -22.902949740039958 -12.462675599123912 185 139 120 255
28.127639707481279 -22.320319972281538 -12.911556395858412 173 128 109 255
28.177691298287044 -21.556400638381916 -12.832099702679756 160 117 98 255
28.606937688918208 -20.544434111685717 -12.048265892814129 147 109 88 255
28.562225849218123 -19.839829711001030 -12.144946462515918 137 101 79 255
28.375324864364643 -19.230279830456439 -12.505751834037596 129 95 70 255
28.378031414586616 -18.495915943632085 -12.514381155121100 120 88 63 255
28.617759752381488 -17.601467671042727 -12.082837033830259 115 85 59 255
28.904914629765301 -16.672066300783186 -11.563297791961787 107 80 53 255
29.144692273785864 -15.772030114855639 -11.131832134060033 101 75 48 255
29.194876072063806 -15.000672850453469 -11.052509565431649 97 74 46 255
29.245077559321970 -14.228804881265887 -10.973200045510538 96 75 46 255
29.200483754993400 -13.523173272171618 -11.069943624626347 90 69 42 255
29.677390964635720 -12.447996728531706 -10.198504756262309 88 68 41 255
30.059518706128699 -11.435268066413443 -9.503164333991947 86 69 42 255
30.346861516806825 -10.486601582592101 -8.983903605734753 77 61 35 255
30.729057770765991 -9.465789334527656 -8.288675435114186 64 52 26 255
31.680234957933493 -8.023952553954658 -6.537460537811597 44 42 12 255
31.449141089800520 -6.694798260835498 -6.995329472097069 12 10 0 255
30.409020552753475 -6.725154722921701 -8.940142626466184 63 36 17 255
30.032703230633643 -6.266092687855917 -9.652949796855154 78 50 29 255
29.751225961297138 -5.739169197080940 -10.189740250963297 99 71 49 255
29.422340156064649 -5.251793425994052 -10.814487412557185 107 79 57 255
29.235721673626415 -4.658309971918797 -11.175256348280357 107 79 57 255
29.143960307492563 -3.993167923932660 -11.360054555206801 99 71 49 255
29.289329226163403 -3.143276760999299 -11.104976992885270 86 58 36 255
29.387307703083792 -2.329128675079161 -10.937902660896185 76 54 31 255
29.437893027974809 -1.551526886446652 -10.858822232289725 70 49 28 255
29.393657038700866 -0.849239537564443 -10.955691543635396 45 38 11 255
30.650351291342730 -24.119310497813643 -9.747881037215166 194 163 133 255
30.224184282133280 -23.641562760470904 -10.548145105277825 195 155 131 255
29.512154069592526 -23.347932379644391 -11.876057279046591 192 147 128 255
29.133609195753934 -22.851550651962725 -12.588248488826878 184 137 119 255
28.993281318445639 -22.207546501163094 -12.860673189196206 172 127 108 255
29.091185353688815 -21.411864467070458 -12.693379021151259 159 116 97 255
29.427336338494086 -20.460449721695952 -12.086413673243158 147 109 88 255
29.382334143946622 -19.755018056923959 -12.182973147771719 140 104 82 255
29.242045916461421 -19.113147563943940 -12.455393960336181 128 94 69 255
29.292362077794138 -18.345935475837948 -12.376088509315878 122 88 63 255
29.580945269849764 -17.418114613896847 -11.857170116585564 115 84 59 255
29.821903418183524 -16.519389380484910 -11.426217544368711 108 81 54 255
30.110538758262066 -15.585439455625391 -10.907384351734919 103 77 50 255
30.113282231015631 -14.845280921777430 -10.916088704412289 99 77 48 255
30.116042007728424 -14.105150938178980 -10.924800037752647 96 75 46 255
29.975852904434561 -13.465162884262540 -11.197246018772262 92 72 45 255
30.407550746536543 -12.423101303821539 -10.414809391678062 89 69 42 255
30.839285239743930 -11.376195171791537 -9.632438072066208 84 67 41 255
31.175740512549538 -10.392804305546051 -9.025931591902491 77 61 35 255
31.512229943094809 -9.405638141691810 -8.419478500046552 70 56 30 255
32.277698260592842 -8.102191022916983 -7.022040684545317 50 41 14 255
32.471283457155806 -7.210005093784858 -6.679394317969781 76 79 48 255
31.806973005735529 -6.950363421953739 -7.918745276386801 24 13 0 255
31.094991464016402 -6.733791963623716 -9.245900276940176 65 38 19 255
30.764318241871450 -6.238877876139043 -9.869926699713176 83 55 34 255
30.433653409950892 -5.747711805714943 -10.493918980225516 104 76 54 255
30.198331230541527 -5.187604350286790 -10.942129547468539 109 81 59 255
30.010690831494031 -4.593541557394119 -11.302448710159950 106 78 56 255
29.918405201885179 -3.927825690395679 -11.487018970410332 98 70 48 255
30.016822112379145 -3.114527088369741 -11.320131530948430 88 61 39 255
30.019927615093195 -2.374929503196242 -11.328991627436324 76 56 32 255
30.118405623842648 -1.559879220111668 -11.162149134185967 66 50 27 255
30.169242772194480 -0.781634585993885 -11.083187480403154 41 36 9 255
31.670487190220655 -23.923139030136653 -9.438241544736485 192 160 131 255
31.242041533234243 -23.443459655639813 -10.237509185706841 194 152 129 255
30.382567839350912 -23.237455821666956 -11.827278556857891 188 143 124 255
29.858315307434196 -22.830344056288013 -12.802084282191487 179 132 114 255
29.621411031911208 -22.246846758699604 -13.249825873710279 166 121 102 255
29.767660513232300 -21.420758475134178 -12.994900328712646 158 115 96 255
30.057612290812642 -20.500292576358589 -12.476517789129389 145 107 86 255
30.012316497629001 -19.795113226923007 -12.572943810364166 137 101 79 255
29.967031803308799 -19.090528210733069 -12.669368772879011 127 93 68 255
30.209145815065426 -18.196034288200806 -12.238888782496275 123 89 64 255
30.499182577530974 -17.266866577235646 -11.720632087631344 118 87 61 255
30.645546630561142 -16.431370177876218 -11.465852717812680 112 84 57 255
30.696130654058152 -15.659410682634416 -11.386714679461932 108 81 54 255
30.746732912632069 -14.886943880359297 -11.307589898956792 104 80 52 255
30.797354073828984 -14.113965080987782 -11.228478721332181 97 76 47 255
30.847994809744762 -13.340469476884195 -11.149381494839901 94 73 46 255
31.138179470893789 -12.398254913455460 -10.631322612768656 91 71 44 255
31.572112421398316 -11.351086398837325 -9.849934142825646 84 67 41 255
31.910269797096220 -10.367425961597476 -9.244189281888140 80 63 37 255
32.296369684114211 -9.345540256864126 -8.550712423468127 75 55 31 255
32.730416019559925 -8.284614109381906 -7.769513562340677 63 46 22 255
32.685404259192723 -7.568711040242448 -7.866174611653065 24 15 0 255
32.352947481336543 -7.064887076955770 -8.489495880192464 37 20 0 255
31.828851255996710 -6.706937372757409 -9.463874390133327 67 39 20 255
31.448494590984694 -6.247504041062086 -10.174884343989987 89 61 40 255
31.163973455300635 -5.720220623846842 -10.710321306854695 107 79 57 255
31.023210040816878 -5.087122899678079 -10.982441583152053 108 80 58 255
31.026214727609499 -4.345775150107627 -10.991274419948240 106 78 56 255
30.885493662767573 -3.715013034235128 -11.263389970958542 98 70 48 255
30.840630101288724 -3.011516997362975 -11.359991691646286 88 61 38 255
30.795792128938132 -2.308497803100025 -11.456600001737655 79 59 35 255
30.846821973250712 -1.530571353705938 -11.377721046749429 65 49 26 255
30.849961436741950 -0.789986861757455 -11.386606260053611 37 32 4 255
32.645926765981699 -23.756380612466359 -9.217870455095465 187 163 130 255
32.070785343036675 -23.363797031967280 -10.279334032193702 193 150 129 255
31.158652918643696 -23.186767619708263 -11.954826144328251 188 141 123 255
30.727903512407636 -22.718814461733089 -12.752948119714233 175 130 111 255
30.634140217857208 -22.043018222879567 -12.936961440074896 166 121 102 255
30.684812621308680 -21.276368477291854 -12.857809138226884 156 113 94 255
30.928073270663248 -20.385494173537865 -12.427803798960355 146 105 85 255
30.834344811496777 -19.710422950021922 -12.611825322825609 138 100 79 255
30.836916958001297 -18.973532386950836 -12.620420257459926 128 94 69 255
30.983942384337610 -18.141451609902106 -12.365901242158031 121 89 64 255
31.082841035889970 -17.339812704928448 -12.199110739886379 118 89 62 255
31.229907305646293 -16.504848277204914 -11.944639081423873 115 88 61 255
31.232547804190887 -15.765970008054538 -11.953284582044688 110 83 56 255
31.427806027826762 -14.895817841407649 -11.611161439982567 105 79 52 255
31.623089600875488 -14.023533318003260 -11.269071152940910 100 74 47 255
31.866551454696605 -13.115745397442197 -10.839326476565901 96 72 46 255
31.965582650435039 -12.306184360330690 -10.672675143041118 94 72 45 255
32.112791661909739 -11.461649876439097 -10.418363856367307 89 68 43 255
32.500802924994730 -10.444622762101076 -9.725690090172264 85 64 39 255
33.033320027744338 -9.319940947535045 -8.770051793068745 80 61 37 255
33.421409811718746 -8.293465108368295 -8.077508538997364 69 51 28 255
33.231639874068890 -7.682491210612554 -8.437049161014329 29 10 0 255
32.897407226544971 -7.179429056545246 -9.059570945591986 47 23 7 255
32.466863383641680 -6.751176623931883 -9.857383297554890 68 41 22 255
32.132648040420349 -6.256165357946955 -10.479831422986024 96 68 46 255
31.846605617510647 -5.728835379634759 -11.014590579866876 108 77 56 255
31.705066883696816 -5.095699856935553 -11.286365556641215 107 76 55 255
31.659877544814663 -4.390928501148380 -11.382834917476629 103 75 53 255
31.614713421395351 -3.686646162967591 -11.479310578055419 96 68 46 255
31.521408420483709 -3.019991989740390 -11.663435828381779 87 61 38 255
31.572631528477785 -2.242107218192999 -11.584642620105029 73 57 32 255
31.768393543572870 -1.350554643099940 -11.242960401740476 63 50 25 255
31.675173955467812 -0.684498391540131 -11.427117690470567 32 30 2 255
32.755818050129477 -23.372952021442799 -10.584668144596947 194 149 131 255
32.080858590296714 -23.046583364224858 -11.819945611115088 188 141 123 255
31.938167762121537 -22.396499266594873 -12.091378226327720 177 130 112 255
31.747092636019602 -21.778497795131216 -12.450407952137482 167 122 103 255
31.701195868682646 -21.070732692483205 -12.546592160336161 156 113 94 255
31.752094208792727 -20.301702419915955 -12.467564655123482 145 104 84 255
31.706221707588668 -19.594595686848166 -12.563753028074245 137 98 77 255
31.660361405883179 -18.888082087448282 -12.659940845155660 129 94 70 255
31.856488420584640 -18.023440926620310 -12.318149357176765 123 91 67 255
31.810659180057172 -17.316750836826415 -12.414352806980304 118 90 64 255
32.006828016661814 -16.449224631595456 -12.072609126191537 114 87 61 255
31.815839432484523 -15.840000299437321 -12.431588722347271 110 83 56 255
32.157246170609483 -14.871911722971362 -11.827135219822253 105 79 52 255
32.208286681501164 -14.098629121204596 -11.748214082890229 100 74 47 255
32.598152325557180 -13.091286794817449 -11.056269216440256 96 72 46 255
32.649242071426897 -12.315073264233703 -10.977399655646764 96 72 46 255
32.748756731011781 -11.504428607434093 -10.810974830566863 90 69 44 255
33.090314286424444 -10.521846454024157 -10.206735064890637 87 65 41 255
33.577121366881187 -9.432158186494647 -9.339856800821821 80 62 38 255
34.063971210205551 -8.337067118173564 -8.473052211713934 74 56 32 255
33.873172492656352 -7.726324420773480 -8.832131808124331 36 15 0 255
33.391944085606411 -7.329240967450460 -9.716524915515549 56 30 15 255
33.007537223852353 -6.866489916230023 -10.425762594558790 72 45 26 255
32.719958634132070 -6.336445906576643 -10.959864272757102 106 75 54 255
32.626036650514095 -5.665358551062837 -11.143759245420057 110 79 58 255
32.435313720428752 -5.067976647604567 -11.502737587912435 108 77 56 255
32.341435636741267 -4.399504423515140 -11.686625701213956 100 72 50 255
32.199167618837066 -3.768932900657688 -11.958049605910389 94 67 44 255
32.202167328799334 -3.028496044521745 -11.966871016891872 85 61 37 255
32.205196865657626 -2.287994472877671 -11.975706380516868 72 56 30 255
32.450343411883097 -1.359008518606046 -11.546927095320882 61 49 23 255
32.308185292683476 -0.730864837009022 -11.818375459709358 30 28 1 255
33.538081739114091 -23.322997512874423 -10.714963092808830 191 148 127 255
33.297332551592177 -22.727384045565969 -11.161112867538776 187 140 122 255
33.202499663993819 -22.044185482351111 -11.344724121352897 177 130 112 255
32.961758506743422 -21.453305023332462 -11.790829637530948 168 123 104 255
32.672381195958849 -20.895849978118321 -12.324406400480910 157 112 93 255
32.528928308508455 -20.248906787525897 -12.595467499476712 145 102 83 255
32.434125453576229 -19.572440508604259 -12.779024096969096 137 96 76 255
32.436618495202424 -18.834166807293997 -12.787597742214160 131 94 72 255
32.341839987673552 -18.159421281449326 -12.971147802647039 127 92 70 255
32.393006719260143 -17.389769663985547 -12.892246241906889 121 91 67 255
32.590127719335669 -16.522777598747268 -12.550921691070300 116 88 64 255
32.641334986462681 -15.751310602926992 -12.472056552331509 111 83 59 255
33.033092163056182 -14.749594673585250 -11.780898170119855 107 81 54 255
33.132994842041654 -13.942124431349882 -11.614614260805439 103 77 50 255
33.330219011151570 -13.066875700635279 -11.273419162895294 98 74 48 255
33.284221202162229 -12.357632207878837 -11.369573263798657 94 70 44 255
33.384195458277532 -11.547240419796609 -11.203350797189756 90 68 43 255
33.776107164015372 -10.530756854582748 -10.512410576836231 87 65 41 255
34.265363117557143 -9.441075635349137 -9.646624088801104 80 60 36 255
34.657354492263721 -8.415409650336485 -8.955812200771049 74 53 30 255
34.416871911453256 -7.840146609273006 -9.401875151942136 36 13 0 255
33.933124454601284 -7.443813505071446 -10.285137539119034 58 32 17 255
33.595353226490033 -6.946299280852031 -10.906025546945955 78 49 31 255
33.403567997859199 -6.345168635609397 -11.264568146592808 115 84 63 255
33.406437763062371 -5.601926747463494 -11.273359972665304 112 81 60 255
33.166034845138341 -5.040291093686506 -11.719320703209178 109 78 57 255
33.071633422613047 -4.371511410309381 -11.902978589858435 97 69 47 255
32.977257045524254 -3.703759253842193 -12.086637257458136 91 64 42 255
33.174886388761649 -2.814192251609299 -11.745767531280848 83 60 36 255
33.177897662497116 -2.072036756788577 -11.754611469200938 70 55 29 255
33.326937214327160 -1.216770370243495 -11.501224814568218 60 48 22 255
33.038016115471748 -0.701350698077491 -12.034580110070124 28 26 1 255
34.174642949750506 -23.361832503838812 -11.107879722272855 189 150 128 255
33.981491642052333 -22.736613262017457 -11.466056721577502 188 139 122 255
33.983891275543840 -21.993161714441300 -11.474641055256228 181 133 115 255
33.644091154823911 -21.462482546229637 -12.094959681892277 169 124 105 255
33.450956707554298 -20.843679309691311 -12.453079348732075 159 114 95 255
33.257828884518801 -20.227096618961525 -12.811179524855390 146 103 84 255
33.113598432861238 -19.581533625231884 -13.081879991038534 137 96 76 255
33.164941682372955 -18.811775914157465 -13.003058204397462 131 95 73 255
33.069626828058716 -18.136735646922958 -13.186372109947001 126 91 69 255
33.121003281906042 -17.366798503704317 -13.107566941303645 123 92 68 255
33.319079964944876 -16.499530060417499 -12.766671281924744 119 89 65 255
33.566076627046982 -15.597589352831903 -12.338443523928305 115 85 61 255
33.764205718487204 -14.725795255494347 -11.997616974274365 109 83 56 255
33.864568765615559 -13.918039651214727 -11.831541207629925 104 78 51 255
33.916058393496570 -13.142580948510442 -11.752842307614827 99 75 49 255
34.016469349499545 -12.332971060289069 -11.586806643663039 95 71 45 255
34.165805284353155 -11.488395079104279 -11.333444080158699 89 67 42 255
34.559671217145109 -10.471372452283489 -10.643380614238453 86 64 40 255
34.855773486629232 -9.518903007245058 -10.128063790696245 81 59 36 255
35.151911739850021 -8.563188381393587 -9.612795811437167 74 52 29 255
34.910150824660860 -7.988961353292353 -10.058278336735867 37 14 0 255
34.423884308387443 -7.593647580162525 -10.940407280673242 64 36 22 255
34.084340010652852 -7.097161701327479 -11.560494358942265 94 65 47 255
33.940433933884805 -6.461282219449515 -11.831241573805130 116 85 64 255
33.943271687145113 -5.718819631037320 -11.840011250351949 114 83 62 255
33.652687831032949 -5.194272824904402 -12.372717446398042 108 77 56 255
33.606668085945728 -4.489938583787350 -12.468812146652567 96 68 46 255
33.609586981416356 -3.749224949508431 -12.477600323461502 87 60 37 255
33.906006427706131 -2.785634258170916 -11.962537323479410 81 57 33 255
34.055732762391557 -1.930955106334991 -11.709450940331351 68 53 27 255
34.058757118510982 -1.187611295360085 -11.718312722035705 60 48 22 255
33.817240659822318 -0.633920067117273 -12.163696674283671 23 21 0 255
34.761529987768910 -23.430280792896625 -11.587843321384213 185 151 127 255
