ply
format ascii 1.0
element vertex 657
property float x
property float y
property float z
property uchar red
property uchar green
property uchar blue
property uchar alpha
end_header
9.665799658265627 -13.060651187933814 -2.137266691415732 83 57 32 255
8.962110381673625 -12.034788446009003 -1.527941271395804 77 53 25 255
7.804918978450502 -10.789009816573966 -0.514541275594581 72 51 22 255
15.977835463531704 -3.909652335747879 -8.069909676384498 167 122 101 255
18.075057001277287 -4.357181663841786 -9.952464081819727 167 125 103 255
19.339862951086275 -4.371966695342337 -11.094077933525739 162 117 96 255
20.226336885649772 -4.190882470371633 -11.898891230245994 153 110 89 255
19.749735292900056 -3.273676218771627 -11.491124917839699 143 106 82 255
20.106267741105000 -2.809631523727788 -11.824355029684142 134 100 75 255
20.387145763817983 -2.306253994427195 -12.090202786891126 119 90 64 255
21.198470812051994 -2.099196575755940 -12.827626310392276 110 84 57 255
20.949155838462957 -1.305199200492922 -12.621847568438028 99 77 48 255
20.699800003870479 -0.509278458657363 -12.416030277642989 91 70 39 255
-2.863139247784318 -28.512276751981432 10.616179743802320 188 170 137 255
-0.109699282267655 -28.783137193480371 8.121191996673559 202 169 146 255
1.517597635135928 -28.654093760052518 6.638882247644716 208 174 152 255
3.070176795209505 -28.508739006814650 5.224048949465924 211 175 153 255
4.623151184056439 -28.374795292001551 3.809176595959144 210 174 152 255
5.800771716315694 -28.108213036490611 2.731866525219090 209 174 152 255
7.504808546286085 -28.053881624261038 1.181879709802388 202 167 145 255
9.058940918261982 -27.953326844824431 -0.233105014651017 202 168 145 255
10.538291027329791 -27.834541559553699 -1.580604278804373 211 176 154 255
10.965405707336856 -27.308150203775412 -1.982793017367158 211 176 154 255
11.392639930835315 -26.785034351098304 -2.384985402979538 205 173 150 255
11.819993801161758 -26.265189054332041 -2.787181077795537 198 166 140 255
12.623538017665339 -25.902106250119431 -3.527020434251341 194 156 129 255
13.126400629368646 -25.421106599081284 -3.996756662887663 190 150 124 255
13.403704113659785 -24.850183918470208 -4.263906088363427 188 146 121 255
13.229641196326014 -24.092374229276217 -4.125863119800272 181 139 114 255
13.206053377972580 -23.397047968821539 -4.122868631237708 174 133 108 255
13.107215951848929 -22.669671318475537 -4.052327338400147 169 129 103 255
13.309447079518321 -22.071026684169581 -4.251910851061126 160 120 95 255
13.060074287863557 -21.278452679712103 -4.046269924609703 151 113 86 255
12.584795252575049 -20.385661916776385 -3.637995280251801 141 105 78 255
11.808231375900959 -19.357088337104969 -2.959537044900230 132 97 69 255
11.182107216357423 -18.389883786770667 -2.416119483898200 115 83 55 255
10.555848250435048 -17.418322562281531 -1.872667042567116 106 76 48 255
10.306074314011767 -16.612097898616668 -1.666890464504064 100 70 42 255
9.980924245264504 -15.769994302509346 -1.393546433311258 89 64 34 255
9.881739499779513 -15.029115552207358 -1.322809580427503 86 61 31 255
9.933251014478259 -14.357135837702444 -1.387144465655069 85 60 30 255
9.834072070668185 -13.615587292305705 -1.316369327742677 85 60 30 255
9.960995577428463 -12.979295671935120 -1.448218303814741 84 57 30 255
9.560317749901088 -12.095076130645353 -1.107205549920764 78 55 29 255
9.385724468704751 -11.315558719753270 -0.968813383548337 72 52 25 255
7.703172124798527 -9.812831974632388 0.520647522199596 65 50 22 255
13.938788446606111 -3.266649612294202 -5.308823090469929 110 92 62 255
16.861521027362642 -4.139731458729784 -7.940553544268454 156 115 93 255
18.878472009848224 -4.548542972551331 -9.761483234557062 170 126 105 255
19.989316795600303 -4.483314771576417 -10.771561634137242 169 122 102 255
21.176004722815179 -4.466971598785307 -11.849231480355797 159 117 95 255
21.002761213049496 -3.716600515544656 -11.710516760358132 148 111 89 255
21.358537864610952 -3.255531714697227 -12.044823002811540 139 105 80 255
21.563245229424325 -2.713334267338411 -12.243952907422170 125 94 68 255
21.692424886071791 -2.130432578715229 -12.375479542336677 114 88 61 255
21.670445553686847 -1.463665657112259 -12.371814166921354 103 80 50 255
21.346026776881558 -0.626174854257755 -12.097776601695415 96 76 45 255
-0.586859886923492 -29.160355060901352 9.584355284058574 189 170 136 255
1.111249007595035 -29.049591061688943 8.029630266530745 200 167 144 255
2.435034906718215 -28.811318772809443 6.813508847672068 209 174 152 255
3.684201129604105 -28.554568963067268 5.665086139806903 208 173 151 255
4.783750433156882 -28.249983067664701 4.652097232994635 210 175 153 255
5.808606407113814 -27.924747504799413 3.706816432936591 209 174 152 255
7.583609972573925 -27.897958254185497 2.084176545975907 202 168 146 255
9.434062096328574 -27.913536700613221 0.393757956714666 201 171 146 255
10.909951595284156 -27.794548827609290 -0.958026882502850 209 177 154 255
11.636062134868553 -27.387471669198234 -1.632475783678274 210 178 157 255
12.212316612317409 -26.925503621628536 -2.171460278231393 207 175 152 255
12.638659949070444 -26.407019221842930 -2.574973288203608 203 168 145 255
13.290253246562315 -25.983909975709679 -3.181709837163709 196 159 138 255
13.942022031297284 -25.565680960379652 -3.788455075031465 193 153 132 255
14.143596826070137 -24.964866201986879 -3.988752451685457 190 149 127 255
14.044954067735489 -24.239626815419001 -3.918068744239633 189 147 123 255
14.096463460445051 -23.577418374124917 -3.982859738478027 185 143 119 255
14.223091083960043 -22.947802198454625 -4.115385737396707 180 138 115 255
14.575061117499104 -22.416230206487441 -4.451144403248236 171 129 105 255
14.251167007576129 -21.594003381442604 -4.177164058413695 164 121 97 255
14.002327495985611 -20.802461888889454 -3.970909193840185 156 115 90 255
13.978821707486645 -20.108677577958630 -3.967884458095114 149 110 84 255
13.729922893157607 -19.314652065910010 -3.761587913427888 140 103 77 255
13.105260910499766 -18.350600727484490 -3.216501976415969 124 90 65 255
12.104698915472483 -17.212465768864035 -2.332608166429679 115 82 57 255
11.780372180393158 -16.375186762267376 -2.058466197112608 103 72 47 255
11.155299121978771 -15.397754555671952 -1.513269454620627 94 64 38 255
10.454912084183263 -14.381183709468274 -0.900276840856833 88 61 34 255
9.829563280327591 -13.394705643912559 -0.355002517504943 87 61 34 255
9.429677848920733 -12.509713163743825 -0.012970446285323 86 62 34 255
9.556169491189422 -11.870891298061153 -0.145237984840691 81 60 31 255
9.833144716099582 -11.304731410756986 -0.413015851000353 76 55 26 255
9.057041141427305 -10.235156754447630 0.267916487568613 71 50 21 255
17.366346438759422 -4.169034884836279 -7.474824627145779 147 111 87 255
18.624985545409658 -4.173816335431084 -8.623627915830895 172 127 106 255
19.733185789819146 -4.106175702097104 -9.636876507515495 174 127 107 255
21.067837405423177 -4.169386012137011 -10.853503960211867 165 123 101 255
21.498053024689057 -3.747092743206395 -11.256675202928164 151 114 93 255
21.702170694423387 -3.203231939135875 -11.456459785658694 142 107 85 255
21.906357102805345 -2.660738946082049 -11.656222535375349 129 98 73 255
22.336886718287360 -2.245810330420653 -12.059345862622052 119 92 63 255
22.465803831128142 -1.664502353349334 -12.191272304320506 107 83 52 255
22.443886366971554 -0.998766388290150 -12.187577989703726 95 78 48 255
0.484999863480539 -29.369230032512348 9.629335283825924 189 170 136 255
1.880129185366684 -29.149765597483636 8.341433652326856 196 163 139 255
3.200838234993654 -28.912635302980561 7.121440544466111 205 170 148 255
4.297520528475388 -28.600470363325101 6.105245116220090 207 172 150 255
5.095294400700823 -28.182287189256883 5.360801317768448 209 174 152 255
6.117704264848044 -27.856555337563918 4.412507673389996 209 174 152 255
7.738918657923847 -27.771135153971031 2.920624366128010 203 169 147 255
9.809506271513243 -27.873790506967026 1.021019761384110 201 171 147 255
11.132264595702537 -27.695344935255079 -0.199153485272376 209 177 154 255
11.856606651573117 -27.287484098294115 -0.875760888846145 211 179 158 255
12.655996915733255 -26.915225694122427 -1.620329901289182 209 177 154 255
13.305873649982516 -26.488062976729495 -2.229008766006331 206 171 148 255
13.881054064444243 -26.035077789188193 -2.769743170305446 201 165 143 255
14.381510656624670 -25.555454843688395 -3.242529410916887 198 160 139 255
14.507653032710834 -24.923389053586334 -3.375543968096196 195 155 130 255
14.259343491635292 -24.134824572758689 -3.168769515263790 193 151 127 255
14.610262719109386 -23.598943475482344 -3.505632359262222 191 149 127 255
15.111121560302763 -23.129876002479875 -3.978409236361671 188 146 124 255
15.911830068968186 -22.793892272714729 -4.723025643095781 179 137 113 255
15.888449094825518 -22.105262356282466 -4.720085210253330 176 131 108 255
15.940025621861395 -21.449481706034376 -4.785091191419156 166 124 100 255
16.066587304297855 -20.827354791317148 -4.918046599477776 158 118 93 255
16.118233572579470 -20.172870280595490 -4.983026177096320 147 110 84 255
15.944990624431199 -19.417856072743277 -4.844095277120829 136 102 77 255
15.096881952276959 -18.356186660691577 -4.093443662253009 126 93 68 255
14.323576288681124 -17.322744375395501 -3.410715693748443 113 81 56 255
13.475100033741001 -16.249355929885084 -2.659976418254047 105 75 49 255
12.101367321104163 -14.926652411702491 -1.433400800755749 96 69 42 255
10.727319318828506 -13.594153287723472 -0.206761885827973 93 66 39 255
9.953180818927848 -12.534241972151065 0.476160848492043 91 66 38 255
10.154356813852957 -11.931242254740567 0.275469921610522 89 65 37 255
10.355601407518236 -11.329773734833964 0.074793071493104 83 61 32 255
9.205918009603067 -10.079852044760855 1.097703557990002 77 56 27 255
-5.056584862580621 -0.964111975043551 13.955928445374752 38 22 1 255
17.269297266797025 -3.876983087531471 -6.465555150361041 148 119 95 255
19.427371036189868 -4.365215103056968 -8.433926545622938 166 125 103 255
20.157006845307706 -4.095389542871274 -9.110369935570645 175 128 108 255
21.639021034642752 -4.240612658134992 -10.466815175325848 164 123 102 255
22.519592673568354 -4.066395373781376 -11.279272522740342 157 115 98 255
22.422324639231533 -3.358567426701399 -11.207690688054100 145 107 86 255
22.174564054941669 -2.566331006111184 -11.000064511576483 137 101 79 255
22.829815903489902 -2.277064254283246 -11.608471919843367 125 93 70 255
23.635771538188095 -2.077101610452573 -12.352888705511020 114 86 59 255
24.216124056100597 -1.754983860116567 -12.893277423682349 104 79 51 255
23.893263144259095 -0.922249298569355 -12.617527118646620 90 74 43 255
0.509830289759208 -29.193651614997307 10.625012633015444 189 170 137 255
2.647618406571212 -29.250028159640252 8.651506631179501 196 163 140 255
4.114469597053784 -29.070059077037470 7.291334390735926 202 167 145 255
5.059371025304927 -28.703002961011990 6.408214501669079 206 171 149 255
5.780639297778947 -28.257382040465970 5.729544622503056 208 173 151 255
6.726012781344878 -27.903683277345252 4.846390701249163 208 173 151 255
7.671636293015638 -27.557060828875663 3.963218685905929 203 170 147 255
9.588029702657877 -27.599200797297172 2.193955430166085 202 172 148 255
10.907596431572699 -27.418381850877637 0.969931227967720 211 179 156 255
12.078157952612287 -27.187522341536919 -0.117797667984263 210 178 157 255
12.800926803120547 -26.784311737810967 -0.796573395843296 208 176 153 255
13.897351907069719 -26.538736993967717 -1.816178410048678 206 172 148 255
14.545855418653133 -26.117019663911108 -2.426814302069431 202 166 144 255
15.119824985521319 -25.669200228490979 -2.969291231722707 200 161 139 255
15.170913861034080 -25.006954891535017 -3.034602419233380 195 155 130 255
15.147303405586200 -24.313736178616054 -3.031733834914945 196 154 130 255
15.646872325250911 -23.843060814642115 -3.506037018075943 196 154 132 255
16.221329074026443 -23.408225160122115 -4.048511869124354 193 151 129 255
17.094971207764900 -23.107028847999189 -4.863676478293229 188 146 124 255
17.445485002859584 -22.584088772162687 -5.201643086400736 182 137 116 255
17.571777769666284 -21.965215144520968 -5.335083228643811 174 131 109 255
17.698119572804700 -21.347397158824378 -5.468511503029021 164 122 100 255
17.600130601445983 -20.630393364066464 -5.397398583871791 150 111 88 255
17.651740986172058 -19.980177022134029 -5.462620778326482 141 106 82 255
17.030077846928918 -19.024889406683414 -4.914219680795298 133 99 74 255
16.408281393535049 -18.065231042834355 -4.365781197752653 122 90 65 255
15.636692070667692 -17.032210300356780 -3.680942635344707 115 83 58 255
15.089450696786002 -16.098012110099333 -3.200607092752279 106 76 50 255
13.943309583326737 -14.879700054662635 -2.174767235709680 102 75 48 255
12.871765923639259 -13.688508558531595 -1.217054785160997 102 76 49 255
12.398912678309927 -12.774253448885773 -0.804773343534180 100 74 47 255
12.000840071721683 -11.892508195878293 -0.460642068918901 97 72 44 255
11.378036987804308 -10.899620085618224 0.088089241583617 92 68 40 255
8.658077070042197 -8.883538696442159 2.546171272653481 83 59 31 255
-3.600752423730114 -1.432413632991171 13.668158912833405 41 24 4 255
18.374963496765815 -4.227688027536530 -6.544651950784015 138 116 89 255
21.053373429687099 -5.001579190071880 -8.996652978271158 166 125 103 255
21.181134557426503 -4.410354331578560 -9.129553884735344 174 127 107 255
22.059424804179542 -4.229878053380034 -9.944552203152966 163 122 102 255
23.613457389906301 -4.427029390118165 -11.373477027534364 155 114 96 255
23.816702974863148 -3.887737039432352 -11.574555975680966 147 108 87 255
24.245243052860474 -3.475229005620577 -11.980260862686180 138 103 81 255
24.523740564219338 -2.981558011139228 -12.249513552952294 129 97 74 255
25.327974561150342 -2.786228040063946 -12.996282067987778 119 91 64 255
25.456509261683181 -2.213001870377482 -13.129058192037547 109 84 57 255
25.509986457567095 -1.597671759248101 -13.193582516196813 94 76 46 255
25.788856951336129 -1.112076341201430 -13.462747076254431 84 73 40 255
0.536688656847872 -29.018083684381551 11.623206380918361 189 170 136 255
3.116000190455111 -29.239403173875203 9.233310220359556 197 163 140 255
4.058329491351657 -28.863403833110226 8.347413100276270 197 162 140 255
4.852014294996991 -28.437927439879132 7.598232813849876 205 170 148 255
5.794825976823773 -28.075565044287629 6.712301501133396 206 171 149 255
7.705945599322945 -28.095002049532980 4.937546549915083 208 173 151 255
8.277002828861839 -27.604835433199966 4.393420398805119 206 172 149 255
9.965484948305630 -27.559509607205086 2.823710629719045 205 175 151 255
11.281934309152888 -27.378477164637872 1.595827357771640 212 180 157 255
12.822235638818483 -27.296920882364105 0.162795169728639 209 177 156 255
13.692326310873597 -26.955165216091018 -0.654894851995579 206 174 151 255
14.711692231481237 -26.680809345279670 -1.609350656711740 206 171 148 255
15.209613484168671 -26.199031425995258 -2.085183506982986 203 167 143 255
15.484055769877983 -25.628096071883533 -2.355883389226989 198 159 136 255
15.758583360642973 -25.059333698388158 -2.626578244969920 197 157 132 255
16.256871109371843 -24.587315401997216 -3.102409170268800 200 158 134 255
16.606164839991379 -24.055489097918979 -3.441477603931361 199 157 135 255
17.104716003832607 -23.590491263316736 -3.917307416573578 196 153 134 255
17.603408250157628 -23.129265712973194 -4.393137199272559 191 149 127 255
18.251431717851091 -22.737018354910973 -5.005736548758961 189 144 123 255
18.675820609484049 -22.250985524238828 -5.413181274481957 178 133 112 255
19.100332519663311 -21.768168462273294 -5.820622562134020 167 125 103 255
18.927987123215757 -21.021234294775610 -5.680952694084652 156 115 93 255
18.830249981566226 -20.306868909764944 -5.609649674135738 144 108 84 255
18.508585268352164 -19.490051981348557 -5.333153484288630 135 99 75 255
18.186860906884021 -18.671024886250706 -5.056628752414639 128 94 69 255
17.566440368062217 -17.711795249144600 -4.506502513123593 121 89 64 255
17.319229245738683 -16.922014013891598 -4.298308340007992 117 85 60 255
16.773267615978142 -15.990395415157309 -3.816504218263987 112 82 56 255
16.003132713215876 -14.948996668661735 -3.129471754165280 109 82 55 255
15.606308689572643 -14.079997084160425 -2.784382372523226 107 80 53 255
14.985293765324400 -13.100661614840206 -2.234060734992141 104 78 51 255
13.542294202873563 -11.719604742061193 -0.931292393217575 104 78 51 255
12.173686900113779 -10.364557004662913 0.303145454990442 102 76 49 255
21.625886748674446 -5.071766566710238 -8.608265678636371 166 125 103 255
22.127661836061066 -4.684668032860529 -9.083709498654201 172 128 107 255
23.003965702765697 -4.506104851271189 -9.901261906221322 163 122 100 255
24.404705278236662 -4.622676874068617 -11.197795758841465 156 113 96 255
25.880699105383655 -4.790858557631566 -12.562778379135523 150 109 89 255
26.158606117088425 -4.300697086035882 -12.832926814454765 141 105 83 255
27.110819292811584 -4.191176425466850 -13.718924037719177 134 102 79 255
26.864532739578237 -3.410790041500022 -13.510018384252334 125 97 70 255
27.292588274274522 -3.012116612276387 -13.916966690581319 112 87 60 255
27.196190550068053 -2.316124471147276 -13.844853998915283 96 77 47 255
27.399588202985427 -1.791963163450518 -14.046446432078852 86 72 40 255
26.928438540634914 -0.878128319814252 -13.632070170986964 81 69 37 255
1.085314467695667 -29.034866826228765 12.143877202269664 189 169 136 255
2.916036081720449 -28.979105766291369 10.432281796901719 197 163 141 255
3.484688789169212 -28.460624554439406 9.886485437041244 198 163 141 255
5.019093987470853 -28.314275962992511 8.449142485741987 202 167 145 255
6.108184199693085 -28.007987283947855 7.423251783657264 205 170 148 255
8.163397761797796 -28.084628664898489 5.505773665952290 208 173 151 255
8.733055234889122 -27.594479799605125 4.959909447742518 207 174 151 255
10.417574306795842 -27.549229469886470 3.385277620895437 206 176 152 255
12.102529913336156 -27.516446577888615 1.810608977111343 211 179 156 255
13.713590001255625 -27.466216637865088 0.304489975962923 206 174 153 255
14.358631731687154 -27.035575980964637 -0.310028223380641 202 170 147 255
15.226902671962961 -26.701170944991574 -1.130317857139374 202 167 144 255
15.574888778057328 -26.158235653767733 -1.470493631377963 198 162 138 255
15.922979003874389 -25.618017990855492 -1.810666304733644 196 157 133 255
16.419929871241209 -25.143031442636158 -2.288018685089639 199 159 134 255
17.065796856231799 -24.734891232306992 -2.902556881826712 201 159 135 255
17.339859087002253 -24.172616589857157 -3.174130387073092 202 159 140 255
17.986036734136349 -23.772846076065093 -3.788671449363704 201 158 139 255
18.260317767535327 -23.216229848714974 -4.060235999406274 196 153 133 255
18.832382311631932 -22.792198053897295 -4.606181221939266 193 148 128 255
18.958006660122010 -22.175189095956384 -4.740537478341224 183 138 118 255
19.679222020650883 -21.824433037680222 -5.423675613845205 174 129 109 255
19.805020315739256 -21.211688190263303 -5.558013877705150 162 119 98 255
19.930869081499253 -20.599986401675096 -5.692337909571989 152 112 89 255
19.907828213982640 -19.921401442169781 -5.689441545843863 144 105 82 255
19.810322198258092 -19.208536688352552 -5.617921317442580 135 99 75 255
19.414858352668176 -18.357073876737886 -5.271957678192251 131 94 70 255
18.721327039971612 -17.363764139580553 -4.651535922478331 126 91 67 255
18.251166178485903 -16.470644362372127 -4.236893823032716 123 89 64 255
17.780910672635514 -15.574205904069231 -3.822215170283243 118 88 62 255
17.757711160241172 -14.887930365803030 -3.819158788972260 116 86 60 255
17.361856275333849 -14.022306161488814 -3.473023253544142 112 84 58 255
16.518666034864566 -12.937148582123399 -2.715177290283521 108 81 54 255
15.153424168073656 -11.591189937469267 -1.476984402178516 109 82 55 255
13.787870513938572 -10.235383323820784 -0.238721439806454 104 80 55 255
23.019287099677911 -5.586986858290246 -8.975697372280507 166 127 104 255
24.192259153300199 -5.569951507371300 -10.070357920413642 174 129 108 255
24.543767228725727 -5.110382507300244 -10.410031513989992 164 121 102 255
26.165545683378042 -5.354881942747980 -11.916526014722336 164 117 101 255
26.816321128511788 -5.071036527163784 -12.530740704067028 153 110 91 255
27.990410432932919 -5.084522261224791 -13.625431082022118 143 105 84 255
28.267897516588789 -4.601408398995716 -13.896427764491477 136 101 79 255
28.022216027452771 -3.823685590874035 -13.686894777564021 129 98 72 255
28.000780515658363 -3.171933277582724 -13.683251277797950 117 91 64 255
27.979364126457966 -2.519883151079341 -13.679570223679377 105 85 55 255
27.957967013143190 -1.867525119178680 -13.675850956588846 92 77 46 255
27.787015197068399 -1.127952959548281 -13.534793174111144 84 71 39 255
28.064823195366159 -0.649285694124544 -13.805597930428291 78 67 35 255
0.892795614958942 -28.776902515088821 13.351980838861380 194 166 136 255
1.163298559681778 -28.136015129532794 13.079638231430039 194 164 138 255
2.397136928001714 -27.861640271185180 11.913010023906565 196 166 142 255
4.668778493971274 -27.992604003875670 9.783264622563536 198 166 145 255
6.570432045069396 -27.997570572349431 7.997432851569101 204 172 151 255
8.769074954316324 -28.131971021957739 5.936380996262557 206 174 151 255
9.782151722299716 -27.816993773543331 4.976004898330842 204 172 147 255
11.685210306457265 -27.862096620695297 3.190054233320637 206 176 152 255
13.143850681783874 -27.743431226452088 1.816846472272374 207 176 153 255
14.380389496588407 -27.545868139345188 0.650005039112159 204 172 151 255
15.098061959888213 -27.146239542032703 -0.035262072645509 200 167 145 255
15.741751616702402 -26.721585997298533 -0.651736192053420 199 165 141 255
15.940486504170877 -26.117476916565948 -0.855405302616873 196 158 135 255
16.436081518150559 -25.638977066739272 -1.334277389049134 193 154 129 255
17.006025650876353 -25.195532667153984 -1.881953342227291 196 156 131 255
17.798779880420597 -24.851015301969838 -2.636045798576333 202 160 138 255
18.146395175898533 -24.321620277137285 -2.977310178098691 205 162 141 255
19.013760879578200 -24.019435448128718 -3.800218613443491 205 162 143 255
19.138918721711690 -23.400287669579583 -3.935054592129546 197 154 135 255
19.338380322190005 -22.814818516261695 -4.138686837410063 195 150 131 255
19.463648206956350 -22.198065378628939 -4.273497374731306 184 139 120 255
20.183141542838797 -21.847596278844733 -4.958786039336871 177 132 113 255
20.605708734921990 -21.368801610532230 -5.368827599773056 168 124 105 255
20.656949380320100 -20.724740338446125 -5.434794330055155 159 117 95 255
21.154019310612483 -20.284960342228572 -5.913632843193199 154 112 90 255
21.131072382398003 -19.609272301236771 -5.910754334228670 144 103 81 255
21.182458112843335 -18.968032631092896 -5.976671946717119 138 100 77 255
20.044646753295325 -17.770875186326165 -4.941475764140449 135 97 74 255
19.872944895774992 -17.021126274444597 -4.800876567787952 131 97 72 255
19.552531661266073 -16.199589885335072 -4.522608137108932 126 94 69 255
19.752541692704938 -15.624907251714973 -4.726060314559760 123 93 67 255
19.060260691950702 -14.621486281538935 -4.103617539114595 121 91 65 255
18.665322177520665 -13.757607061769164 -3.756425675700683 117 87 61 255
17.675254968764875 -12.599746119787454 -2.858591280820775 113 86 59 255
17.652048898791207 -11.911414713014793 -2.855447627265420 109 81 57 255
16.438460204797281 -10.631961187599515 -1.751027749856377 103 75 51 255
25.302461923340672 -6.587841883178555 -10.174787837969006 165 126 103 255
26.100293318747703 -6.373963597587746 -10.928641837750746 174 129 108 255
26.451127282853918 -5.919805463091521 -11.269403186637675 172 125 106 255
27.249339322609444 -5.715768651524400 -12.023241500559237 170 121 106 255
28.196876130816690 -5.600551450812020 -12.914778211181414 161 114 96 255
28.920977728947804 -5.366686834514894 -13.599759045238073 150 108 88 255
29.719850129975896 -5.180083603824244 -14.353586857897653 141 103 82 255
29.325648612384072 -4.321386182888475 -14.005720787083504 135 99 75 255
29.602684136333636 -3.843394135229346 -14.277515600592523 127 95 70 255
29.432219871622578 -3.109839973143849 -14.136132005663256 115 90 62 255
29.485562631772410 -2.504428676668994 -14.201283501204585 101 82 52 255
28.494313594228544 -1.290910336125833 -13.302332872339377 91 74 44 255
28.472982858184537 -0.638401130157803 -13.298524208311079 83 70 38 255
-0.626992356530167 -28.024196189355422 15.805901346133027 200 170 141 255
1.786104239152564 -28.180915669381989 13.531617117373315 200 168 143 255
2.795245084986391 -27.823057742820581 12.568346181889694 202 167 145 255
5.357282646684638 -28.067039743002212 10.155959480783451 202 166 147 255
7.180543044343153 -28.044337313541178 8.433569710847053 206 171 150 255
8.856372633685481 -27.977526910648479 6.849153914929900 206 174 151 255
10.902452625811037 -28.068725316474143 4.919664509679649 203 173 147 255
12.579205217953955 -28.028215379975137 3.335173676831147 203 171 148 255
14.108434128102800 -27.940878788950300 1.888667723488538 202 172 148 255
14.824171551810707 -27.535839602325169 1.201250126653008 200 169 148 255
15.614105791264336 -27.166419675802572 0.444813473338513 198 163 141 255
16.478264756041341 -26.833424260107350 -0.380644968679690 196 160 137 255
16.898550185793994 -26.322570004715743 -0.792030578780583 195 155 130 255
17.467013822229632 -25.876966353125894 -1.341443772978494 193 153 128 255
17.665455706316550 -25.279359012681226 -1.545778270723417 196 154 130 255
18.234194923400651 -24.841063401449446 -2.095188599814577 199 157 133 255
18.877150249479456 -24.438896468531027 -2.713617682066484 203 163 138 255
19.890606378960968 -24.201972543319073 -3.677145332671614 203 163 139 255
20.089526690372338 -23.616778825624962 -3.881462156667396 199 156 137 255
20.214433609498798 -23.000572204162879 -4.016746053169527 194 151 132 255
20.487575320696408 -22.451199717543176 -4.290060795572629 185 140 121 255
21.057209444572123 -22.036591860438378 -4.839459778197465 179 132 114 255
21.404674591374857 -21.525989520563897 -5.181782658290444 176 129 111 255
21.529888104334134 -20.916955907350641 -5.317018932388976 167 121 105 255
22.396440116626025 -20.648639801376675 -6.142509058244769 160 114 97 255
22.670125004807090 -20.112850681733903 -6.415780052545131 152 109 90 255
23.018045790670385 -19.613675082587221 -6.758067741247402 145 102 83 255
21.957106157451193 -18.456342640273220 -5.788765957453847 142 100 78 255
21.415083332326589 -17.536717065147513 -5.302629954322242 141 100 78 255
21.021297527676325 -16.683870082244482 -4.954519453731905 136 100 76 255
21.517640754514133 -16.255312300738197 -5.434780693618563 133 97 73 255
21.123814922762591 -15.400130048675493 -5.086611493224780 128 95 70 255
20.952520493290393 -14.650538370436806 -4.945513933364424 123 93 67 255
20.335940194394254 -13.681356437813164 -4.390159680563812 118 88 62 255
20.090332382640867 -12.891092091501349 -4.179953211606346 114 84 58 255
18.805476974287330 -11.581900812459565 -3.003150672305509 109 79 53 255
18.114237279279649 -10.561082493200473 -2.378608133903384 101 74 47 255
17.125861865419893 -9.385326022614166 -1.477843531364499 99 73 46 255
23.435926110954654 -5.993066837561273 -7.520739038149372 126 107 79 255
26.536242702641090 -7.022413916558918 -10.417677280775422 163 123 100 255
27.704075779664777 -7.015205743650341 -11.519171903082139 174 128 107 255
27.831104576893836 -6.442348708220038 -11.653834140874352 177 129 109 255
28.999428040455484 -6.448243391094834 -12.755328233447329 173 124 109 255
30.019293137485164 -6.379481647808774 -13.718705934246856 164 117 99 255
30.965037931232644 -6.276250632685532 -14.613022988495175 157 112 93 255
31.092624354488834 -5.716779577201734 -14.747614384876783 149 106 87 255
31.220267273200392 -5.158120725668994 -14.882173358129080 139 102 78 255
30.827033773138368 -4.301789081079264 -14.533215670318071 135 99 75 255
31.029155454426132 -3.785732623943559 -14.736767855270614 124 94 69 255
30.189235651942283 -2.666423974295810 -13.973278020066630 110 86 58 255
29.795815761391538 -1.801543031266021 -13.624154897505520 98 78 48 255
29.327873704410592 -0.889876487223120 -13.205898293340027 86 71 40 255
-0.515390327724447 -27.876091207030541 16.748544296610390 203 170 143 255
2.039473650669976 -28.087090475414101 14.328785129643904 204 170 145 255
4.890017483925192 -28.429193449177845 11.632103153690480 203 168 146 255
6.413553211878195 -28.283047756211047 10.181260643211800 201 164 145 255
7.789945022030196 -28.091170279700052 8.868823527178364 205 168 148 255
9.535612683219597 -28.053813454355307 7.210265163806866 206 171 149 255
10.617614518341441 -27.767483706111605 6.174650773924355 204 170 145 255
12.585516492280647 -27.841865498252986 4.308366726223937 202 170 147 255
13.963451257919957 -27.693671730003629 2.995817259449694 202 170 147 255
14.825015368745767 -27.346334117302803 2.167803941461244 198 166 145 255
15.686814543209636 -27.005509012206019 1.339780122667662 196 161 139 255
16.770362628576834 -26.762573390813657 0.304070910376566 195 158 135 255
17.632660055157800 -26.435568230625734 -0.523975896099017 195 155 130 255
18.125910651893690 -25.960055709135503 -1.005896287129531 193 153 128 255
18.176109983230674 -25.300708343498528 -1.072445983517241 196 154 130 255
18.669591040208985 -24.831152199030356 -1.554356779159548 197 155 131 255
19.458752108516279 -24.492621337602046 -2.313186550090080 201 161 136 255
20.395917359114264 -24.224189081330664 -3.210484878567655 204 163 140 255
20.668212996438484 -23.671606007846577 -3.484700686366523 202 159 140 255
21.236244479070848 -23.251652852113040 -4.035840643235360 197 154 135 255
21.582674882584968 -22.737324607713148 -4.379274831687781 190 145 126 255
22.224933679122017 -22.358316450602828 -4.999643156057118 183 136 118 255
22.645554791779460 -21.883841778152402 -5.412300490261600 177 130 112 255
22.844455477390852 -21.311463777744152 -5.617236437041640 174 128 112 255
23.709048380949326 -21.046410748632752 -6.445309456795968 166 121 104 255
23.908173500958128 -20.479610294667125 -6.650225705724836 160 115 96 255
24.329298661234219 -20.017911611797203 -7.062850385827602 152 109 90 255
23.640767752017410 -19.037651118590318 -6.436828212352310 150 108 86 255
23.322061504408623 -18.227721498332031 -6.156979892436965 148 107 85 255
22.929294832796813 -17.380229952268536 -5.807853082459815 143 105 82 255
23.350596467140207 -16.921482272583631 -6.220395693118661 139 103 79 255
23.327892351273960 -16.250704952357907 -6.217443730616111 135 101 76 255
23.231174433048864 -15.543696623857684 -6.145217182347665 130 98 73 255
22.394051745508449 -14.471995147124034 -5.380465239823138 125 95 69 255
22.149142590797794 -13.687634991164700 -5.169665672634295 120 90 63 255
21.237668927384789 -12.569020021142563 -4.335561847866217 115 85 58 255
20.992605162799691 -11.778733223723890 -4.124679117871352 108 81 53 255
20.451198051461859 -10.836739813528254 -3.636740880176745 104 78 49 255
20.650542653550417 -10.268392776825834 -3.841312953605126 99 73 45 255
18.849393853138338 -8.674748081038956 -2.175919239120816 99 73 46 255
26.208559510674377 -6.607240071999485 -9.210578735685885 158 118 95 255
27.670313865007756 -6.760301699838791 -10.592532315032003 174 128 105 255
28.761476707063593 -6.718931737820569 -11.628145291116624 178 131 109 255
30.817576887243661 -7.222155059328244 -13.564320281608019 175 128 110 255
31.909438492108279 -7.200128478816922 -14.599963728143791 167 120 102 255
32.556261589041213 -6.935037112131795 -15.219954049941776 162 115 97 255
32.535193159813616 -6.295681155674316 -15.216430265553186 155 108 90 255
32.662625158660063 -5.740792995469036 -15.351426006450168 146 99 81 255
32.418872783337179 -4.973489442264835 -15.139982336311022 133 100 75 255
32.769147301159592 -4.547587484373466 -15.482749358212487 128 97 72 255
32.154072030694692 -3.562650500945935 -14.924796031872887 117 90 63 255
31.613151564673814 -2.616497715847089 -14.436060784148026 103 83 53 255
30.997844908405540 -1.622465225901209 -13.877972517930147 89 72 42 255
31.125348511495361 -1.063802147432639 -14.012704200186420 84 69 37 255
-2.656022395040367 -27.646117249214583 19.842740895892149 189 177 137 255
3.103155069940101 -28.298686317816404 14.363488697132766 203 169 144 255
6.388573829799157 -28.811283875699246 11.241907448607606 202 166 144 255
8.202988935803091 -28.782200310300126 9.508835894426568 200 163 144 255
8.766647286360211 -28.280936018158172 8.956041997673452 202 165 145 255
8.962409752282525 -27.639829394325091 8.750400823341920 203 167 145 255
10.041687363581360 -27.349758552634199 7.711579008996409 202 169 144 255
12.078445137998813 -27.449828712522958 5.770108032710596 199 167 144 255
14.704849685566671 -27.802299537522259 3.273120627706675 199 167 144 255
15.490723401434622 -27.426146566665139 2.511956916547859 198 163 143 255
15.761209736147322 -26.844604283425568 2.236839545186825 196 160 138 255
16.842121139975518 -26.600356907107241 1.197918814242740 193 155 133 255
17.628618801607331 -26.241293336806990 0.436736381991182 194 154 129 255
18.415333990268721 -25.888186135779307 -0.324452505974335 195 153 129 255
18.391623130182353 -25.197006876164536 -0.321803183320213 197 152 129 255
18.957559429627281 -24.758191047350252 -0.874668081836774 197 153 129 255
19.892225099668480 -24.482770639343357 -1.774744336271254 199 157 133 255
20.827145799880981 -24.214366199917549 -2.674829676107464 204 163 139 255
21.541125924669274 -23.855906776235088 -3.366589985661989 203 160 141 255
22.329046890589893 -23.535457526813218 -4.127798002834624 201 158 139 255
22.748434352558320 -23.056450685117767 -4.541776092192777 199 154 135 255
23.241707496574804 -22.613822572781416 -5.025194633537438 186 139 121 255
23.661356541027715 -22.141506613834210 -5.439158589274172 183 136 118 255
24.302466035910982 -21.773510411680178 -6.061464370743778 181 134 118 255
24.722395680320233 -21.308403444254338 -6.475414635129425 172 126 109 255
24.847266354524407 -20.709502126857984 -6.611546637883521 166 121 102 255
24.972190332415721 -20.111624069430178 -6.747659973731601 163 118 99 255
24.654279064769867 -19.306042635023701 -6.467026796151885 158 116 94 255
24.188663450972427 -18.428114762794877 -6.047448613446790 152 110 88 255
24.239787121031497 -17.794157826450686 -6.114029454800800 146 107 84 255
24.807842922859436 -17.409841800977262 -6.666793113994743 142 104 81 255
25.376063123599920 -17.029761565192715 -7.219549315974604 139 104 79 255
25.427423476224106 -16.400941828998484 -7.286074822179415 136 102 77 255
24.740122777668176 -15.408470152331248 -6.657959120070927 131 99 74 255
24.422070651198254 -14.594416159944871 -6.377107559662164 127 96 68 255
23.660636205294281 -13.556379677046834 -5.679432963395470 122 92 64 255
23.194627067848955 -12.661687932715097 -5.259565189256278 118 88 60 255
22.654621790997936 -11.726123429705723 -4.770185488613492 114 84 56 255
22.631916336873729 -11.050961183522531 -4.767031686827522 109 82 53 255
22.017835303899005 -10.071387168699715 -4.208093298606997 102 75 48 255
26.846363113083214 -6.718128106104530 -8.902500247970664 148 111 86 255
28.230716728679624 -6.831299922139152 -10.219212980196545 176 131 108 255
30.355674127586838 -7.364717980362670 -12.230782275333098 177 131 109 255
32.036977668316695 -7.665924554039364 -13.825483642718552 178 131 111 255
32.978297384531970 -7.563786753807264 -14.725343413334627 173 126 106 255
33.549618162030896 -7.259302485318983 -15.277759813384876 166 119 99 255
33.528625816339854 -6.622073875786270 -15.274240329543431 159 112 92 255
33.507655979736455 -5.984569915797366 -15.270680130833767 149 102 82 255
33.190397832727172 -5.176187412599930 -14.989106367724503 139 102 79 255
33.613958112087573 -4.794539095192363 -15.402423872401300 134 99 74 255
33.667170602438290 -4.199889480299873 -15.468236485610618 127 96 70 255
33.275797095027315 -3.344674011271351 -15.117022154162242 110 84 57 255
32.810244691179633 -2.442666529234572 -14.696248009781556 96 74 46 255
32.715221073173126 -1.757107560347691 -14.622914102948272 88 70 38 255
32.546072607759356 -1.026370200565609 -14.480028189369222 79 66 35 255
1.107336166068762 -28.102359235516275 17.316948042443443 200 170 143 255
4.017266157328265 -28.454861761853067 14.534035866211070 203 169 144 255
6.340654894463768 -28.604758206882238 12.308183471912997 201 166 144 255
8.444387098165436 -28.687091064762924 10.291205933384703 199 162 143 255
8.786325983870967 -28.099299579165319 9.945606662767148 200 163 143 255
8.687727683914233 -27.341177567255784 10.017871598731290 199 164 142 255
9.470519770320948 -26.931974724366270 9.254417077805527 199 165 140 255
12.530759473215198 -27.439781159783976 6.331943449369220 199 165 143 255
14.710173833634258 -27.614423408895647 4.245159382427886 198 165 142 255
15.567561815938774 -27.266601450926316 3.411985532730085 197 162 142 255
15.690316769434986 -26.623308475831706 3.275287874777945 195 159 137 255
16.401092256515483 -26.224866256188704 2.581405839771094 192 154 132 255
17.479594879224692 -25.985537190315824 1.539267306943003 194 152 128 255
18.411360400609851 -25.692307682115654 0.636418169712414 195 151 128 255
18.975760998383720 -25.249715808363888 0.081822548365011 197 152 129 255
19.466791093431198 -24.779899985695579 -0.403118094456403 196 151 128 255
20.178593499790992 -24.409320287690164 -1.097018688722756 197 155 131 255
21.037699851242849 -24.108313410723966 -1.930232506571002 203 161 138 255
21.823482417718338 -23.781417390672701 -2.693795311364227 202 159 140 255
22.977335739816567 -23.623592068072639 -3.805650265873396 200 157 138 255
23.616443220318274 -23.244091621640450 -4.429906854426207 198 153 134 255
24.034966303724872 -22.769916007626421 -4.845181940088253 193 146 128 255
24.380018195775904 -22.265507777820574 -5.190787382943398 188 141 123 255
24.798785979224022 -21.797470536326799 -5.606043646382176 185 138 122 255
25.364913981297889 -21.400589210688835 -6.160616762005958 179 132 116 255
25.636703351601000 -20.870977927347994 -6.436526998526489 173 128 109 255
25.687678713792849 -20.239908750091672 -6.503425923488777 169 124 105 255
25.665045729286419 -19.574524867229968 -6.500635983818853 162 117 96 255
25.421470522136588 -18.803887071439817 -6.288817690561046 156 113 91 255
25.914482818266521 -18.384863583433074 -6.773655439190520 149 108 86 255
26.481313359716665 -18.005142798103392 -7.328153034589747 143 105 82 255
26.974628153036718 -17.593785744516538 -7.812971144609691 140 104 80 255
26.952260080904750 -16.933120055919261 -7.810071388001461 138 104 79 255
26.635114452431338 -16.126698764815998 -7.528448995659005 134 101 76 255
26.907580793643916 -15.611470949649089 -7.804186563831280 130 99 71 255
26.221813715171294 -14.617886511594705 -7.174115837554439 129 98 70 255
25.830808070674152 -13.768204797202642 -6.822701766217335 125 95 67 255
24.628639464628009 -12.503234211670275 -5.704780511586222 121 91 63 255
24.458625883239165 -11.758185217840264 -5.562304107697059 115 85 57 255
23.993581308541195 -10.859756077353978 -5.141065761933419 114 84 56 255
23.971026135716642 -10.187765935260302 -5.137872659732153 107 80 53 255
27.926152360951534 -7.071904623652571 -9.013855622702323 130 94 70 255
29.528878423231163 -7.309801415594848 -10.543689701000460 170 125 104 255
30.910463615141310 -7.436351812706249 -11.864459221961567 183 136 115 255
32.366275953516009 -7.614276636697625 -13.254941337978636 182 135 115 255
33.231500275353824 -7.470310444683278 -14.087850225766829 178 131 111 255
33.875322336412694 -7.207103633917939 -14.711652605546846 171 124 104 255
34.223772125933749 -6.780093609025201 -15.056632880671515 163 116 96 255
33.981149418510284 -6.016485169814743 -14.843958661902093 153 106 86 255
34.255846756291589 -5.549527494396912 -15.119167502172786 145 104 82 255
34.826303818157896 -5.256155594339930 -15.673171577470185 134 98 74 255
35.470852802467675 -5.010038488684302 -16.296864886708477 128 96 71 255
34.858710269853731 -4.029514797787371 -15.735476544430497 115 87 60 255
34.616163833618714 -3.263020242646661 -15.522573723318573 103 79 51 255
34.151733830606787 -2.362503537419599 -15.100475748318473 94 72 42 255
33.983064639513856 -1.635522827265021 -14.957169347974713 84 68 35 255
-1.681524347345459 -27.624781553280783 21.053184465671819 201 172 142 255
4.782832026532731 -28.555593080883099 14.841700010695035 202 169 147 255
6.954273763193044 -28.650595125156315 12.748717114104267 201 166 145 255
8.174026903705794 -28.393832858351644 11.563790290908941 199 162 143 255
8.148686532229306 -27.660437234357133 11.566376441409119 196 160 138 255
8.856053739062816 -27.215605551948698 10.870417266636139 195 161 136 255
10.149851015306098 -27.009196278070149 9.615598116803710 194 161 136 255
13.422777464565456 -27.606128907371598 6.474598702300256 198 163 141 255
15.084011200789092 -27.574855090380311 4.870418716250441 197 162 140 255
16.232539186390028 -27.346517236205045 3.755226884288703 195 160 140 255
16.354953209689569 -26.704022716794043 3.618069040953088 194 158 136 255
16.917370779104260 -26.245464305583155 3.061753266889497 193 152 131 255
17.553286015490528 -25.821987831162090 2.435575656682886 192 150 126 255
18.922822931477668 -25.713510242145318 1.110760395604586 195 151 128 255
19.852607786570559 -25.427609431644711 0.205112927746626 197 152 129 255
20.489198655739983 -25.022523413831962 -0.421079635348889 195 150 127 255
21.125971672323374 -24.622296629961184 -1.047271646943557 197 155 131 255
21.909689187939648 -24.291109586714057 -1.813198252302982 202 160 136 255
22.620235831541436 -23.933488772245965 -2.509258788054069 202 159 140 255
23.844780871791215 -23.809683533278644 -3.694408773355661 200 157 138 255
24.629203397942064 -23.497619071521811 -4.460347847972315 199 154 135 255
25.120173239967954 -23.058774406264291 -4.946800612716999 195 148 130 255
25.244152315300255 -22.456458667660272 -5.083880722367354 190 143 125 255
25.808804630269634 -22.057465053625009 -5.640187289847347 188 141 125 255
26.373621676682319 -21.662747561640671 -6.196487859194150 183 136 119 255
26.718238563689823 -21.169538076924212 -6.543152911537817 179 132 114 255
26.769108336103784 -20.540874358980645 -6.610294519448786 172 127 108 255
26.893487845626197 -19.947480854098345 -6.747291720928644 165 120 99 255
26.944439727493744 -19.320032179821155 -6.814387811479463 161 116 95 255
27.289395625641021 -18.834387838067840 -7.160983206766417 154 112 90 255
27.928465933422814 -18.493785799556022 -7.787091168267949 147 106 84 255
28.420700031415123 -18.086208034813637 -8.273425926719057 144 106 83 255
28.545485126285087 -17.501586422118322 -8.410326849700368 141 105 81 255
28.229155577876725 -16.699440569987374 -8.127890036160125 138 104 79 255
28.427535776636887 -16.151832960101302 -8.334621531265157 134 103 74 255
28.111163690466839 -15.347023574629716 -8.052113899486841 132 101 72 255
27.721183003870237 -14.502695229707058 -7.699676193558730 130 99 71 255
26.595481876503385 -13.280532269922986 -6.648289471756982 128 97 68 255
26.573139769859466 -12.616660347210129 -6.645208691033531 122 91 63 255
26.330069404525744 -11.838516295686233 -6.432415478474212 123 92 64 255
26.528519854518976 -11.288461893113478 -6.638946231196911 118 87 59 255
25.843830193428289 -10.276873751700819 -6.006702783349567 106 79 50 255
26.446710166029334 -6.674357184077977 -6.685796358226327 71 48 20 255
29.665850499936425 -7.790091331050661 -9.758175050472346 118 81 58 255
30.528248537533386 -7.625390598618495 -10.593629380767197 157 112 91 255
31.759300131024673 -7.672097464033882 -11.778617359914563 177 130 110 255
32.843298018293524 -7.645206523613538 -12.823794747347108 183 136 116 255
33.853888764014499 -7.584651139094674 -13.799063731647180 182 135 115 255
34.348787267306108 -7.238567107600730 -14.284945551167652 178 131 111 255
34.843835584674963 -6.896024414196134 -14.770805785939530 169 122 102 255
34.675485596716271 -6.175550919492139 -14.627405214933873 161 114 94 255
35.023280190102923 -5.752303713619625 -14.973373285400868 153 111 89 255
35.518679966076917 -5.417345350758339 -15.459149304994384 142 104 81 255
36.309247226392984 -5.258708707558000 -16.224582563260014 136 102 77 255
35.993586920592008 -4.453629445921294 -15.941179013342747 118 89 63 255
35.456564544111615 -3.514799533557962 -15.447945678682146 108 82 55 255
34.698100534566947 -2.439749545090677 -14.744866700811258 99 75 46 255
34.677384362013640 -1.801834745496663 -14.740972611969369 86 69 37 255
33.844908260968452 -0.673317025333091 -13.967816985206440 77 66 31 255
-0.683025916673216 -27.804827558657479 21.167905328327777 201 171 143 255
1.847163681133168 -27.998928399396348 18.718306929323859 204 172 147 255
4.451081641498718 -28.239794719644749 16.198590789395354 207 172 152 255
6.398050053198460 -28.247787954286352 14.309407043556376 203 168 149 255
7.322416577037188 -27.874032032049968 13.401112134566006 197 160 141 255
8.247038690143683 -27.507357935897332 12.492805777687437 194 157 132 255
10.414593378851208 -27.638295201905848 10.393330931317053 193 155 132 255
12.436505578575833 -27.727240455561784 8.433951349478264 193 155 132 255
13.727780746040196 -27.537403841690008 7.175232879187007 196 158 137 255
15.385038494174296 -27.505657438486423 5.566140210786671 195 159 137 255
16.311379358913172 -27.187013092102376 4.657737988851096 193 155 136 255
16.945395446022019 -26.754595951520940 4.029618264653408 196 158 137 255
17.067511373266314 -26.113731358773393 3.892014809788293 196 155 133 255
17.921318114483171 -25.781425090532068 3.053676199288248 191 149 127 255
18.994882627825945 -25.548662392935270 2.005104220453660 193 151 128 255
20.361471186527382 -25.449155542655348 0.676213418062702 194 152 128 255
20.703743280187609 -24.918124434923598 0.328393498560445 195 153 129 255
21.046123896390867 -24.389790936635663 -0.019416926644624 196 154 129 255
21.608244289629397 -23.960439930602178 -0.577457014853707 199 158 134 255
22.609846951853996 -23.729597832795832 -1.555978302555587 200 159 137 255
24.124327669965822 -23.734758842000829 -3.025081020415172 200 158 137 255
25.199785193003891 -23.553798066494934 -4.073707654825370 201 157 138 255
25.762805533107411 -23.148670326578141 -4.631754993909965 198 153 134 255
25.959707837096659 -22.580591741970352 -4.839370671821314 194 147 129 255
26.229948865549545 -22.047810034517141 -5.117055425229921 190 144 127 255
26.939931995236748 -21.721069563388355 -5.815248467405183 186 140 122 255
27.430264650532138 -21.296905612154220 -6.303173364966483 183 136 118 255
27.847451039343980 -20.841937200655877 -6.720998815418113 179 133 114 255
28.044858229827497 -20.285750430596806 -6.928539764382123 171 126 105 255
28.388963247699166 -19.801251630115090 -7.276244354031121 166 121 100 255
28.806500353323742 -19.354717399233252 -7.694025950671175 158 116 94 255
29.224166976613873 -18.911343134928600 -8.111793453434558 152 110 88 255
29.421944836809502 -18.363482407497429 -8.319260766384161 146 107 84 255
29.546448876189885 -17.780996262630921 -8.456609613460984 143 106 82 255
29.524294037583445 -17.126645602756199 -8.453738286292150 140 104 80 255
29.722260441355331 -16.582258776615106 -8.661132817481075 135 104 75 255
29.553421884736281 -15.854565956702146 -8.518003569035187 132 101 72 255
29.311182508520687 -15.088432313906793 -8.304736404107814 133 102 73 255
28.408360454238419 -13.983009081193359 -7.460507248711394 132 100 72 255
28.679796716173882 -13.475337393908561 -7.737873925004124 132 98 70 255
28.657677501187578 -12.817502788481249 -7.734796698652985 128 94 66 255
28.855845537232398 -12.274460344429286 -7.942003374707525 124 90 62 255
28.466644539669772 -11.424183136527773 -7.588321912604869 115 85 57 255
28.444574741817121 -10.765314299994870 -7.585135356780796 109 79 51 255
27.761487897066843 -9.754102458943350 -6.950920110940444 106 79 50 255
26.490597661426051 -8.422617869716191 -5.755750729167687 105 78 50 255
