ply
format ascii 1.0
element vertex 658
property float x
property float y
property float z
property uchar red
property uchar green
property uchar blue
property uchar alpha
end_header
9.445952116633691 -3.579661258709336 26.073103581051868 155 112 93 255
9.097863516983494 -2.765954136840605 26.338822345623868 151 111 89 255
8.749588344231682 -1.951893168087793 26.604695699357194 141 105 81 255
8.616507402077104 -0.822167963522247 26.703112195937706 115 87 60 255
55.101281603846815 -0.527172332190105 -10.512352421260800 137 120 83 255
53.337531797460457 -1.193361282122453 -9.138782463312168 126 112 75 255
50.872364115544315 -2.700054903344324 -7.216028510965543 121 107 70 255
50.649280394122741 -1.583669599019288 -7.048611777240126 118 107 67 255
22.753864876349894 -22.222675786796941 14.725207178641142 190 151 122 255
19.645750144386852 -24.854287143638800 17.152871991575012 201 149 127 255
17.580836292323397 -26.208917514632049 18.763503474871300 199 151 129 255
16.266562293582496 -26.636199555488759 19.786181562336537 201 154 135 255
14.670901822525565 -27.433583210559789 21.029352004542318 203 159 134 255
13.706853136387593 -27.439804330944014 21.777738109799401 204 159 135 255
12.745301927266070 -27.450617472058838 22.524188906329698 207 161 138 255
12.353284363608736 -26.733670365312236 22.824404664954955 207 161 140 255
11.565251538435575 -26.531054697633181 23.434914307695237 204 156 134 255
11.061280815177014 -25.963278771654529 23.822838053493939 198 150 128 255
10.501517060636218 -25.470422041727687 24.254477155175920 192 145 125 255
11.235493773364169 -23.274079098417246 23.672203450505208 176 131 110 255
11.740272633273207 -21.366334553045931 23.269459703403470 167 124 102 255
12.241204182520903 -19.451569791765280 22.869647485684197 150 109 87 255
12.347344861915445 -18.053367831732118 22.779198794382324 134 97 74 255
13.733075073766457 -14.925798420268308 21.685675409260625 119 86 58 255
14.276978841186320 -12.912727084248274 21.251910538677549 106 76 49 255
14.261962363593341 -11.646857555547740 21.256223913454448 101 73 48 255
14.798912841530296 -9.621090004505618 20.827765106321607 98 74 47 255
17.209921523816519 -5.006840624518702 18.929912786641864 90 73 43 255
11.199486562151094 -2.862923338614280 23.581764428317285 102 70 49 255
9.494262074834978 -3.990962354247927 24.911654872994575 127 83 65 255
8.605260067880977 -3.957689823493638 25.601383099890739 148 105 86 255
8.203603676623544 -3.223259043178587 25.908846599082949 146 105 83 255
8.070894239320694 -2.095997143809882 26.005325022612737 142 104 81 255
7.883368255016109 -1.045406948008178 26.144801902712032 123 92 64 255
52.838050017077023 -3.784471782126502 -10.024638315757272 154 128 94 255
50.313426805002848 -5.346366456476744 -8.043295324177564 145 120 89 255
49.150677768018710 -5.337893093085029 -7.135932592766721 139 115 84 255
48.578063521300095 -4.643045739280467 -6.694020291628959 130 110 77 255
48.650505903262200 -3.185690894218340 -6.760957902893495 124 105 72 255
48.136094095573469 -2.420813134721868 -6.365053213770580 121 104 69 255
47.680326300565497 -1.586663169257463 -6.015448531782937 121 104 69 255
20.686764524963394 -24.080529366420592 15.207267302864437 185 145 120 255
18.850065090691430 -25.135533645471270 16.647676928919452 192 150 126 255
17.133780185155246 -26.057648275999270 17.993150767662570 194 149 126 255
15.366167350699470 -27.062493921818003 19.379248859967959 198 152 129 255
13.604473314408438 -28.078193168586978 20.760787398070960 200 155 134 255
12.927110957655742 -27.722142368901530 21.286349339289131 202 157 136 255
12.477570894346599 -27.076482848536614 21.632039331805913 203 158 139 255
11.689244412831727 -26.870685452815394 22.245225348012326 203 158 139 255
10.677114224647056 -26.961892276063935 23.035163106902758 202 156 139 255
10.286698010838165 -26.247854448939250 23.334170473805244 193 148 131 255
9.952486358438620 -25.460053570244128 23.588773289707660 185 140 121 255
10.346426282623923 -23.708520614238694 23.268247016991268 177 132 111 255
10.737006563865947 -21.950859720354458 22.950278436357337 164 122 100 255
11.124228238173600 -20.187071638022786 22.634867816035978 146 110 86 255
11.786392487687039 -18.043268988012528 22.102164406350767 132 99 72 255
12.777208731085409 -15.441105896768420 21.309692607824928 115 86 56 255
13.761986328717853 -12.827911127411710 20.521834040375580 100 71 41 255
14.077196752823340 -11.109046016129980 20.262869851855669 97 72 42 255
14.444469796159950 -9.308833198889033 19.962682004554381 94 73 42 255
16.845253030451858 -4.694473950114912 18.055427492082543 87 70 39 255
11.110045225971135 -2.152261467458857 22.507196131787680 76 55 28 255
8.976543060239123 -3.900777567555792 24.184020881680993 112 69 49 255
7.873704358688997 -4.179363170434328 25.045995804287628 142 98 79 255
7.203772991366577 -3.837092754301125 25.565690706754964 141 105 83 255
6.856649448108840 -3.025751763303504 25.830113150396528 133 103 79 255
6.937077449896805 -1.583757619964217 25.756359120667696 127 97 73 255
55.123475331975442 -1.768444629461840 -13.127493973809919 164 132 99 255
49.062335747943052 -7.421779582262587 -8.324613125263738 161 127 100 255
48.196291558238045 -7.070411540741731 -7.648724644331139 156 123 100 255
48.153079368150884 -5.757089940138485 -7.626631918648968 146 116 92 255
47.815574524658786 -4.786614006616844 -7.370777499526696 139 111 87 255
46.835195172160638 -4.578703335492264 -6.604098549417301 133 106 80 255
46.381596497288342 -3.748412394188222 -6.256054913920167 130 104 77 255
45.579099079535297 -3.337307252744210 -5.630748168285351 130 104 77 255
44.836158838681087 -2.858965742359374 -5.052779815014276 127 102 74 255
43.225788875232610 -3.437334055763131 -3.785282907690089 119 98 69 255
21.323657933284125 -23.817558326627989 13.567708422300996 170 149 117 255
19.029329539199409 -25.436016684537947 15.380629466842095 185 142 118 255
18.397803101774969 -24.985579784994314 15.871266324657455 191 149 125 255
16.286978138876833 -26.411091818946147 17.538540511539338 193 148 125 255
14.297166190245008 -27.705540357268006 19.109742415304083 196 151 128 255
12.711090669492478 -28.504955327791038 20.359938649506319 198 154 133 255
12.601002662133908 -27.422418553506986 20.435984460209795 199 156 136 255
11.812382672832399 -27.213436549017445 21.051849658254326 201 157 138 255
10.856553074797432 -27.227292660890981 21.800797711797372 199 155 136 255
9.734612778497393 -27.465995537423339 22.681988080016623 198 153 136 255
9.457116801211299 -26.605998645570168 22.891208828356071 192 147 130 255
9.291107168218190 -25.597501004360709 23.011666249969494 183 139 120 255
9.235852108868158 -24.439162966058120 23.043921991510132 173 129 108 255
9.457764438910772 -22.906710679388567 22.855483477454982 160 119 97 255
10.288571540570871 -20.549589151334914 22.182205453485523 145 109 85 255
11.058598989685009 -18.257529649688649 21.557145105887940 136 103 76 255
12.211004902116741 -15.431356402804028 20.627453427818267 119 90 60 255
12.859599211899365 -13.269648362181186 20.098734900940826 104 74 45 255
13.503620441045683 -11.099586720984234 19.573509321849457 97 70 41 255
14.143069713830073 -8.921172266743213 19.051777005496945 93 72 41 255
16.478644563229892 -4.382353426867212 17.178910919545615 84 67 36 255
11.070667233963690 -1.364386669722421 21.385713205674222 48 26 8 255
8.834382025259970 -3.265575237010864 23.155523573934801 137 100 79 255
7.572011356861339 -3.776201794018789 24.149186733775480 153 115 94 255
6.634722743104390 -3.824112512190595 24.883800675678742 153 118 96 255
6.233924268362784 -3.091118208901776 25.190730018216300 141 110 86 255
6.206130426891519 -1.806843009456031 25.200228671051093 132 102 78 255
6.070376823546013 -0.677521866279676 25.295786518533504 121 93 67 255
46.773823822297118 -9.345136680864641 -7.779025081125042 164 130 103 255
43.862094617515481 -11.404170866594825 -5.463171383422548 160 128 106 255
47.040379942898170 -6.313985732601935 -8.021914816873334 157 126 105 255
46.936714824128273 -5.068490022526021 -7.953862713508045 154 123 102 255
45.550929062824224 -5.346649419462494 -6.859421514090428 149 121 99 255
44.343384608478857 -5.423326532417434 -5.907605617036552 152 124 100 255
44.066578512235935 -4.388833970953840 -5.701013106842311 151 123 99 255
41.880149954652609 -5.664616030763455 -3.965215992177889 150 119 94 255
41.573044631050522 -1.936042950924616 -3.764780045984821 118 94 66 255
19.436055462594027 -25.454579663940422 13.926247666560101 180 150 124 255
17.834577258007130 -26.217945134148749 15.195544076581200 187 145 123 255
16.465760852988154 -26.703493417314348 16.278536416952534 192 150 128 255
14.703928556688709 -27.701179556496356 17.676643752411053 193 151 129 255
12.551645714231910 -29.215695453015314 19.387901269590941 195 153 131 255
11.876047489848020 -28.859059706889383 19.915645100314521 198 156 134 255
11.709146215336887 -27.850226937713046 20.035584434153009 200 157 137 255
11.147518798485407 -27.350397136805952 20.471955064756202 201 158 139 255
10.249865831542451 -27.291085672748267 21.177779528288880 195 152 133 255
9.186426202090786 -27.456115436466433 22.016616090220538 193 150 133 255
8.964347897603631 -26.522298159292347 22.180754060141339 190 147 130 255
8.351207547727711 -26.104181581319892 22.658520437978297 182 139 120 255
8.351224365745935 -24.873220277814085 22.644448217619953 174 132 110 255
8.460642123914880 -23.490673231958681 22.542534036336065 161 120 98 255
9.177361538079026 -21.284568659886816 21.953269117216223 145 109 85 255
10.165668675354624 -18.695971784683906 21.145889987796977 137 104 77 255
11.258256602286650 -15.946420796445523 20.254594015652657 124 95 65 255
12.564470606047621 -12.884211388642200 19.191597416648563 108 79 49 255
13.423859995253707 -10.411552755395803 18.486963919010293 97 72 42 255
13.620176677495408 -8.836317274346527 18.314393554553476 89 68 37 255
15.618049253317622 -4.753155275693757 16.695390190846553 82 65 35 255
17.659809786341526 -0.574423094363624 15.040748800655308 37 41 5 255
9.738346134465360 -2.440231125502464 21.295374425393959 149 117 94 255
8.099443248174680 -3.487207657460772 22.597029825009713 151 111 91 255
7.054194121783553 -3.685643618298741 23.421807565555838 153 117 95 255
6.331919078177521 -3.419703342490834 23.987115945724355 161 126 104 255
5.611162016801671 -3.156528612828765 24.551271682359669 153 121 98 255
5.263546380295708 -2.344883081063813 24.815519045211374 144 114 90 255
4.862776577220160 -1.611852423953678 25.122508734891824 137 107 81 255
42.037881075119031 -14.142632557525047 -5.241605106963192 168 132 107 255
40.485574796000009 -14.636601948815951 -4.006925838584806 166 134 112 255
40.919115708505757 -12.796460399184127 -4.373527723659492 163 132 111 255
41.290887080448641 -11.018860658119280 -4.690495859800023 163 132 110 255
45.372839170524742 -4.796541217876552 -8.000191127891071 163 133 110 255
42.198008407559655 -7.236524423995434 -5.456905208941720 167 137 113 255
19.441931840898548 -25.976731103555153 12.787624764499952 178 148 123 255
18.638275447973740 -25.734789358520004 13.420066515366415 183 148 126 255
17.041163836843907 -26.498384675689863 14.693208395519434 190 152 130 255
14.882446770026519 -27.989649054755660 16.420038689507379 194 154 133 255
12.109232122862636 -30.287325298415936 18.643424695566523 197 157 135 255
11.095818169339992 -30.363791430635956 19.445833186480229 198 158 136 255
10.760900556182264 -29.575478139643906 19.700254829700100 201 159 137 255
10.931510634083963 -28.132465994617291 19.546245390077729 203 161 141 255
10.370843526376149 -27.633229490053424 19.982958621600403 203 160 141 255
9.587180110452152 -27.428081471379812 20.599876779123917 197 154 135 255
8.637809959247022 -27.446322325301594 21.350764111790369 191 148 131 255
7.969450358469146 -27.101143508916095 21.874615841813778 190 147 130 255
7.469109946351807 -26.536845248384736 22.262690145731881 184 143 123 255
7.579356885179919 -25.159028839869563 22.157161567683261 175 134 112 255
8.019483879256597 -23.331687316947097 21.784816089454836 162 123 100 255
8.621653075361650 -21.274289112786732 21.281276182857653 149 113 89 255
8.999121481427409 -19.507853035917890 20.959254960033178 140 107 80 255
9.648087137653931 -17.360587505632907 20.417494053452600 125 96 66 255
11.279752053598997 -13.852014837472353 19.080633000221638 113 84 54 255
12.245737699569077 -11.231706261012562 18.281902429928948 100 74 44 255
12.441224930304998 -9.658910792011255 18.106299355968957 89 68 37 255
14.050645404666511 -6.109675577824476 16.786455487550086 83 65 35 255
9.888605515652017 -2.708713668170276 20.031031176568462 143 105 86 255
7.608275338169136 -4.679830874151889 21.860102141578665 155 108 90 255
6.724581231923537 -4.642858068183273 22.558193774323314 158 112 93 255
6.269257618208684 -3.985511576917986 22.909341521709280 149 111 90 255
6.026809781387129 -3.015577907138436 23.088025239346706 152 117 95 255
5.041385571217290 -3.143478688083292 23.868771280177981 160 128 105 255
4.376095828233815 -2.804001557771755 24.390191092864370 152 122 96 255
3.817636200654533 -2.308939395611901 24.825086646394112 152 123 97 255
3.839188340904627 -0.944400627754931 24.789831718993923 132 107 79 255
42.577205827757780 -12.778128580791417 -6.940892246270153 176 135 115 255
38.232249478013870 -16.562684626156198 -3.431160108066734 170 138 115 255
36.691563658557243 -17.070943293762895 -2.198925697700048 169 137 114 255
39.386455878813649 -12.542911121106272 -4.407898106055853 171 138 116 255
37.094382926735989 -13.953439732968860 -2.565158374601822 176 144 120 255
20.081388560363706 -26.961045350078962 11.149404639813497 173 142 118 255
18.193687189800329 -28.060857423796961 12.665894553905702 185 153 130 255
16.767248366699675 -28.603444747412880 13.807475990586113 188 151 129 255
16.650152908021965 -27.513224132073248 13.884131289273228 188 153 131 255
16.192217393059110 -26.850323787249579 14.237999567625536 192 157 135 255
14.039884163944322 -28.341842700143502 15.970527374533731 197 160 138 255
11.726078396032534 -30.063408484519357 17.834788176112625 199 161 140 255
10.208073535324189 -30.788918260211744 19.051740557085964 201 163 142 255
10.041973164822195 -29.784328069555613 19.168491620003749 208 167 145 255
9.538944149297350 -29.214209794262956 19.559461883025364 207 166 145 255
9.148218893113523 -28.499287675224934 19.859001707682012 205 164 144 255
8.478765212537240 -28.150169804560676 20.385487863891683 198 157 137 255
7.699319772313572 -27.950129145728170 21.001592133967819 189 148 130 255
7.310232298217045 -27.238264766137718 21.299819813550613 187 146 128 255
6.699639079564321 -26.821746757436983 21.778471822360558 184 146 125 255
6.808577486434501 -25.444765946999041 21.670952470040731 179 141 118 255
7.135966846906257 -23.766883721725435 21.385318779343493 168 130 107 255
7.625319187740700 -21.859897629768170 20.967533813499927 161 125 101 255
7.891216323050401 -20.244686906113913 20.731671402999666 150 116 89 255
8.099465964190244 -18.699165758034724 20.542648331132170 135 106 76 255
9.288959834315534 -15.796264410379280 19.553532648245408 124 95 66 255
11.016817519863309 -12.126878782947699 18.125106504414248 110 84 55 255
11.864582844462433 -9.649665084476908 17.413891358587847 90 69 38 255
13.466914712824092 -6.100935501752303 16.086990293362760 78 60 30 255
11.269814289732864 -1.206303216357696 17.756896912045306 66 47 24 255
7.705582019444250 -5.019082617315405 20.645961043361837 119 73 56 255
5.861993016030539 -6.375199371351869 22.130887513073901 158 103 88 255
5.088989007275899 -6.187087542886644 22.741921303063464 162 110 94 255
5.060811565567860 -4.909629293565899 22.744744426949666 161 118 98 255
5.136898255921722 -3.472628627705376 22.662326649503996 146 109 87 255
4.312698106090153 -3.365970468549108 23.315291222793235 150 118 95 255
3.543212885238006 -3.184258795818721 23.923662904737341 152 122 96 255
3.038434536553154 -2.611101642006133 24.315824148568481 152 128 97 255
3.216281081576710 -1.009937113406863 24.150121733937198 133 112 83 255
42.311579247765167 -15.026878312558608 -7.952114100421653 167 137 106 255
39.478508786418217 -17.008544775510785 -5.656453568268120 173 136 113 255
40.608697778421345 -14.356419687098679 -6.603110479182931 180 140 120 255
36.859272604955066 -17.458124474929832 -3.557078511381519 178 143 121 255
37.465609091792089 -15.420669439027051 -4.075231510761142 179 143 119 255
33.908310061273852 -18.349668795833196 -1.185594381986704 183 147 122 255
31.377829691486681 -18.787259728993604 0.842369006922098 183 149 124 255
19.458967572084390 -28.264329713475576 10.517943635980004 184 150 126 255
17.858395870360852 -29.005933697992248 11.808254467631428 188 152 129 255
16.830905686981026 -29.048267416233500 12.629218957335581 192 156 133 255
15.579490152379094 -29.380069284228853 13.633807708786833 196 159 136 255
15.179969245070907 -28.648800953835718 13.940324589894999 195 159 136 255
14.329121752288472 -28.490071953263225 14.616789027132654 196 162 140 255
13.423984380946280 -28.406826132168732 15.337843138478974 201 166 144 255
11.678426790839012 -29.407709737490165 16.748113088384798 204 168 146 255
10.387238662528461 -29.841678334367288 17.786050200346409 212 176 154 255
9.491554122927909 -29.775810373031987 18.499781781817717 214 176 153 255
8.542312716958179 -29.786761632858514 19.257545887334942 212 173 152 255
7.651260499771894 -29.729416620445079 19.967682605303281 209 168 148 255
6.818031161957578 -29.603103709233494 20.630474035890984 197 156 136 255
6.596715966617637 -28.673761996771475 20.791172639245815 187 146 128 255
6.319403041938131 -27.816768117756283 20.997779874133300 184 143 123 255
5.931257266326668 -27.106577178409566 21.295331614407246 181 143 122 255
5.708409519411191 -26.174484502529367 21.457155802324394 182 144 121 255
6.034466177306058 -24.498857404865618 21.168193034916641 179 141 118 255
6.302575536153768 -22.892006708574996 20.926637422204408 168 133 108 255
6.677245749582198 -21.130567899290298 20.597383189175787 158 124 97 255
6.884786731862363 -19.587709115618111 20.405233568278589 147 117 89 255
7.743346010051908 -17.138574386754044 19.678022972176166 134 104 76 255
8.922447831291294 -14.227219581465278 18.687084363615270 124 97 68 255
10.799483299840006 -10.320641459411348 17.122121528711403 108 86 54 255
13.207388791590859 -5.637527440648228 15.120200508422840 82 67 36 255
15.872599055714545 -0.551274215745536 12.906028705999574 52 47 15 255
10.150469009968873 -1.967687537333518 17.495923229108939 47 37 11 255
6.811537610462580 -5.471885240634151 20.220358933855209 87 42 26 255
4.973701416176198 -6.828577303874170 21.710099063711539 127 73 58 255
3.937624624131359 -7.030428522231574 22.540236241452590 155 103 87 255
3.909377834461907 -5.755336454029020 22.540801571377983 154 109 91 255
3.932252010124444 -4.398985308244164 22.499185868583282 155 115 95 255
3.426802591084055 -3.823825813273857 22.892579462531387 144 110 88 255
2.816853607767030 -3.407027251024999 23.372090315391233 144 114 88 255
2.731938493510768 -2.202996619895657 23.419133421433060 144 120 90 255
40.110502919360613 -16.866605683285542 -7.412756996736931 173 138 109 255
40.598268437094390 -14.967440829581506 -7.839266754069996 178 141 118 255
38.764347548369130 -15.797083333405510 -6.352393572165226 186 145 126 255
37.051996303185206 -16.500380781733753 -4.965449086612892 184 148 126 255
34.017964413262234 -18.797099912041460 -2.488536133546091 187 150 127 255
33.182970571310250 -18.489516234007056 -1.824373971535749 192 154 129 255
29.419487897411557 -21.719131326060960 1.255044150655806 191 155 129 255
26.415584777652327 -24.071151691828931 3.708698626777419 183 148 124 255
25.139080895843449 -24.351244584513239 4.737900816907199 167 128 107 255
22.610341069813074 -26.177411139198171 6.800487471048712 160 122 101 255
18.837436626518581 -29.564427918736271 9.890263300418070 183 145 124 255
16.954879407464688 -30.654384677140229 11.420669856286622 191 153 132 255
16.440064565863992 -30.060842297548959 11.822398833266618 191 155 133 255
15.982392280738964 -29.397465667400837 12.176953264502032 195 159 137 255
15.129675040279551 -29.232253664476190 12.857689304065730 198 162 139 255
14.222612785921513 -29.142059593375279 13.583395034913991 200 164 140 255
13.149105806207444 -29.270615959604726 14.446683627714265 203 168 146 255
12.471365050679168 -28.902387095715540 14.983182358849831 209 174 152 255
11.235012894725742 -29.256307851475327 15.981268589752801 212 177 155 255
9.778914764964156 -29.905872768840339 17.161138729680857 213 181 160 255
8.884961723658478 -29.839806858008274 17.876663140984078 214 178 156 255
7.492660771800217 -30.431731614139494 19.004240521780559 211 175 153 255
6.548816975089068 -30.448849818994461 19.761304963889472 207 169 148 255
5.718229504649571 -30.324371658865346 20.424851148480911 196 156 136 255
5.718499175491644 -29.103808713214903 20.401375153633523 185 144 124 255
5.661984614933431 -27.953787512359924 20.424750935674581 176 139 117 255
5.218978398498052 -27.317571476581151 20.767760142120437 174 138 114 255
4.940946704821613 -26.459960657451774 20.974271192083734 175 139 115 255
4.936328774470923 -25.230521646742858 20.954480114085356 176 140 116 255
5.148649181709146 -23.700341812759007 20.755019936921144 168 134 109 255
5.249298228719283 -22.314693135641448 20.647830748970421 160 127 102 255
5.728631509463128 -20.400982748382717 20.226966679539203 153 124 100 255
6.855493262554489 -17.579005358403094 19.269643637292717 143 113 86 255
8.192226307633604 -14.443352397934689 18.138072936896833 132 106 73 255
9.467185166327340 -11.369101685429769 17.057187986429796 125 102 68 255
11.651209246381768 -6.993006696159227 15.222663227884368 108 93 61 255
14.684294054147728 -1.379698411827349 12.683836366719504 51 41 11 255
7.086729513131417 -4.223220077942585 18.828271445887708 74 43 23 255
4.881382299006532 -6.118475660277909 20.632336710929906 97 50 35 255
3.582299631383194 -6.706751247884654 21.684919651330745 120 68 55 255
3.130577090604476 -6.054690297931359 22.034514965558003 145 97 82 255
2.889461427211558 -5.090282913318902 22.209314264641165 160 115 99 255
2.595220165207394 -4.203084103651122 22.428186016673834 153 115 96 255
2.195884771464335 -3.472427131761151 22.734308622682761 143 111 88 255
2.423142492114494 -1.795177333241725 22.520040136180057 139 113 88 255
41.573256172900528 -14.425895202527101 -9.896470878501304 178 142 113 255
38.985928086085949 -16.130772159273761 -7.775909295877909 183 145 122 255
37.678335911194921 -16.348102815251082 -6.717424459716710 189 148 129 255
34.011490843236800 -19.384905398592366 -3.699495898857435 190 152 131 255
32.946402872672849 -19.349849388108197 -2.841740011454476 194 153 131 255
31.080614539652515 -20.286537971214784 -1.318693961256258 194 154 129 255
28.304732031305377 -22.342926919441197 0.960855649231888 191 154 128 255
25.424644523537779 -24.556815022866942 3.327595128953021 186 148 125 255
22.954281154122697 -26.302056849741660 5.354434435524439 170 129 109 255
20.265178228985519 -28.343335307889475 7.563629264844167 178 139 119 255
17.699465620365402 -30.262322982728250 9.670829501602725 184 146 125 255
15.879613066877482 -31.283356809297345 11.158386460834606 191 153 132 255
15.253113348310734 -30.832774032315967 11.653830620742497 193 157 135 255
15.078929346829995 -29.817392775080549 11.773071168992772 197 161 139 255
14.453516544897298 -29.368862326550953 12.267623150967609 199 163 139 255
13.379808672749562 -29.492552564879361 13.135235695988825 201 165 141 255
12.197001765793743 -29.764764798182512 14.093810757295358 205 170 148 255
11.576889194254079 -29.326022844983413 14.584215560440100 213 178 156 255
10.455615015017429 -29.536825388341953 15.491887346583894 215 180 159 255
9.226219032257603 -29.897934764458626 16.489775475365207 217 185 164 255
8.111654994369928 -30.121068911932809 17.392253181335519 218 183 161 255
6.889457189387400 -30.495400447033433 18.384575332631016 217 181 159 255
6.390024892359861 -29.929484094514720 18.774993578652953 214 176 155 255
5.670383128136990 -29.656891833327222 19.348915536033644 206 166 146 255
5.172532981465338 -29.093911176575944 19.738083058853192 192 151 131 255
4.785120198099747 -28.384905899313878 20.035217025338511 178 141 119 255
4.342943920967684 -27.749772393345722 20.377994164139864 172 136 114 255
4.174576616433626 -26.745366853676046 20.492467063921310 172 136 114 255
4.223609951512572 -25.442532640089894 20.425557297207831 172 136 114 255
4.325209638309047 -24.061837123554795 20.314660334025518 169 134 112 255
4.479010528738229 -22.602611058217008 20.160057147135944 164 131 108 255
4.901500750496439 -20.764739964786173 19.781079598683704 156 126 102 255
5.807218313896982 -18.244540931985256 18.998554784000362 147 118 89 255
6.761117337434825 -15.638452638938418 18.175408776837003 135 109 76 255
7.493595181785480 -13.323459394474781 17.536706473837512 125 102 68 255
9.188084265608836 -9.635666073551249 16.094328970432400 113 97 64 255
8.465800382900994 -1.351715661819412 16.501086010198890 46 39 12 255
5.629276894892996 -4.168256399864163 18.844741573101459 89 58 38 255
3.961873760948833 -5.294710793357126 20.211253920221907 108 61 47 255
3.035490722890103 -5.340226373518817 20.958224222583794 124 77 61 255
2.163986933744809 -5.312091850072704 21.659453465662551 151 105 89 255
1.660588739819076 -4.739082622596698 22.052760372684503 161 116 100 255
1.209878943485506 -4.088411772971483 22.402008423991958 150 116 93 255
1.383736489098567 -2.491832888284080 22.228347760348612 144 114 90 255
1.554976686298374 -0.890451643302072 22.056705965917558 131 111 84 255
36.745009055700791 -18.042957718976311 -7.175730575371375 189 149 127 255
34.522522444974783 -19.359704737664629 -5.346401462266158 193 152 132 255
32.307673171976745 -20.690486398039411 -3.522983282945802 193 155 134 255
31.820109161925956 -19.971171552721330 -3.144359603008525 196 155 133 255
30.417652944340631 -20.356894275116787 -2.000100167536431 196 155 131 255
27.478331722213795 -22.620188419268231 0.430806221749833 192 155 129 255
25.005464553826215 -24.347521737867226 2.471918718386092 182 143 120 255
22.200463081424715 -26.509321256152987 4.791711810421987 179 137 118 255
19.178947804869750 -28.969765821403712 7.293511269960362 192 151 133 255
17.470253284397444 -29.837531598745471 8.696418816392878 187 146 128 255
16.106029506483253 -30.293494741878902 9.811103803563014 189 151 132 255
15.027732588562486 -30.404220080016614 10.686468915319551 197 159 140 255
14.064866121609555 -30.378808806697691 11.465275573761147 198 160 141 255
13.272795782904097 -30.144873676130999 12.101064220367562 200 164 143 255
12.538468880784933 -29.842935124786464 12.688539715811658 205 169 145 255
11.917373629992028 -29.400830477353850 13.181148227668587 211 176 154 255
11.018651629405070 -29.319220246653572 13.906648985866582 216 181 159 255
10.177796075053237 -29.169828247072161 14.583745463263170 219 184 162 255
8.673096742609687 -29.890086771752976 15.817932321390003 219 187 166 255
7.450169641465891 -30.257490182246215 16.815998674313931 222 186 164 255
6.341451484570740 -30.486510324207757 17.718453790677529 221 185 163 255
6.173035659859806 -29.483320514068225 17.831754669350346 221 183 162 255
5.508705361434124 -29.135973108518385 18.361361611925076 213 174 153 255
4.626144317556765 -29.084103692028890 19.074314825664374 199 158 138 255
3.910106316700364 -28.815874673334008 19.647541778107069 184 145 124 255
3.468760573866120 -28.181823795114383 19.990087311497234 174 138 116 255
3.300277440730611 -27.178601249710340 20.103355974448220 171 133 112 255
3.457217540674890 -25.728686307943860 19.943039550434548 169 132 111 255
3.503244041929946 -24.423223402998502 19.875771757162056 170 134 112 255
3.547380950905534 -23.114314962851836 19.809941532558071 166 131 109 255
3.805724831469718 -21.502595482021832 19.563822536548457 158 126 103 255
4.438520067000354 -19.360195164299796 19.002522219882337 149 118 91 255
5.281867604932643 -16.908293537917217 18.263737865480550 137 111 78 255
5.958697517752910 -14.672788687055430 17.664650350133400 129 105 71 255
7.326693146591282 -11.443955345210895 16.483491744777581 117 98 68 255
10.769890341338453 -5.238240661746090 13.554826655802515 109 90 63 255
6.945492436945017 -1.366455121144270 16.559542487365405 57 50 24 255
4.596433754131112 -3.494788049052374 18.509039655270783 92 63 43 255
2.884270976378644 -4.704171659271822 19.922097420874479 108 64 49 255
1.856821365127502 -4.908405233206679 20.758044794686981 132 81 68 255
1.092730745654762 -4.726051273313146 21.372025855348284 154 108 92 255
0.694083571068205 -3.996512550799764 21.677751561657686 157 119 100 255
0.450993565513357 -3.030516715101896 21.852188229105735 148 116 95 255
0.362366134567253 -1.826059199211329 21.896176626899006 137 114 88 255
0.220746699623334 -0.698317665851164 21.984818257054940 128 114 85 255
33.881769833984322 -20.703331937470693 -6.032296691709547 193 151 129 255
32.071467945939531 -21.549594406404054 -4.538876770500053 195 155 135 255
30.954142975906478 -21.584032344725784 -3.629071426875043 197 159 138 255
29.097088698489017 -22.518178391843577 -2.095550703168612 200 159 137 255
26.733116020332204 -24.084739921901559 -0.134235854485553 199 159 134 255
25.799698605604391 -23.935864973631084 0.621368501294000 193 156 130 255
24.017059830810638 -24.833003522128678 2.093340153610797 179 142 119 255
21.503989294443159 -26.646874785368453 4.181887775386826 190 149 129 255
18.378296846595958 -29.246402618347958 6.787973630021611 196 155 135 255
16.448759089877967 -30.394867207011430 8.385498872000056 191 150 130 255
15.482568851105839 -30.359567427045704 9.170382433191435 195 154 134 255
14.406570931527824 -30.470029122493088 10.048128731829166 199 161 140 255
13.333561926437511 -30.585994737771159 10.923551200426630 201 163 142 255
12.431269876464853 -30.494392435347407 11.654995958802630 204 168 144 255
11.865956574843665 -29.979465611247406 12.101934976232940 207 171 147 255
11.023108769302070 -29.823368246215978 12.783395315272514 209 174 152 255
10.404444399993110 -29.384202942318240 13.275538575213147 216 181 159 255
9.731394714628777 -29.018876890459524 13.813706648316384 219 184 163 255
8.340743669197394 -29.593762110666205 14.958612381484130 218 186 165 255
7.175253129020916 -29.887364552609029 15.913454411852001 222 186 164 255
6.178403299198067 -29.969588967036515 16.725920760145073 222 186 164 255
5.458960017201235 -29.692797999020087 17.303919200339521 222 184 163 255
4.576610136601715 -29.637924289897910 18.019853517537513 219 179 158 255
3.477763594077828 -29.880236002428177 18.919163139046191 213 172 152 255
2.818679558327659 -29.540623494254135 19.446476331191832 191 151 131 255
2.487541449752285 -28.761137248168552 19.696228577262929 178 140 119 255
2.590798599939973 -27.389900119473452 19.578104661938596 169 131 110 255
2.800322314241043 -25.866467071213151 19.369791147483369 164 126 105 255
2.682754012085752 -24.784501083616021 19.438355310655993 164 128 106 255
2.617984705018046 -23.625830535478940 19.462076261812342 165 130 108 255
2.659483817537563 -22.314964461047509 19.395608973863034 162 127 105 255
3.128797458120516 -20.400297664989552 18.966318702349326 151 120 93 255
3.808637942966413 -18.177547686822038 18.358206194474121 140 114 81 255
4.537136845588520 -15.870510824710152 17.708430474663004 130 106 73 255
5.634013853351490 -13.024239265068331 16.745757682359198 120 99 68 255
8.107997907160922 -8.191264968279114 14.614129320778375 111 90 63 255
3.824353219040802 -2.431773175511807 17.951701058370276 88 60 39 255
1.859409276069897 -4.036029163638148 19.588877030568000 112 66 51 255
0.835788805117204 -4.242795436371239 20.426035703743992 141 95 80 255
0.177503871620303 -3.904742713386270 20.952645773492918 153 110 93 255
-0.324575406691395 -3.332518378434145 21.346450987342052 167 129 110 255
-0.620021294225864 -2.445064358084267 21.564439669251158 144 116 94 255
-0.761693799486522 -1.318984375656896 21.651491793714115 117 97 70 255
35.079727940569541 -19.872031842547244 -8.273747280421162 184 163 130 255
32.866782654807594 -21.183298597165560 -6.430470042144293 197 157 136 255
31.233347131049669 -21.825446245241721 -5.078513125074835 198 160 140 255
30.175750129921568 -21.791746348768584 -4.215051814871117 197 160 138 255
28.266759051629947 -22.794572856922599 -2.628448550674278 199 161 138 255
26.421002142780992 -23.740201265092878 -1.095071103431962 200 160 135 255
24.581414480291471 -24.697169554205544 0.433528809851452 191 154 128 255
23.257175541468769 -25.040549243489835 1.524718521674515 182 145 121 255
20.977199483843407 -26.575457549713946 3.428426302022473 196 156 136 255
18.198370155150513 -28.754241866074295 5.756800967500226 198 158 136 255
15.879535481380174 -30.391105811028922 7.694902274846839 196 155 133 255
14.802970511264419 -30.496022326476862 8.577261649632590 197 156 134 255
13.617466285990389 -30.747556252467263 9.552497507933765 201 163 140 255
12.714650238259452 -30.651591238342064 10.287499265370741 204 166 143 255
11.814090452795426 -30.559787068160603 11.020741197779017 207 170 147 255
11.527361126963001 -29.688643203292486 11.231712735722340 209 173 149 255
10.851872697467030 -29.316894059097933 11.773568024001122 212 177 155 255
10.066957516929477 -29.090863745196060 12.408679634667806 217 182 160 255
8.786730138179877 -29.515180823521121 13.465750711673763 220 185 164 255
7.290033080785804 -30.235271956765303 14.707530443124739 219 187 166 255
6.623084516805449 -29.879256908604646 15.242738337280770 221 185 163 255
5.792821546290014 -29.743314295971686 15.917213136065698 222 186 164 255
5.074057331193842 -29.465493216225752 16.496797599645106 223 185 164 255
3.810609027193919 -29.920639514747080 17.540886740474974 223 183 163 255
2.823620092324006 -30.016868189461320 18.349537000927512 215 174 154 255
2.274390751032882 -29.530440116732450 18.785008243464745 205 165 145 255
2.051483530431625 -28.603365890424953 18.942125287019280 190 152 133 255
2.206836346979969 -27.157717392544214 18.776378770783879 174 136 117 255
2.359811790240769 -25.707731343276379 18.612443312501910 162 124 105 255
2.079297666962987 -24.848249782758984 18.818381159115802 157 119 100 255
1.529521816919413 -24.360893058427450 19.254205265781479 158 122 102 255
1.463347489246132 -23.201787101033233 19.277023925340757 156 121 99 255
2.198625482803976 -20.914761681160599 18.614999361979841 149 116 89 255
2.928848657799819 -18.618492964344284 17.956844702068338 140 113 81 255
3.654018218468366 -16.312982196743746 17.302559909750471 133 109 75 255
4.639925582401219 -13.619763746099068 16.424910867930208 124 100 71 255
5.778672668811680 -10.687327717629699 15.416005879129500 112 91 64 255
9.556147366826281 -3.935132130115790 12.149465827864873 98 89 59 255
2.634723229591486 -1.992035176335946 17.748672834078008 90 59 39 255
0.834661756540470 -3.368041214772234 19.255619507931925 117 75 59 255
-0.081976680075599 -3.420161987204381 20.005524221374401 138 92 76 255
-0.893216081279149 -3.319207494945204 20.665248123248773 159 119 101 255
-1.189119658501426 -2.431574683003475 20.882977137166932 156 125 104 255
-1.178181166781997 -1.067610147879975 20.837325074322962 126 103 77 255
31.968249875654834 -21.526930555066002 -6.924066516688896 196 162 140 255
29.940323322207263 -22.647590749874951 -5.227196591679473 202 161 141 255
28.829304424291450 -22.684626783817947 -4.313938385800384 203 163 138 255
27.380756461178578 -23.139640741141164 -3.111729885602074 201 161 136 255
25.370359689313489 -24.292538766805137 -1.428449868582334 197 159 136 255
23.875440658824743 -24.835393264867207 -0.185746252718502 190 154 130 255
22.441609302380442 -25.317481431783477 1.005044069804313 186 150 127 255
19.774434532485373 -27.339853491422048 3.252145350427867 197 162 140 255
17.397803870883649 -29.030959067715628 5.251267496391819 197 161 139 255
14.973767579914579 -30.807963475702422 7.291723057958961 198 162 140 255
13.844217199247396 -30.984047432416162 8.223885030017925 200 162 141 255
12.829450156012797 -31.025013441307948 9.057942836256700 203 165 144 255
12.262648245716832 -30.504959608518845 9.508250763098545 206 168 147 255
11.252394392478067 -30.554249256998133 10.338787728659099 207 169 148 255
10.798967545332488 -29.896523059512305 10.692050394296444 210 172 151 255
9.903555580355260 -29.810824608305921 11.424417250955088 216 180 158 255
8.789745621088230 -30.015903634960864 12.344332082128460 220 184 162 255
7.734211823485509 -30.155051879153575 13.214507664937202 221 186 164 255
6.736587738983616 -30.227597082321836 14.035226556052777 221 186 164 255
6.125292430197163 -29.798915754288146 14.524500832256479 220 185 163 255
5.515033948573091 -29.372154218555380 15.012959229674919 221 186 164 255
4.523938142361459 -29.456717021211801 15.828606075627988 222 187 165 255
3.263430491094766 -29.911303831958833 16.875947023065123 221 185 163 255
2.224125878824481 -30.080292949822194 17.733545726053762 217 179 158 255
1.621309879547482 -29.667232992813013 18.216220815173017 209 171 150 255
1.235792937902147 -28.961425393427930 18.512152773603873 198 157 137 255
1.389773264097386 -27.516857310954521 18.344129102864514 186 143 126 255
1.541376814568821 -26.067952060264673 18.177916690302709 171 128 111 255
1.583204824996187 -24.763380471183041 18.105920404601221 162 118 99 255
1.087366295083569 -24.200948117125620 18.496449372515173 157 116 96 255
0.912813878391802 -23.190845387791825 18.610454550531585 151 115 91 255
1.164022668623602 -21.579047332989092 18.357776683828405 148 113 86 255
2.050918531667975 -19.059291349805619 17.557347365845885 141 112 80 255
2.507306339072841 -17.132559093399749 17.127227301030075 133 107 74 255
3.383610386570638 -14.593428827477368 16.334912475315861 125 102 71 255
4.729756134284997 -11.360655294928677 15.137097883517129 110 89 61 255
7.438786938155971 -6.134197826303421 12.763580346058518 101 84 59 255
1.292549011556929 -1.788706522185748 17.679778303020612 99 63 46 255
-0.498292274931316 -3.171617007492443 19.188894575954748 119 77 60 255
-1.410993876232396 -3.227196681821738 19.939252139138659 143 100 81 255
-1.912053228605345 -2.655214817633862 20.333780563500426 157 120 98 255
-2.055410120685167 -1.529565729903879 20.418867716623481 153 124 97 255
30.388010818146853 -22.687063060604657 -6.827907372679675 197 167 138 255
28.708221342039167 -23.401066139703232 -5.420621987952188 201 165 141 255
27.657409472528627 -23.371575064125921 -4.554755620481615 205 165 140 255
25.025569178979708 -25.271413336273639 -2.326248400814251 202 162 137 255
23.870789262731108 -25.396227318376162 -1.370011150508788 197 159 136 255
22.888199348696787 -25.319487281216709 -0.561957088596586 192 156 132 255
21.739520924039624 -25.455551966766450 0.389522316466184 196 161 138 255
19.416521272433073 -27.059597484160349 2.354173625774820 201 166 144 255
16.766180666752888 -29.098074351223232 4.601993010793706 201 165 143 255
14.907290445226238 -30.173651441720068 6.167726117558203 202 166 144 255
13.834715831626482 -30.276920537900025 7.055321406745634 205 168 146 255
12.820716501559730 -30.315180992947035 7.892600684578838 204 166 145 255
11.920388965744706 -30.217020854423794 8.631950164811144 206 168 147 255
10.911637198442946 -30.264949803184379 9.465144547773093 208 170 149 255
10.292161946334204 -29.819625993226452 9.962242778519482 210 172 151 255
9.177854628013705 -30.018922869473101 10.887055120962600 217 179 158 255
8.066782160751814 -30.224169163200088 11.809359263595354 219 183 161 255
7.178353435393802 -30.147931236339758 12.539447226922618 220 184 162 255
6.182722217650280 -30.220014345328849 13.362446726308406 219 183 161 255
5.517485761087812 -29.863317321027154 13.899878097379172 218 183 161 255
4.908016764024069 -29.436459068896966 14.389159932257598 220 185 163 255
4.190857183557682 -29.157024767657589 14.971731202855750 221 186 164 255
3.095529096101188 -29.391231762545999 15.881823741981549 222 186 164 255
1.895194457355643 -29.777775343121050 16.883146607463743 220 184 162 255
1.130565322379709 -29.583771264260804 17.507426257264513 212 175 153 255
0.529333699282688 -29.172085815184374 17.990299839624811 205 164 144 255
0.305418792362047 -28.245233282751997 18.146274789996085 193 150 133 255
0.402628160929822 -26.872617119960353 18.023808067688492 184 138 122 255
0.658236940809701 -25.273165350099987 17.763775343380416 171 126 107 255
0.590652296920780 -24.115714534278510 17.783748947103931 160 118 96 255
0.574934991726366 -22.880951295064364 17.758576871640770 151 114 89 255
0.770154419718551 -21.343252976337965 17.550191481973400 146 112 84 255
1.333918310927885 -19.274320923186224 17.021647124949027 140 109 78 255
1.681756115437395 -17.499207200256137 16.680129528306622 133 108 74 255
2.448483556249670 -15.112747862635388 15.974487474063039 124 101 69 255
3.525863853592995 -12.261346094893213 14.998448938420609 111 89 60 255
6.908073829674777 -6.049226072198024 12.019036766753970 91 74 49 255
-0.557757725057400 -2.373446445970558 18.058285063465547 102 65 45 255
-1.827398183848800 -2.977776062578982 19.123351716338448 122 77 58 255
-2.532342798110960 -2.720839908457435 19.696421455722088 157 115 95 255
-2.778269276460207 -1.753725642349252 19.869258497732972 167 130 107 255
29.494672281933163 -23.030229736038507 -7.316244766552813 194 174 142 255
26.857054320005261 -24.904993467559137 -5.069864677857140 200 166 141 255
25.528440726132430 -25.222358380501248 -3.958626512919750 204 165 140 255
23.978300087613746 -25.821845644363435 -2.654725771924518 200 163 137 255
22.208100550505350 -26.706144367221725 -1.159290564110705 196 160 136 255
21.903181848780832 -25.803390548719051 -0.935924190315063 197 161 137 255
20.589707080745939 -26.148640205109075 0.163536901539658 199 165 142 255
18.274279917311219 -27.753992317217012 2.134015303243132 204 169 147 255
16.022985043845864 -29.304888561574330 4.049560725301632 204 168 146 255
14.948255261490999 -29.399697933984157 4.942994660108980 208 172 150 255
13.876516088417048 -29.500016366965838 5.834101574875319 210 174 152 255
12.530789714103264 -29.958320876538977 6.963808625286504 208 170 149 255
11.299822910612221 -30.282932152440992 7.994068777047232 209 171 150 255
10.348336219496417 -30.259676236390249 8.781454445983144 211 173 152 255
9.399351802095509 -30.241030147278707 9.566892758963178 212 174 153 255
8.562683685862027 -30.084211651382844 10.254765260585373 215 177 156 255
7.454105281754494 -30.289177961423292 11.179647040296061 216 178 157 255
6.731401230572118 -29.997227306996820 11.768667076574218 218 180 159 255
5.792060229027555 -29.996339674773509 12.546607202332950 220 182 161 255
4.964058876065309 -29.855486419949784 13.227735994296097 219 184 162 255
4.246664837628884 -29.573325219668106 13.812617055169937 220 185 163 255
3.584971391558526 -29.221246196604483 14.349060805215032 223 187 165 255
2.492139365097273 -29.455177111453509 15.261729219813503 223 187 165 255
1.456471691530055 -29.621868688592087 16.124837985243005 223 187 165 255
0.585219318848658 -29.573844615899532 16.844737583333284 219 181 160 255
-0.176402351488179 -29.382718747729598 17.469144553326430 211 170 150 255
-0.614866007563194 -28.751755094618318 17.811507127990808 201 158 141 255
-0.946137609899182 -27.973222004858314 18.060251767314924 192 146 130 255
-0.797701315304465 -26.525713977584616 17.889800390485533 178 133 114 255
-0.598440336492814 -24.999351537385053 17.674663591674289 164 123 101 255
-0.295642227116758 -23.318724407017413 17.368717976487005 153 116 90 255
-0.101859170685202 -21.782352086004835 17.157768414728025 147 111 83 255
0.089307761705527 -20.241198370145838 16.948819426189488 139 109 75 255
0.435994882451780 -18.469032320067583 16.603499973256476 132 104 70 255
1.094877336794838 -16.236947645700013 15.984560861645718 121 96 65 255
2.326106505448166 -13.161651450356999 14.864000492603736 110 86 58 255
5.957800543203746 -6.573023082704424 11.640383029271277 89 72 47 255
9.153017205386476 -0.560616374632389 8.797101364157072 37 34 8 255
-0.111316709193801 -0.790487037505045 16.475165100058092 102 73 51 255
-1.889124804763611 -2.177313251534599 17.992765367563635 112 67 48 255
-2.949589576663470 -2.470624543520785 18.880474690715516 134 89 70 255
-3.297814553251499 -1.661075118267377 19.142212710731485 170 125 104 255
27.358672591854713 -24.869517147835865 -6.715994402480504 187 188 147 255
25.690943786628566 -25.589304262860594 -5.302860764151660 201 171 146 255
24.028650927903698 -26.319091884541081 -3.893944687925568 203 166 142 255
23.158370931895092 -26.097313029418075 -3.177097530150604 201 164 138 255
22.514349220423128 -25.603625760894829 -2.657983340003966 198 162 138 255
21.647603249903511 -25.388393096611111 -1.943919495378992 198 164 139 255
19.164171830393940 -27.188195087821498 0.185217737349262 201 169 145 255
17.135404059873252 -28.448075721082176 1.917273720549247 203 171 148 255
15.947373719292671 -28.674029731789119 2.913873060290371 210 175 153 255
15.040075532748318 -28.556252409156116 3.664927880214833 213 178 156 255
13.581753065439301 -29.145157086773850 4.898959798611116 212 176 154 255
11.796896565407081 -30.165557946954522 6.419630547019466 211 175 153 255
10.679214312615443 -30.348895627504589 7.356099482179275 209 173 151 255
9.729652715868241 -30.325418334279107 8.145479635046797 210 172 151 255
8.892272924238540 -30.164257863034294 8.836715477248561 211 173 152 255
8.275777166384302 -29.721329964050426 9.334362100271164 213 175 154 255
7.387342362467422 -29.638297554755241 10.070742579352441 216 178 157 255
6.501166352168923 -29.559425634297043 10.805365915335187 218 180 159 255
5.019386104354595 -30.277168689004725 12.063186624049649 218 180 159 255
4.193299314073499 -30.136808610003754 12.745637754272849 217 182 160 255
3.639762534331766 -29.637715884931083 13.188844987663799 218 182 160 255
3.033034961540039 -29.212808975274328 13.678866034906662 220 184 162 255
2.050304026246721 -29.300369646267200 14.499508721826771 220 183 161 255
1.070319212857896 -29.392976980569131 15.318025770574991 219 181 160 255
0.361176190506654 -29.123718878095588 15.898615168538299 217 179 158 255
-0.399938026896820 -28.930876253044801 16.525085143167701 213 172 152 255
-1.159282491047975 -28.741288970764572 17.150182464255607 205 162 145 255
-1.757097002841135 -28.332800018916714 17.633269075991961 195 149 133 255
-1.822557366523824 -27.183474107262782 17.647685686768796 180 135 116 255
-1.730387531230804 -25.808102977030899 17.523088698704356 168 127 105 255
-1.375907662381735 -24.055236106062921 17.167122779617443 155 115 90 255
-0.919242717342513 -22.146360693240695 16.720707846542524 145 109 81 255
-0.729633004511442 -20.606310540677640 16.509288550055828 138 105 72 255
-0.437593102232938 -18.910698924520403 16.207233639431308 130 100 66 255
0.113349520541988 -16.831348521778239 15.676429882579271 118 93 62 255
1.548718726456485 -13.454882217665045 14.364702969908137 107 82 52 255
4.644669095201891 -7.629049422293292 11.586250519155044 92 73 47 255
8.348806345697795 -0.858097956034101 8.268932841933946 29 26 2 255
-1.701541132273974 -0.983691212085660 16.633246803677650 114 68 49 255
-3.064907830689094 -1.746903792241824 17.793960077044687 121 74 56 255
-3.868591338440865 -1.647732515677717 18.459053842142595 132 87 66 255
-4.317936915574876 -0.996426030644557 18.810159070207817 154 113 93 255
24.809391508414450 -25.932228580246232 -5.780018773687971 200 179 148 255
23.656835393779062 -26.046492872969054 -4.811935546836366 205 169 143 255
22.899474790647332 -25.686079945101369 -4.191665714603033 205 168 142 255
22.981718623516286 -24.295184283468870 -4.311097909145587 202 166 142 255
21.054823605190450 -25.388398450947989 -2.659901835352571 201 167 142 255
17.298879152687732 -28.781919749661711 0.604626784793140 208 175 152 255
15.944390697926991 -29.211407080589908 1.752902093690011 209 177 154 255
15.147946421657878 -28.950811769114125 2.409338119938610 213 178 156 255
